-0.55087984 -0.40594408 -0.18079178 104 137 30
-0.55723327 -0.41489348 -0.14427090 84 119 3
-0.54857188 -0.41703752 -0.16537425 151 163 65
-0.55260903 -0.42072657 -0.13749371 76 85 20
-0.55059922 -0.41862720 -0.16259469 149 159 62
-0.56618828 -0.40341398 -0.15153423 66 94 10
-0.55920750 -0.40706843 -0.17086290 45 90 0
-0.55451608 -0.41571680 -0.13303466 139 136 83
-0.56686950 -0.40409553 -0.16147876 93 127 50
-0.55529767 -0.41743332 -0.16217168 82 124 0
-0.56469423 -0.40486002 -0.15407923 108 146 33
-0.55456263 -0.42251122 -0.14419548 110 109 61
-0.56136596 -0.41350698 -0.15470678 75 122 8
-0.55395001 -0.42063332 -0.15639687 128 153 59
-0.55791855 -0.39910230 -0.14297287 107 139 56
-0.54785460 -0.40477404 -0.16131470 152 165 95
-0.54720658 -0.40963292 -0.15900242 107 93 80
-0.55002594 -0.39975333 -0.17809103 105 137 38
-0.55117422 -0.39789462 -0.17259999 104 134 34
-0.56472290 -0.39319068 -0.15278204 106 133 38
-0.56157649 -0.39315066 -0.15257856 122 158 50
-0.56780434 -0.39638337 -0.15023404 102 128 41
-0.56794590 -0.39784566 -0.14696279 173 193 106
-0.56148976 -0.39322570 -0.14868180 126 160 48
-0.55143023 -0.39746726 -0.16597486 112 142 46
-0.55173510 -0.39764121 -0.16167748 124 151 54
-0.55601412 -0.40426385 -0.13966031 92 118 27
-0.54846054 -0.40458211 -0.15633421 110 107 74
-0.54840070 -0.40684128 -0.15286730 93 82 64
-0.55153233 -0.40654284 -0.14344268 88 82 50
-0.55888766 -0.39343253 -0.15424064 129 167 64
-0.56479335 -0.39429268 -0.14154482 119 148 40
-0.56718785 -0.39503083 -0.14808229 106 137 44
-0.56130421 -0.39675486 -0.16558948 146 178 32
-0.54881936 -0.40222153 -0.16400045 124 150 59
-0.55117691 -0.39788690 -0.17222311 106 136 36
-0.55021244 -0.39946297 -0.16568297 132 162 62
-0.55831009 -0.40578192 -0.18993756 91 127 63
-0.55610740 -0.40095520 -0.18545255 105 132 63
-0.56659400 -0.39939418 -0.14313443 72 92 23
-0.55789512 -0.42004442 -0.14061204 119 141 41
-0.56283271 -0.39848784 -0.16582136 111 124 80
-0.56502479 -0.40352908 -0.16246751 63 91 33
-0.56049752 -0.40512204 -0.13952613 62 85 0
-0.55941653 -0.40150586 -0.17322458 127 148 83
-0.55776447 -0.40581223 -0.19021739 88 125 58
-0.55336756 -0.40281457 -0.18697716 169 191 106
-0.55607480 -0.39697856 -0.15019943 154 197 82
-0.56013912 -0.40570244 -0.13996522 116 142 35
-0.54661721 -0.41641912 -0.16010788 72 72 46
-0.56211340 -0.39785600 -0.16687985 131 153 55
-0.56016183 -0.39873743 -0.17046350 137 167 33
-0.54675943 -0.41577408 -0.15879579 87 90 43
-0.54782468 -0.41593966 -0.14949082 169 147 134
-0.54788357 -0.41202986 -0.15012442 137 120 100
-0.56269187 -0.39558747 -0.16212429 156 190 31
-0.54963106 -0.41195530 -0.14315960 109 92 64
-0.55020499 -0.41682541 -0.14188102 192 163 147
-0.54834574 -0.41436225 -0.14714971 159 140 123
-0.55225617 -0.40188906 -0.14905965 87 85 47
-0.55033380 -0.40584859 -0.14824881 138 122 97
-0.55232555 -0.40567395 -0.14249088 70 64 30
-0.55218953 -0.40632662 -0.14192095 81 75 39
-0.55539459 -0.39926749 -0.18467273 164 154 101
-0.56307101 -0.40538588 -0.16967960 68 103 37
-0.54586422 -0.41103801 -0.16874896 144 160 72
-0.54551357 -0.41221222 -0.16895150 155 169 84
-0.55925268 -0.40603411 -0.18255229 70 105 37
-0.55699688 -0.42079675 -0.13858998 125 139 51
-0.55161703 -0.40014449 -0.18380988 115 149 39
-0.56848466 -0.40114182 -0.15508996 120 142 57
-0.56709349 -0.39459038 -0.15425299 105 132 37
-0.55738533 -0.39861277 -0.14583328 141 183 83
-0.55479980 -0.42225519 -0.13308811 117 127 56
-0.56164283 -0.39848563 -0.13837004 105 132 27
-0.55428010 -0.39745140 -0.17650658 114 141 24
-0.56021810 -0.40574729 -0.17825937 83 119 45
-0.55122602 -0.40131509 -0.15315880 126 128 89
-0.56572866 -0.40210786 -0.14607498 104 129 37
-0.56708837 -0.40267375 -0.15093787 116 143 36
-0.55932426 -0.39298207 -0.15977332 121 156 38
-0.55478388 -0.39483246 -0.15674460 116 155 48
-0.55890208 -0.41666263 -0.13592269 112 142 54
-0.55343246 -0.39730117 -0.15485376 176 211 111
-0.75227582 -0.50204498 -0.10883982 154 187 74
-0.72147530 -0.47367069 -0.07055503 176 198 116
-0.72301137 -0.47252089 -0.07064529 176 200 122
-0.76027364 -0.49549693 -0.09659314 162 184 50
-0.74646306 -0.48346820 -0.09283489 140 174 88
-0.71616590 -0.46759906 -0.06406949 159 192 101
-0.76129270 -0.49585095 -0.10039205 176 196 73
-0.75300378 -0.49760124 -0.10902078 60 90 16
-0.72655582 -0.48212188 -0.07698157 142 172 84
-0.71706533 -0.47318584 -0.06809217 121 151 61
-0.71179259 -0.47856662 -0.07160728 81 127 2
-0.73561203 -0.48464808 -0.08892360 104 137 4
-0.73613149 -0.48460558 -0.08463950 140 182 72
-0.72968262 -0.48198497 -0.07990977 161 189 104
-0.75662398 -0.49427372 -0.10473371 105 129 15
-0.75807506 -0.48648971 -0.08786992 154 174 61
-0.71722776 -0.48272124 -0.07589729 103 138 46
-0.70950800 -0.48003104 -0.06411416 120 158 39
-0.75287920 -0.49660999 -0.10309254 127 161 23
-0.74761534 -0.49740657 -0.10086148 120 155 3
-0.70556557 -0.48018169 -0.06511452 104 146 10
-0.74619377 -0.49510270 -0.09165358 168 211 80
-0.75925648 -0.49849284 -0.08507721 183 200 70
-0.74645400 -0.48829636 -0.09336394 121 158 45
-0.75129801 -0.49908939 -0.10374655 139 179 47
-0.73460805 -0.48745736 -0.08938491 80 121 1
-0.71680129 -0.48061922 -0.07066327 106 141 41
-0.72413075 -0.48295644 -0.07569428 112 144 47
-0.75271553 -0.49364492 -0.10097444 124 166 32
-0.74337244 -0.49684215 -0.09508507 128 165 10
-0.74448025 -0.48945898 -0.09421073 82 120 0
-0.73942608 -0.49418360 -0.09289899 147 184 6
-0.74067867 -0.47811109 -0.08551201 119 155 65
-0.74149692 -0.48810765 -0.08855564 153 192 73
-0.73456216 -0.48859942 -0.08518518 150 184 64
-0.73315799 -0.48878145 -0.08445276 143 179 55
-0.74559617 -0.49292895 -0.09522350 116 150 1
-0.74976420 -0.49373937 -0.09552524 126 168 42
-0.72490776 -0.46924058 -0.07001588 138 168 80
-0.75781536 -0.48815581 -0.09315664 172 178 72
-0.72049028 -0.47121045 -0.06848495 175 199 121
-0.75777584 -0.49369085 -0.08909436 138 160 26
-0.75186360 -0.48913145 -0.09697833 98 133 29
-0.71247149 -0.47965902 -0.06615058 121 158 42
-0.75122452 -0.49428302 -0.10380175 75 109 0
-0.74932140 -0.49104694 -0.10155552 77 113 5
-0.70625740 -0.48086065 -0.06537656 97 138 18
-0.73779213 -0.49005014 -0.08730811 168 201 84
-0.71330124 -0.48146519 -0.07634243 74 117 2
-0.74359936 -0.49387237 -0.09031483 155 198 65
-0.73486942 -0.49052104 -0.09089931 96 132 8
-0.71277380 -0.47789419 -0.06534811 136 173 60
-0.72740978 -0.48479384 -0.08774163 82 126 3
-0.73144299 -0.48320153 -0.08698199 109 156 2
-0.72651213 -0.47869706 -0.07553108 126 154 67
-0.75574034 -0.50080979 -0.10864216 131 163 18
-0.72900039 -0.48838094 -0.08744261 115 151 61
-0.70902997 -0.47582105 -0.06291582 137 170 55
-0.75619316 -0.49293920 -0.07917406 176 197 68
-0.71625084 -0.47777328 -0.06767573 145 180 76
-0.72433859 -0.48387155 -0.08303488 114 146 49
-0.73111850 -0.48951751 -0.08770404 122 159 66
-0.72858411 -0.48733267 -0.08382685 115 151 51
-0.74135303 -0.49441409 -0.09105535 150 191 69
-0.72311532 -0.48433703 -0.07746527 81 113 14
-0.73181033 -0.49047649 -0.08974092 139 179 80
-0.71012819 -0.48093835 -0.06641707 102 141 26
-0.71098089 -0.47076494 -0.06425998 114 143 53
-0.75619757 -0.48965254 -0.09941928 110 137 40
-0.75917047 -0.49270573 -0.10490006 111 129 21
-0.70506096 -0.47295880 -0.06021176 140 176 50
-0.74585342 -0.49652159 -0.09732917 74 111 0
-0.73004997 -0.47565180 -0.07779257 156 194 107
-0.73774409 -0.47975478 -0.08407637 160 196 106
-0.73717046 -0.47931951 -0.08357091 166 202 112
-0.77675545 -0.49774751 -0.15131442 107 128 49
-0.75440198 -0.48076418 -0.10018613 78 108 22
-0.77455008 -0.49717835 -0.16759108 125 145 86
-0.77116960 -0.49887335 -0.15234785 121 143 58
-0.75764513 -0.48170456 -0.10180546 64 97 8
-0.76593608 -0.49729419 -0.13906296 127 151 73
-0.75924087 -0.48879516 -0.13652883 114 142 40
-0.75838184 -0.48881850 -0.13177525 129 154 52
-0.75850785 -0.49238083 -0.14911270 139 163 69
-0.75906885 -0.49300686 -0.14980209 134 160 69
-0.75092316 -0.49002460 -0.10561450 102 128 29
-0.77971780 -0.50310272 -0.14501095 86 114 29
-0.75849390 -0.49167863 -0.15324673 143 168 74
-0.75988418 -0.49469021 -0.12965377 125 152 75
-0.75961149 -0.49453533 -0.13915201 129 153 75
-0.76230294 -0.49583581 -0.14037292 125 150 67
-0.77554333 -0.49902055 -0.15185946 111 138 45
-0.77429259 -0.49752095 -0.18041503 136 156 97
-0.77156442 -0.49735057 -0.17481261 135 159 97
-0.77084279 -0.49735895 -0.17363864 136 162 97
-0.75675076 -0.49073073 -0.12071981 154 173 91
-0.76505458 -0.49638173 -0.16827627 131 157 84
-0.75923139 -0.49240193 -0.15672611 142 169 74
-0.75290871 -0.49233255 -0.10817372 66 94 20
-0.75582892 -0.48984984 -0.11418662 122 139 43
-0.75888920 -0.48900697 -0.14035933 135 158 54
-0.75678724 -0.48934308 -0.14684275 169 184 115
-0.77666682 -0.50102425 -0.14588760 91 122 44
-0.76271778 -0.49643785 -0.12834845 130 153 71
-0.75939566 -0.48864233 -0.13021757 99 126 29
-0.75693661 -0.49331418 -0.13122861 136 160 76
-0.75926942 -0.49217746 -0.16042885 141 166 72
-0.76040894 -0.49414116 -0.16791666 135 156 81
-0.76826715 -0.48935977 -0.11689281 36 55 0
-0.76741582 -0.48969415 -0.12124287 55 75 14
-0.76951903 -0.49611497 -0.14991154 123 148 64
-0.78426236 -0.50659734 -0.13729689 72 102 12
-0.76272744 -0.49523288 -0.15572141 127 153 62
-0.76242220 -0.48742425 -0.12061538 72 95 15
-0.76061898 -0.48817387 -0.12316674 85 107 22
-0.79473454 -0.50694156 -0.12789358 103 130 61
-0.75688481 -0.48245063 -0.10129245 60 92 7
-0.77603120 -0.50174928 -0.14826635 84 117 30
-0.76714730 -0.49671486 -0.14438030 133 157 81
-0.77018058 -0.49590901 -0.14833306 114 141 60
-0.76527667 -0.49661911 -0.14801979 131 157 70
-0.76440531 -0.49667436 -0.14308643 127 153 66
-0.76779377 -0.49868891 -0.15930927 134 158 84
-0.80038452 -0.51218879 -0.12354022 105 134 44
-0.76095730 -0.49524829 -0.13257606 127 154 77
-0.77740949 -0.50255817 -0.14738697 84 117 30
-0.75389117 -0.48623878 -0.10967299 69 94 3
-0.75664353 -0.49149147 -0.13989455 165 178 96
-0.79389447 -0.51147580 -0.12493748 75 112 9
-0.76124948 -0.49642950 -0.12161623 133 156 76
-0.75893736 -0.49417341 -0.12743105 129 151 78
-0.76917070 -0.49701682 -0.18176864 136 161 96
-0.76381028 -0.48818436 -0.10602529 74 94 0
-0.76453310 -0.48853305 -0.12042381 64 86 14
-0.76429451 -0.48840767 -0.12065382 65 87 15
-0.80080903 -0.50902969 -0.12230285 102 129 58
-0.76730460 -0.49064511 -0.13086723 60 77 6
-0.78735411 -0.50895637 -0.13458399 112 146 33
-0.78837860 -0.51037717 -0.13114296 73 112 5
-0.75610954 -0.49099493 -0.13235854 140 150 90
-0.75704908 -0.49238804 -0.11938284 150 169 90
-0.79011190 -0.51063818 -0.12952608 116 151 35
-0.76542109 -0.49657843 -0.17573982 130 158 81
-0.76878542 -0.49719685 -0.17441526 128 158 88
-0.76820308 -0.49718276 -0.17290467 128 154 81
-0.77003503 -0.49432513 -0.13992986 47 60 4
-0.76360238 -0.49617690 -0.15850948 137 161 85
-0.76163274 -0.49469104 -0.15653883 124 153 63
-0.76669592 -0.48388106 -0.11146347 92 99 32
-0.75949949 -0.48324504 -0.11115506 31 52 0
-0.77223337 -0.49714571 -0.16354702 132 152 89
-0.78562963 -0.50366211 -0.13990647 90 118 34
-0.76383978 -0.48133421 -0.11008899 64 85 8
-0.79147011 -0.50673693 -0.13163489 90 119 53
-0.76556754 -0.49676368 -0.15449730 168 188 116
-0.75450277 -0.48316434 -0.10774340 73 101 1
-0.57461834 -0.42181209 -0.08199605 81 127 39
-0.66822249 -0.45596439 -0.05203180 123 159 69
-0.67865670 -0.46182883 -0.05397640 128 175 63
-0.63690007 -0.43656129 -0.05401743 109 148 31
-0.57395536 -0.40436459 -0.10917746 76 120 9
-0.64837432 -0.45086426 -0.05087806 140 186 78
-0.66157812 -0.45451987 -0.05231011 122 165 57
-0.58765602 -0.43284506 -0.07602828 160 190 100
-0.60859460 -0.42543480 -0.05862347 159 196 57
-0.58046091 -0.41137549 -0.09003942 95 131 23
-0.67181402 -0.44466344 -0.04982015 104 150 18
-0.57475197 -0.41264656 -0.09425009 100 134 57
-0.58375955 -0.40832835 -0.09033121 74 107 3
-0.63136190 -0.43082014 -0.05937432 144 189 8
-0.58022457 -0.40668973 -0.10227791 111 148 17
-0.58089852 -0.41150656 -0.08727387 121 154 47
-0.58459699 -0.41061029 -0.08166176 118 145 28
-0.63249058 -0.45038089 -0.04946284 144 184 49
-0.58043349 -0.42144406 -0.07900759 85 126 50
-0.58101839 -0.42164749 -0.07852526 90 130 57
-0.58147103 -0.41869876 -0.08460630 74 112 0
-0.58317983 -0.41795114 -0.08253016 93 131 0
-0.67137587 -0.44643667 -0.04931732 123 168 23
-0.68730772 -0.46558210 -0.05519593 119 160 54
-0.58755481 -0.41875166 -0.07705496 126 172 12
-0.68191165 -0.46373913 -0.05464721 116 158 46
-0.68698883 -0.47192892 -0.05475600 181 218 53
-0.59716898 -0.42141888 -0.06649371 104 150 0
-0.57061112 -0.40881005 -0.10269855 113 153 54
-0.58900332 -0.42234218 -0.07464640 84 128 4
-0.62066799 -0.42624694 -0.05737905 124 159 17
-0.59419972 -0.42265430 -0.06785210 134 176 64
-0.57137382 -0.41275162 -0.09344912 82 122 7
-0.60248208 -0.44224250 -0.06953164 145 163 63
-0.62187243 -0.44463804 -0.05041815 160 193 26
-0.59345067 -0.42668611 -0.07006636 78 128 0
-0.59267008 -0.41616043 -0.07220590 110 151 11
-0.61573946 -0.43442780 -0.05877024 155 186 93
-0.61323059 -0.43447506 -0.05971247 148 180 83
-0.57830477 -0.40796107 -0.10182663 79 111 12
-0.57555312 -0.40936229 -0.10079643 75 107 6
-0.59210479 -0.43542913 -0.07470234 139 170 90
-0.57792515 -0.41096589 -0.09626872 88 126 17
-0.61972350 -0.44026965 -0.05436088 123 167 54
-0.61594725 -0.44263986 -0.05604777 151 193 67
-0.63740885 -0.43887299 -0.05274459 147 183 77
-0.62636834 -0.44365549 -0.04962107 94 136 8
-0.57066745 -0.40751073 -0.10800623 93 129 31
-0.62500012 -0.43150994 -0.05566599 161 199 60
-0.58034426 -0.40715364 -0.10210446 130 167 10
-0.63443971 -0.43528014 -0.05827403 125 173 12
-0.64311016 -0.45453110 -0.05156806 156 196 61
-0.58552629 -0.40684241 -0.08278605 108 138 38
-0.57973522 -0.41612682 -0.08800799 89 128 0
-0.67676985 -0.46903747 -0.05514380 147 184 53
-0.61163253 -0.43907496 -0.05990065 160 203 72
-0.57274115 -0.40800285 -0.10438380 87 122 22
-0.58217663 -0.41874644 -0.07882623 91 121 69
-0.58442128 -0.42041203 -0.07611030 89 120 61
-0.56796843 -0.41078815 -0.09899109 88 126 41
-0.57756400 -0.40610060 -0.10535106 102 138 28
-0.66348958 -0.44195923 -0.04925555 127 169 0
-0.66709328 -0.44563758 -0.04925812 139 188 1
-0.60725123 -0.43707156 -0.06270576 184 213 94
-0.60443234 -0.43423596 -0.06423502 175 205 109
-0.68360418 -0.45719692 -0.05489183 128 170 72
-0.60194439 -0.44283628 -0.07145493 127 152 50
-0.58029413 -0.40183488 -0.10486121 118 148 34
-0.65988863 -0.45653522 -0.05380362 126 160 40
-0.60003263 -0.43601501 -0.06845159 153 179 88
-0.59472299 -0.43189248 -0.07059069 173 205 104
-0.58841968 -0.41486421 -0.07437501 137 165 65
-0.61324424 -0.42619258 -0.05759207 176 209 68
-0.60854727 -0.44134265 -0.06056242 169 208 79
-0.67728454 -0.46993253 -0.05517622 136 173 44
-0.64148504 -0.44186470 -0.05212712 150 187 84
-0.65111959 -0.44749829 -0.05141474 157 198 106
-0.63219374 -0.44805214 -0.04973392 146 187 49
-0.58713073 -0.40768272 -0.08842860 78 114 14
-0.60008615 -0.42582050 -0.06439772 159 196 83
-0.58181733 -0.40985194 -0.09377146 85 117 0
-0.58714581 -0.42344627 -0.07354714 144 182 79
-0.58585054 -0.40828988 -0.09238451 65 97 0
-0.57651973 -0.40207544 -0.11040508 112 147 19
-0.58585101 -0.40971905 -0.08586119 81 119 0
-0.58782166 -0.40695450 -0.08310398 104 144 32
-0.64669967 -0.44622034 -0.05140908 158 192 108
-0.61555827 -0.44945353 -0.05341354 166 200 51
-0.62745267 -0.45436415 -0.04956257 126 175 60
-0.57899863 -0.42555514 -0.07875897 102 149 77
-0.63691509 -0.43376178 -0.05785953 76 118 0
-0.61500007 -0.42413422 -0.05629567 152 185 42
-0.61309534 -0.42893648 -0.05818136 164 197 66
-0.61461055 -0.42796221 -0.05767232 185 220 74
-0.67459846 -0.45382401 -0.05217917 144 186 84
-0.63193828 -0.45121565 -0.04945267 135 179 58
-0.60204846 -0.43586588 -0.06653991 141 171 83
-0.60015810 -0.43219537 -0.06682719 159 190 97
-0.62829453 -0.44068226 -0.05131288 110 153 38
-0.67284256 -0.44812828 -0.05055196 133 179 47
-0.63056719 -0.42637637 -0.06119500 94 143 0
-0.64267278 -0.43422899 -0.05828921 127 169 21
-0.62698853 -0.44747588 -0.04889540 182 217 65
-0.69002450 -0.47029996 -0.05424486 143 183 35
-0.65566856 -0.43874884 -0.05117040 139 178 7
-0.65496421 -0.45350048 -0.05204341 142 185 80
-0.57443559 -0.41780221 -0.08679002 70 108 7
-0.69007009 -0.46157441 -0.05645572 159 194 102
-0.69264513 -0.46512952 -0.05674239 118 150 53
-0.60377848 -0.42749089 -0.06189371 158 196 74
-0.62616467 -0.43377054 -0.05514342 131 170 43
-0.61973834 -0.43402532 -0.05718939 165 202 89
-0.66204911 -0.44226989 -0.04892718 178 220 58
-0.65466762 -0.45577300 -0.05630720 122 164 28
-0.56869483 -0.41725197 -0.08918341 59 100 0
-0.67338526 -0.46219546 -0.05299976 127 168 66
-0.59062207 -0.43210992 -0.07350641 145 179 95
-0.60490608 -0.44648898 -0.06380973 186 198 100
-0.64613414 -0.44144014 -0.05206622 131 177 52
-0.63564295 -0.44402650 -0.05119108 108 146 43
-0.66624486 -0.44101509 -0.04838673 150 197 7
-0.57270288 -0.41964576 -0.08626729 80 119 13
-0.58417761 -0.40875235 -0.09383307 81 117 7
-0.63888413 -0.44822183 -0.05044869 124 173 58
-0.60494006 -0.44850227 -0.06316618 138 145 91
-0.58032060 -0.41309717 -0.08430768 117 151 56
-0.59328002 -0.41232780 -0.07230719 159 194 30
-0.66545689 -0.45212561 -0.05086995 159 199 102
-0.58269715 -0.40964288 -0.08497832 103 132 24
-0.58191490 -0.40750459 -0.09854526 97 136 11
-0.58989245 -0.41769654 -0.07182046 135 179 68
-0.60364836 -0.43845367 -0.06624318 153 177 91
-0.61799324 -0.45624658 -0.04868218 90 129 23
-0.67446363 -0.44627857 -0.05165526 64 110 1
-0.64679503 -0.43703833 -0.05541126 97 142 0
-0.68744707 -0.47462121 -0.05378263 161 201 50
-0.59396267 -0.41517434 -0.07101406 91 125 0
-0.63211542 -0.43013805 -0.06023368 135 177 5
-0.61208606 -0.43022028 -0.05907845 166 203 74
-0.68469030 -0.47046199 -0.05387865 166 203 46
-0.60566515 -0.44986033 -0.06624664 135 157 56
-0.57681352 -0.41824040 -0.08458059 73 113 25
-0.66156483 -0.44485572 -0.04896659 177 219 73
-0.62305993 -0.45700759 -0.04932918 177 205 92
-0.68325692 -0.46510100 -0.05430761 125 170 51
-0.63136077 -0.43197092 -0.05709245 131 176 31
-0.65696645 -0.43981519 -0.05125087 165 207 47
-0.65871751 -0.44095081 -0.05029277 171 212 56
-0.63696158 -0.43720701 -0.05337526 117 154 40
-0.58556235 -0.41035447 -0.08027881 115 140 23
-0.68612838 -0.46894524 -0.05384099 147 186 43
-0.63830239 -0.43808207 -0.05709644 81 128 0
-0.58180964 -0.41621181 -0.08072215 112 143 86
-0.59042764 -0.41175646 -0.07319931 122 147 43
-0.59497553 -0.42667499 -0.06821327 146 183 90
-0.58072513 -0.40209275 -0.10602542 165 190 62
-0.61997235 -0.45268849 -0.04646748 111 159 39
-0.57199478 -0.41684341 -0.08788786 78 116 5
-0.57799459 -0.40146688 -0.11024824 147 177 47
-0.68134958 -0.46944270 -0.05388517 178 214 80
-0.63501656 -0.43721789 -0.05318031 142 180 69
-0.62617564 -0.43757197 -0.05407700 160 193 104
-0.58336008 -0.41130355 -0.08782537 77 114 0
-0.60540020 -0.44294021 -0.06415778 150 167 73
-0.64133543 -0.43465048 -0.05832051 89 133 0
-0.65151322 -0.45534584 -0.05240181 150 186 52
-0.65325928 -0.43815985 -0.05183137 129 175 7
-0.63763362 -0.43082234 -0.05994751 90 131 0
-0.64366525 -0.43482462 -0.05748254 126 170 11
-0.64395118 -0.43736643 -0.05447646 113 155 21
-0.65946740 -0.44684178 -0.04982771 155 201 67
-0.63020748 -0.42783937 -0.06092733 87 134 4
-0.83441353 -0.51923251 0.05798689 186 213 48
-0.83639556 -0.51791334 0.05889636 105 130 0
-0.77154738 -0.47485018 -0.01442232 202 225 21
-0.78282166 -0.48604676 -0.00822125 208 229 48
-0.83469683 -0.52287519 0.05999273 107 136 0
-0.83777452 -0.52164984 0.06209217 183 210 55
-0.78657079 -0.48879528 0.00688402 206 231 18
-0.77852845 -0.49566922 -0.00243809 156 191 1
-0.78091294 -0.49433336 0.00333821 156 193 2
-0.83163309 -0.51653087 0.05504935 161 197 13
-0.76773673 -0.50317305 0.00452600 154 176 0
-0.75588316 -0.49087632 -0.00728226 202 214 112
-0.77075589 -0.48346469 -0.01698500 131 161 0
-0.77020389 -0.48395199 -0.01776054 119 147 0
-0.76088476 -0.50351506 0.01898533 119 148 8
-0.75667161 -0.50051832 0.00485915 174 202 22
-0.76866567 -0.47928134 -0.01653603 184 205 14
-0.81436372 -0.49379882 0.01056620 207 226 23
-0.76477706 -0.50280774 0.01274031 106 104 21
-0.82730782 -0.50075316 0.03249197 130 171 7
-0.80357552 -0.49192402 0.01637976 179 215 3
-0.77705187 -0.48210177 -0.00950834 191 213 4
-0.81694943 -0.48877144 0.02318169 194 219 4
-0.82384950 -0.49700516 0.03113410 147 186 9
-0.80261242 -0.48682848 0.01935525 222 244 35
-0.78921771 -0.48140818 0.01001994 215 241 32
-0.81190246 -0.48978165 0.01910266 187 218 0
-0.81469584 -0.48935658 0.01954087 195 227 0
-0.76675808 -0.47677809 -0.01763180 211 229 45
-0.75987166 -0.47782812 -0.01887297 234 251 74
-0.79059696 -0.47743812 0.01092571 222 238 43
-0.80469269 -0.48764667 0.02238550 212 242 60
-0.79796791 -0.49481019 0.01847046 234 251 23
-0.77473032 -0.47890893 -0.01535956 203 232 18
-0.77620035 -0.47931591 -0.01374981 220 245 42
-0.78268212 -0.47949561 -0.00112543 215 239 19
-0.79971933 -0.49063495 0.02035945 241 253 69
-0.76766485 -0.50028491 -0.00500601 155 172 6
-0.80569816 -0.48918849 0.01851472 196 232 8
-0.80908817 -0.48654869 0.02105712 199 225 6
-0.80491596 -0.49248418 0.02573180 239 255 81
-0.79556644 -0.49361309 0.01255248 183 213 3
-0.79580706 -0.49462038 0.01065313 211 235 35
-0.77858001 -0.49523550 -0.00245914 148 182 0
-0.75906527 -0.50477695 0.01192329 156 177 36
-0.81352204 -0.49733046 0.03287766 225 255 62
-0.81033045 -0.49352986 0.02933392 192 221 35
-0.78149748 -0.47697982 -0.00165318 215 236 33
-0.82654023 -0.50286043 0.03808877 158 190 3
-0.77536589 -0.49143118 -0.00966148 152 184 0
-0.79326326 -0.48113072 0.01202431 218 237 31
-0.77871197 -0.48955825 -0.00481068 174 202 6
-0.79131776 -0.48943293 0.01180834 195 218 6
-0.80355740 -0.49966812 0.02777188 198 231 38
-0.76254481 -0.48552334 -0.01995520 205 234 46
-0.76999414 -0.49908185 -0.01198515 167 187 1
-0.81833506 -0.49507943 0.00741459 130 162 0
-0.78322327 -0.49126980 0.00451682 185 217 18
-0.82102203 -0.50272006 0.03841322 166 201 13
-0.81879401 -0.49413925 0.01448331 185 210 22
-0.78912789 -0.47852835 0.01150453 235 247 59
-0.79323500 -0.48906538 0.01384489 220 243 41
-0.76999027 -0.49595729 -0.01539557 158 186 3
-0.76093578 -0.48532706 -0.02010797 226 244 62
-0.75975329 -0.50439733 0.01327804 147 171 25
-0.75701761 -0.50138557 0.00622260 186 213 36
-0.83226591 -0.51114541 0.04776737 127 164 0
-0.76416671 -0.49673492 -0.01387787 144 173 0
-0.82104295 -0.49338540 0.02080785 236 252 58
-0.78976899 -0.47751746 0.00897623 195 225 3
-0.76221985 -0.50301301 0.01856010 128 156 19
-0.80151290 -0.50176841 -0.00078553 170 171 127
-0.77692926 -0.48187664 -0.01733607 199 226 33
-0.77663082 -0.48054335 -0.01571346 194 220 9
-0.82651204 -0.49850872 0.02333429 247 255 74
-0.79978609 -0.49664107 0.00663181 237 250 72
-0.80466944 -0.49454477 0.00980485 231 248 46
-0.79946911 -0.48246315 0.01618358 194 217 3
-0.81881028 -0.49747980 0.03387103 157 187 3
-0.82443058 -0.49593049 0.02362362 243 252 37
-0.82971889 -0.50509053 0.03113770 142 181 10
-0.76098502 -0.49991912 0.00767533 108 138 0
-0.76171285 -0.50180143 0.01393336 134 164 18
-0.77229607 -0.49044520 -0.01470791 149 180 0
-0.78939748 -0.49291548 0.01220783 184 213 11
-0.79507446 -0.48845467 0.01509148 187 213 0
-0.78495598 -0.47792089 0.00363033 205 228 14
-0.77965331 -0.48058692 -0.00818545 208 237 23
-0.78619063 -0.48196268 0.00404623 183 210 0
-0.77069277 -0.49920598 -0.00674201 160 180 0
-0.77108032 -0.50042075 -0.00399956 179 200 0
-0.76868409 -0.49471316 -0.01682458 158 187 0
-0.81732351 -0.49186212 0.01825373 251 255 83
-0.81642646 -0.49052536 0.01929346 178 194 7
-0.76056385 -0.48940462 -0.01905832 153 195 9
-0.77901626 -0.48198745 -0.01246801 188 214 1
-0.78166002 -0.48477975 -0.00965517 180 204 6
-0.80557996 -0.49707320 0.00414707 214 218 107
-0.77860159 -0.49907780 0.00157083 141 175 0
-0.76074106 -0.50530648 0.01025469 145 166 47
-0.78109682 -0.50038445 0.00689033 148 179 0
-0.83066511 -0.50591683 0.03018099 223 240 84
-0.77029872 -0.48864847 -0.01743902 148 175 0
-0.78856486 -0.47678095 0.00807405 211 232 29
-0.79874790 -0.49281776 0.01911756 200 223 18
-0.81892490 -0.49297616 0.02949185 158 189 10
-0.76395071 -0.49479142 -0.01954149 136 167 0
-0.81037426 -0.49575642 0.00522508 175 178 97
-0.76808828 -0.50141913 -0.00168054 188 211 9
-0.76796299 -0.48592359 -0.01961080 131 165 6
-0.76283872 -0.48976523 -0.02060211 139 185 0
-0.78253150 -0.47809482 -0.00062310 224 244 35
-0.78500938 -0.48047620 0.00395970 203 226 34
-0.78173780 -0.48083556 -0.00199987 182 207 1
-0.76094484 -0.49896303 0.00485696 112 141 0
-0.82827657 -0.51506048 0.05181761 170 206 36
-0.78875881 -0.49725446 0.01184553 170 204 19
-0.77210116 -0.50310683 0.00379872 161 184 5
-0.77232671 -0.50315094 0.00409381 157 180 2
-0.83147550 -0.50811899 0.04318416 149 183 11
-0.76439869 -0.50531292 0.00781686 120 142 41
-0.77230537 -0.47689110 -0.01600833 222 244 47
-0.75803781 -0.49481907 -0.00157589 167 191 5
-0.76035595 -0.49472696 -0.00751472 161 194 3
-0.76178223 -0.49748498 0.00103752 124 156 0
-0.75804889 -0.50414819 0.00905717 132 155 12
-0.78412271 -0.48445746 0.00031740 200 226 17
-0.80644894 -0.48811668 0.02285031 180 206 21
-0.79099071 -0.48016253 0.01123644 235 246 58
-0.77111220 -0.48982716 -0.01624916 153 185 0
-0.80737078 -0.50011623 0.03056264 210 242 79
-0.80822027 -0.49575067 0.02963050 229 249 74
-0.80871707 -0.49794376 0.03073015 215 247 78
-0.76646698 -0.50498497 0.01332157 127 134 56
-0.77801567 -0.48664743 -0.00779850 176 205 3
-0.75677741 -0.50110132 0.00395472 155 186 5
-0.82490325 -0.50988877 0.04620058 168 207 28
-0.81663489 -0.50270724 0.03771078 201 239 42
-0.78246826 -0.50173503 0.01061156 159 188 0
-0.79363257 -0.48700312 0.01450505 210 230 44
-0.82608569 -0.50483334 0.04085274 142 174 1
-0.82309502 -0.49779969 0.03242734 144 178 3
-0.78440422 -0.49384412 0.00724442 180 216 20
-0.77597773 -0.48493487 -0.01128118 174 202 0
-0.80870783 -0.49332580 0.01241358 226 248 43
-0.80568260 -0.49293119 0.01399881 202 233 8
-0.81223220 -0.49259648 0.02881175 217 245 72
-0.81389910 -0.49244410 0.02881176 201 228 63
-0.80657494 -0.48978239 0.01779064 168 208 0
-0.80163437 -0.48625597 0.01870348 233 254 53
-0.76192611 -0.49525976 -0.01194862 101 135 0
-0.57017624 -0.42634881 -0.08211964 161 194 41
-0.57686871 -0.40739328 -0.10289042 110 142 15
-0.64082682 -0.45576730 -0.05386886 116 163 61
-0.61028993 -0.44579670 -0.06520239 78 134 0
-0.58348995 -0.42470875 -0.07957820 110 162 15
-0.60740185 -0.44572446 -0.06770054 65 113 3
-0.63493949 -0.45663434 -0.05375032 142 191 73
-0.57879770 -0.42788610 -0.07998011 134 181 5
-0.55628711 -0.42108861 -0.10837467 46 73 4
-0.55732334 -0.42086163 -0.10930587 97 123 58
-0.57555801 -0.42504495 -0.08210923 116 160 21
-0.57832080 -0.43084106 -0.08002386 183 205 8
-0.58349937 -0.43265542 -0.07901575 146 183 5
-0.61016339 -0.45147750 -0.05605871 137 177 55
-0.59551293 -0.43836167 -0.07685085 146 168 70
-0.59959424 -0.44010249 -0.07743689 56 103 0
-0.55820668 -0.42180049 -0.09167009 168 202 81
-0.55902082 -0.41371301 -0.10124300 29 56 1
-0.64358956 -0.45526314 -0.05792865 98 139 45
-0.56215256 -0.41182283 -0.10192564 36 59 7
-0.62646842 -0.45826426 -0.05327534 167 190 60
-0.56275326 -0.42014503 -0.10202768 83 119 19
-0.56664598 -0.41674203 -0.10274314 55 94 5
-0.55701917 -0.41692173 -0.09720296 21 45 0
-0.59022063 -0.43890041 -0.08143064 149 175 76
-0.56511205 -0.41748455 -0.09069455 93 135 7
-0.56810033 -0.41953269 -0.09383228 66 104 0
-0.56950873 -0.42699417 -0.08237167 190 219 103
-0.58279860 -0.42463374 -0.07990977 108 162 16
-0.63567561 -0.45610091 -0.05587149 123 157 47
-0.61744595 -0.45274821 -0.05735455 180 185 33
-0.61545187 -0.45168269 -0.05561167 120 154 33
-0.55489910 -0.42332345 -0.10792413 95 118 48
-0.58290797 -0.43152454 -0.07755338 125 171 2
-0.56002945 -0.41462943 -0.10747053 44 75 7
-0.56554520 -0.40969059 -0.11083432 121 152 58
-0.56382269 -0.41457248 -0.11200128 54 83 27
-0.55476123 -0.42003304 -0.10257115 45 84 1
-0.62307614 -0.45407248 -0.05723822 101 122 43
-0.61617476 -0.44946954 -0.05180126 116 156 31
-0.58763689 -0.42899251 -0.07475330 79 132 0
-0.62652838 -0.45305502 -0.05850423 92 117 36
-0.62786168 -0.45555815 -0.05750061 123 147 23
-0.59823012 -0.44065616 -0.07857437 110 131 62
-0.60897011 -0.44922781 -0.06395452 134 168 12
-0.57967722 -0.42875484 -0.07756965 159 199 110
-0.59334767 -0.43716812 -0.07899437 94 150 15
-0.57465005 -0.41219160 -0.09824445 80 119 0
-0.57014155 -0.41114721 -0.10398383 97 140 24
-0.61661994 -0.45424706 -0.05314554 102 133 29
-0.57454622 -0.41411084 -0.09642881 94 131 17
-0.56612784 -0.41372758 -0.10786895 78 109 39
-0.58152515 -0.42999211 -0.07740972 165 194 102
-0.62577641 -0.45905393 -0.05508560 125 157 32
-0.55896133 -0.41543406 -0.10642103 53 82 15
-0.56181341 -0.41885221 -0.11161635 101 128 47
-0.56064856 -0.41732287 -0.09169556 110 160 13
-0.59005028 -0.43505600 -0.07723913 143 179 11
-0.56915373 -0.40812668 -0.10926046 83 113 13
-0.55964088 -0.42250574 -0.10648035 57 93 0
-0.56764275 -0.41633707 -0.09030727 61 100 7
-0.57108772 -0.41654369 -0.09724421 73 112 19
-0.57640123 -0.41715845 -0.09116615 74 118 0
-0.57201171 -0.42013398 -0.08911318 96 137 5
-0.56740189 -0.42325026 -0.08526235 115 154 9
-0.57993686 -0.42236936 -0.08234268 73 121 9
-0.55979717 -0.41405249 -0.09601860 40 62 0
-0.57332957 -0.42268682 -0.08379636 78 126 0
-0.57010472 -0.42130882 -0.08695445 71 110 0
-0.61327833 -0.44979373 -0.05127535 122 170 34
-0.60313225 -0.44447267 -0.07222811 88 122 9
-0.56549537 -0.40975618 -0.10896381 54 88 2
-0.58626443 -0.43763882 -0.08194861 125 157 72
-0.60379946 -0.44227466 -0.07364691 87 128 0
-0.56229740 -0.42179459 -0.08788250 92 139 23
-0.58972716 -0.43635681 -0.07786195 181 206 86
-0.58044553 -0.43141603 -0.07923466 213 234 9
-0.61576629 -0.45520097 -0.04838508 83 123 9
-0.59009397 -0.43855041 -0.08017456 162 190 79
-0.60431486 -0.43883935 -0.06806289 157 192 1
-0.61321020 -0.45335373 -0.05214714 83 134 31
-0.64015079 -0.45450786 -0.05800806 98 132 35
-0.55797374 -0.42189848 -0.09292606 187 208 117
-0.56524730 -0.42087868 -0.08889601 89 124 22
-0.63240284 -0.45728356 -0.05413082 106 150 65
-0.57851499 -0.41442153 -0.09169056 87 122 0
-0.59399801 -0.43664816 -0.07459094 163 185 77
-0.57760775 -0.42443383 -0.08197819 94 141 3
-0.59809005 -0.43786666 -0.07575276 88 141 0
-0.55294150 -0.42300826 -0.10377841 50 84 0
-0.56995976 -0.42460668 -0.08236638 140 184 69
-0.55700779 -0.42215973 -0.09878618 87 116 8
-0.56546777 -0.41799974 -0.10137840 94 131 26
-0.77324760 -0.50136125 -0.07730432 110 135 31
-0.77156240 -0.50132942 -0.07945437 113 138 37
-0.77454525 -0.50270092 -0.07094233 112 135 29
-0.78359640 -0.49918675 -0.04604758 126 158 0
-0.78539896 -0.49908388 -0.04246670 137 165 3
-0.77235156 -0.49701899 -0.09216275 74 88 3
-0.76847237 -0.50830799 -0.06019612 188 190 117
-0.76734501 -0.49760574 -0.12070680 123 145 81
-0.76322109 -0.49713573 -0.12026362 130 154 78
-0.77215344 -0.49703377 -0.10588749 73 82 0
-0.76858574 -0.50362486 -0.07345129 155 169 48
-0.76443011 -0.50056767 -0.06077013 121 145 35
-0.78695709 -0.48142749 -0.05810931 108 122 8
-0.77573609 -0.48277482 -0.07301988 102 119 5
-0.77302331 -0.48757383 -0.08054630 136 152 28
-0.77361935 -0.48538020 -0.07795748 98 118 0
-0.79224193 -0.52125251 -0.03973538 202 221 18
-0.75946081 -0.49998581 -0.06202378 159 176 46
-0.76071316 -0.48750919 -0.09880810 118 134 25
-0.79224420 -0.52686900 -0.04168413 241 245 108
-0.76483941 -0.50137734 -0.08367830 154 167 49
-0.76742500 -0.49994132 -0.08906283 126 146 33
-0.76979667 -0.48660678 -0.08434128 76 92 0
-0.76439518 -0.48459953 -0.09199129 93 104 8
-0.76138604 -0.49695817 -0.09570317 181 196 79
-0.76577091 -0.49840865 -0.09293890 126 150 38
-0.75982326 -0.49577865 -0.09458426 156 177 38
-0.76563990 -0.49699986 -0.12758969 122 148 74
-0.76459378 -0.49694750 -0.12892123 128 152 74
-0.77817452 -0.50568932 -0.04937160 143 165 31
-0.79683828 -0.52388394 -0.03906113 233 241 76
-0.76602739 -0.48086768 -0.06449990 95 120 3
-0.76384318 -0.48091015 -0.07089274 90 113 0
-0.78311062 -0.49043420 -0.05418603 119 137 19
-0.77817065 -0.50410461 -0.05490776 114 141 28
-0.77668804 -0.50471222 -0.05534339 128 152 28
-0.77346808 -0.50566822 -0.05816224 145 163 19
-0.76290452 -0.51150525 -0.05165138 135 151 18
-0.77403331 -0.48935920 -0.07911810 135 151 16
-0.77508861 -0.48928517 -0.07640158 139 153 14
-0.76459283 -0.50520599 -0.07255565 200 205 103
-0.78468454 -0.47992095 -0.05920682 97 114 0
-0.76531547 -0.48850411 -0.10107271 84 94 7
-0.77375668 -0.51657009 -0.04796738 241 243 144
-0.75842786 -0.48505983 -0.08847067 139 157 45
-0.78604740 -0.48082152 -0.05141892 110 133 3
-0.78218645 -0.49216869 -0.05807469 103 128 10
-0.75568914 -0.50519401 -0.06529631 194 200 92
-0.77335173 -0.51099861 -0.04724277 250 250 128
-0.77486199 -0.51556236 -0.04737522 249 249 135
-0.76134676 -0.51631999 -0.05438229 205 213 94
-0.77009374 -0.51092583 -0.04886189 234 236 126
-0.78326029 -0.48689687 -0.04924493 99 122 8
-0.78393996 -0.49197757 -0.04560905 112 127 0
-0.75970978 -0.51653624 -0.04948028 145 159 38
-0.76745528 -0.51644093 -0.04694061 220 221 101
-0.75772166 -0.51283491 -0.05494684 178 188 75
-0.77442747 -0.47862846 -0.06734180 114 131 17
-0.76544535 -0.50732470 -0.05356024 129 141 13
-0.76107115 -0.51092976 -0.05315715 147 159 25
-0.76955503 -0.49784130 -0.10754830 139 156 64
-0.75752753 -0.50191820 -0.06282452 163 180 42
-0.77148694 -0.49507254 -0.10167324 78 97 7
-0.78332305 -0.48834184 -0.05259233 87 107 0
-0.78607404 -0.50466901 -0.04157057 175 190 49
-0.75579703 -0.50285727 -0.06780723 183 195 69
-0.78198904 -0.48329866 -0.06414124 100 119 1
-0.78281498 -0.48189539 -0.06163752 138 148 35
-0.77159977 -0.49165776 -0.09058473 80 102 0
-0.78076136 -0.49823347 -0.05385060 109 141 0
-0.78020233 -0.50142837 -0.05227133 108 131 17
-0.76110202 -0.50589818 -0.07179126 199 205 97
-0.75730908 -0.50621754 -0.06096357 196 211 70
-0.76289141 -0.48748633 -0.10151970 92 105 17
-0.78166175 -0.48948279 -0.06237482 135 153 31
-0.78396714 -0.48041221 -0.05342320 111 133 6
-0.76819003 -0.48911670 -0.09742469 64 76 0
-0.77790207 -0.50173223 -0.06235883 121 140 35
-0.77968210 -0.49692684 -0.05965038 122 153 0
-0.77901268 -0.50123745 -0.05726455 109 129 18
-0.77696735 -0.49441087 -0.07111221 118 147 0
-0.77608228 -0.49052411 -0.07391595 143 162 21
-0.77727222 -0.49499461 -0.07025300 118 147 0
-0.76668155 -0.49798301 -0.10308575 124 150 59
-0.76624531 -0.49811697 -0.10216182 121 146 54
-0.77948922 -0.49497324 -0.06156618 147 169 24
-0.77608889 -0.50114644 -0.07231755 106 131 30
-0.76253927 -0.51241940 -0.05920937 189 197 86
-0.78012997 -0.51104051 -0.04189681 226 230 91
-0.78327608 -0.51627642 -0.04186894 218 225 69
-0.78288805 -0.51432800 -0.04078324 252 249 152
-0.76009756 -0.49569562 -0.06056652 156 175 24
-0.75887638 -0.49501148 -0.06003514 160 178 32
-0.76375991 -0.50357658 -0.07688214 211 216 114
-0.77868503 -0.52103651 -0.04587258 200 207 67
-0.75973117 -0.48408398 -0.08548285 130 150 35
-0.76638389 -0.49899673 -0.05885663 135 152 48
-0.78793126 -0.51812339 -0.03988253 248 248 138
-0.76479042 -0.49783951 -0.09562531 133 156 42
-0.76696694 -0.49891418 -0.09230425 123 146 40
-0.77063411 -0.50839937 -0.05401011 210 215 73
-0.76276779 -0.48335648 -0.08702087 95 113 0
-0.76534241 -0.51304454 -0.05679388 177 180 89
-0.76194340 -0.48182812 -0.07766777 94 121 4
-0.78642148 -0.50047320 -0.04078544 124 153 0
-0.78669620 -0.50449193 -0.04059421 137 151 16
-0.78008878 -0.48036066 -0.06424284 102 116 5
-0.75963825 -0.50473237 -0.05984909 169 183 62
-0.78538918 -0.48839116 -0.04608953 97 115 0
-0.78170294 -0.51709789 -0.04354936 255 255 139
-0.77055931 -0.47952682 -0.07342738 100 119 4
-0.77076173 -0.48174852 -0.07837558 104 120 11
-0.78100431 -0.50681233 -0.04277159 220 225 107
-0.79302418 -0.51922548 -0.03762140 246 249 118
-0.78396022 -0.49483567 -0.04489909 150 165 20
-0.76850039 -0.50558847 -0.06939142 172 182 67
-0.78386855 -0.50321341 -0.04572143 125 143 23
-0.77594846 -0.52051264 -0.04656870 204 209 83
-0.77697963 -0.48221287 -0.05671154 110 136 1
-0.77717578 -0.48111486 -0.05818219 114 138 24
-0.76314855 -0.51619726 -0.05382752 195 203 91
-0.77229083 -0.51470977 -0.04796904 229 231 106
-0.77990943 -0.50513119 -0.04882783 133 154 33
-0.78766030 -0.51275676 -0.03562348 224 230 82
-0.77175599 -0.49750090 -0.10795597 140 150 64
-0.76935226 -0.49789256 -0.11107066 148 153 69
-0.77487355 -0.52044761 -0.04686480 213 215 92
-0.76928216 -0.49056029 -0.11654487 33 53 0
-0.76076823 -0.49715057 -0.11751261 111 132 63
-0.76139295 -0.49713606 -0.11829144 119 142 70
-0.75762272 -0.49283504 -0.06251397 165 181 49
-0.76593977 -0.48019588 -0.07742035 111 133 0
-0.79547036 -0.52071458 -0.03739659 185 201 14
-0.76793587 -0.49024704 -0.10244401 67 81 4
-0.75625676 -0.49671867 -0.06522446 152 170 24
-0.76566482 -0.51096618 -0.05968041 202 208 118
-0.76539677 -0.50806648 -0.06619266 162 168 68
-0.78580028 -0.51349330 -0.03796965 232 234 101
-0.76513898 -0.50198495 -0.05901027 121 139 19
-0.76481956 -0.50613201 -0.05577396 132 147 18
-0.76919103 -0.49726212 -0.13778225 114 134 75
-0.76616222 -0.51278615 -0.04965214 213 217 104
-0.77858680 -0.50818080 -0.04394895 237 242 116
-0.77902067 -0.48557749 -0.06794307 124 139 20
-0.78159988 -0.48510703 -0.06475908 145 153 41
-0.76629651 -0.48835826 -0.09872785 77 89 3
-0.76470834 -0.48703158 -0.09763000 78 91 3
-0.77014339 -0.49285412 -0.11725315 35 53 0
-0.77087957 -0.49519235 -0.11680936 58 68 5
-0.76910347 -0.49323875 -0.12712188 35 59 7
-0.76901340 -0.49263355 -0.13153715 39 64 6
-0.77305990 -0.50661528 -0.05450883 170 183 43
-0.77291542 -0.50714952 -0.05230305 170 180 29
-0.77007824 -0.49480599 -0.13609391 32 52 3
-0.77379531 -0.50060046 -0.07910495 112 136 42
-0.77507162 -0.50067121 -0.07694454 111 135 41
-0.76919520 -0.47958305 -0.06313796 68 92 0
-0.76930058 -0.47869235 -0.06789755 103 129 0
-0.77300125 -0.49251169 -0.08285821 111 137 1
-0.77367371 -0.49690959 -0.08853294 60 82 0
-0.77019858 -0.51598656 -0.04696238 236 234 133
-0.78498596 -0.47941059 -0.05767741 133 153 19
-0.76051098 -0.49764267 -0.04790529 160 186 35
-0.80322796 -0.52593857 -0.03597383 219 216 123
-0.81562495 -0.53557223 0.00838854 230 237 46
-0.80607390 -0.53229487 -0.01914573 129 148 0
-0.78127277 -0.49349484 -0.03889664 134 143 26
-0.79733592 -0.52661347 -0.03508316 163 173 38
-0.79331917 -0.51255637 -0.02224858 142 174 49
-0.79413182 -0.51145774 -0.02107449 129 160 56
-0.81935573 -0.51503968 0.04472267 212 246 37
-0.80468673 -0.49886894 -0.03271054 99 115 17
-0.79302514 -0.50839907 -0.02426113 109 139 41
-0.79273981 -0.50710136 -0.02531530 105 136 33
-0.80453300 -0.53717297 0.00984322 216 229 89
-0.80618751 -0.54050946 0.00421131 174 173 81
-0.79434484 -0.51630133 -0.01880781 158 179 52
-0.79931176 -0.51886976 -0.00701540 134 156 81
-0.79933196 -0.52781945 -0.01570118 209 197 77
-0.80492896 -0.52503854 -0.02957894 130 156 0
-0.80716342 -0.52747935 -0.02877471 135 165 5
-0.81125379 -0.53818786 0.01934895 175 208 17
-0.79841799 -0.50654709 -0.00466543 108 107 102
-0.76594585 -0.49852353 -0.05360106 127 150 16
-0.79987943 -0.51785207 0.02197715 241 247 111
-0.81834364 -0.54407996 0.02079733 221 235 16
-0.80667639 -0.50449991 -0.01999470 119 129 30
-0.78908902 -0.49803039 -0.03711162 157 173 14
-0.79892188 -0.51358509 -0.01609298 182 204 5
-0.79462051 -0.51296514 -0.02559925 166 186 1
-0.80664533 -0.52867329 0.00415365 233 241 59
-0.79583895 -0.49741161 -0.03630621 134 148 13
-0.79549944 -0.52199709 -0.03185561 135 151 19
-0.78418803 -0.50720197 0.01716713 245 253 44
-0.78750896 -0.50699413 0.01976094 250 253 52
-0.80491793 -0.51932555 0.02399800 108 109 52
-0.80864704 -0.53559041 0.01656795 190 218 22
-0.79623348 -0.50373548 0.00204390 199 214 35
-0.79648495 -0.50045824 0.00442925 241 246 94
-0.77482694 -0.50303495 0.00030759 125 147 10
-0.79538858 -0.49456435 -0.03920661 144 160 27
-0.78724128 -0.48886085 -0.04268427 129 147 35
-0.80013835 -0.50139993 -0.02826635 145 153 32
-0.82442963 -0.52121753 0.04831007 200 233 2
-0.80644476 -0.50013983 -0.03389239 148 166 30
-0.81122220 -0.52944410 0.02536967 167 192 13
-0.81223696 -0.53270257 0.02509888 134 180 20
-0.82196987 -0.51841295 0.04671576 218 249 8
-0.79937911 -0.51105183 -0.01087717 120 153 66
-0.81178439 -0.50593996 -0.01736376 132 157 11
-0.77288568 -0.50971115 -0.04730367 223 228 100
-0.78641737 -0.49277404 -0.04110445 153 159 33
-0.78016615 -0.50793880 -0.03875981 170 192 65
-0.80327147 -0.50395054 -0.02998288 137 160 8
-0.79941750 -0.50433564 -0.02593921 141 156 5
-0.82235128 -0.55080533 0.01830224 146 167 0
-0.81059498 -0.53015774 0.00607764 193 204 6
-0.80049562 -0.51583177 -0.01277688 212 233 34
-0.81801116 -0.53146243 0.03452679 155 177 14
-0.79056644 -0.51164371 -0.02580168 145 176 49
-0.79617459 -0.49624264 0.01775370 208 234 49
-0.79203737 -0.49878705 -0.03297426 144 150 28
-0.80122364 -0.51987851 -0.01985560 159 172 5
-0.80286741 -0.51719505 0.02569565 234 251 13
-0.80251724 -0.54426700 0.00599081 137 137 47
-0.80052459 -0.53000277 -0.02451725 89 103 6
-0.78265470 -0.51552701 -0.03826828 201 204 63
-0.78699106 -0.51775515 -0.03786046 236 230 120
-0.81532657 -0.52451295 0.03361123 104 152 8
-0.79917467 -0.50526172 0.02697348 201 243 45
-0.79858744 -0.50536501 0.02665630 191 234 43
-0.82017869 -0.54438412 0.01092445 170 187 0
-0.80373269 -0.52308768 -0.02565923 200 214 65
-0.77922046 -0.51312387 -0.04167907 212 211 85
-0.81173712 -0.54194945 0.00855276 145 163 15
-0.81731445 -0.50811964 0.04054629 180 218 47
-0.81587565 -0.51038992 0.04042843 209 251 53
-0.79952669 -0.51936513 -0.03265760 215 224 83
-0.78313315 -0.50080675 -0.03617419 132 150 30
-0.77480125 -0.50000614 -0.04105996 144 149 46
-0.81827265 -0.52715260 0.03695452 97 136 7
-0.83040559 -0.52179664 0.05565257 203 233 21
-0.81318271 -0.52086955 0.00291142 198 219 16
-0.80741423 -0.52219117 0.00086162 201 214 38
-0.76924527 -0.50086528 -0.04930977 148 157 48
-0.78668493 -0.50544298 0.01771741 226 245 32
-0.78815174 -0.50400192 0.01746306 191 229 0
-0.78689331 -0.50492173 0.01737436 231 251 30
-0.80507922 -0.53350669 0.01032134 185 203 31
-0.82234168 -0.54897541 0.01255815 193 206 28
-0.76832128 -0.50161529 -0.05381247 144 150 42
-0.80589652 -0.52309811 0.02126615 90 92 43
-0.77466911 -0.51227951 -0.04588923 249 244 150
-0.79666615 -0.50332767 0.02380273 205 241 17
-0.79112309 -0.50479466 0.02057718 212 237 21
-0.79231358 -0.50280142 0.01963218 193 234 10
-0.81867450 -0.52080423 0.04081026 227 246 16
-0.79097015 -0.51092476 -0.02745205 203 222 45
-0.79051858 -0.51177442 -0.02946386 192 207 28
-0.78712875 -0.52230775 -0.04175266 184 194 72
-0.80557078 -0.52806604 -0.00532649 192 195 42
-0.83164632 -0.52369112 0.05526805 132 161 7
-0.80400461 -0.49538743 -0.03616953 124 144 19
-0.82787770 -0.52391082 0.04910833 99 120 3
-0.80100399 -0.53534794 -0.01074828 107 125 17
-0.80015087 -0.53800952 -0.00690060 108 123 18
-0.79070282 -0.50772083 0.02243413 233 250 58
-0.79652578 -0.52157235 -0.02666837 202 195 91
-0.79854345 -0.52532911 -0.02694978 156 164 43
-0.80956948 -0.54477066 0.01294329 225 225 51
-0.81843048 -0.54177201 0.02897177 165 204 37
-0.81675738 -0.53684282 0.02986514 160 204 49
-0.81646484 -0.53618962 0.02989842 162 203 47
-0.80484539 -0.53451198 -0.00130541 142 166 10
-0.80781126 -0.51908028 0.02906664 221 239 43
-0.80871451 -0.51849818 0.03112415 225 245 8
-0.80087739 -0.54173201 -0.00004153 140 145 53
-0.77391058 -0.50488389 0.00618480 157 179 19
-0.80690145 -0.52704668 0.02009467 165 194 26
-0.80349678 -0.52588308 0.01565049 128 156 19
-0.80794907 -0.54581821 0.01107358 189 209 60
-0.80595320 -0.54406494 0.00442897 183 178 58
-0.81480902 -0.53121054 0.03076181 162 196 14
-0.77737975 -0.51668292 -0.04496880 202 210 72
-0.78298765 -0.51361322 0.01462483 192 206 35
-0.82239175 -0.55028087 0.01469316 169 182 40
-0.80789787 -0.54464602 0.00570947 179 188 43
-0.78284979 -0.50824451 0.01119197 179 203 19
-0.80303931 -0.52476776 0.01640315 95 118 12
-0.78829503 -0.49471751 -0.03996515 156 172 40
-0.79774660 -0.51828146 0.00910941 176 195 17
-0.77044559 -0.50780523 0.01174540 190 199 94
-0.79961377 -0.50676602 -0.01419678 149 147 132
-0.81205183 -0.51457220 0.03730457 226 250 42
-0.77437747 -0.50091916 -0.04176198 116 122 26
-0.79839271 -0.50797981 -0.00333614 103 106 89
-0.80008757 -0.53382313 -0.01347566 166 172 46
-0.82319868 -0.54382330 0.03250720 161 195 39
-0.82515019 -0.53106564 0.04189549 143 172 18
-0.78193218 -0.50485146 0.01010770 153 180 15
-0.79539806 -0.49585584 -0.03615394 111 123 11
-0.82358062 -0.52501875 0.04280576 105 112 60
-0.79705352 -0.51499587 0.00767848 143 168 4
-0.79941529 -0.50260985 -0.02479395 106 118 34
-0.80161542 -0.52955616 -0.03366040 109 118 3
-0.80008131 -0.49425116 -0.03655241 107 120 6
-0.80169773 -0.54430807 0.00649913 132 137 43
-0.80568689 -0.50302482 -0.02706136 153 165 27
-0.77806687 -0.50423962 0.01045418 208 233 18
-0.80582976 -0.53184927 -0.01186180 127 154 0
-0.80712807 -0.52974963 -0.01961457 102 135 0
-0.79958946 -0.50420457 -0.01692867 94 111 40
-0.81002176 -0.53215182 0.02125189 151 191 76
-0.79238403 -0.51645207 0.01274908 177 208 18
-0.80049878 -0.52921039 -0.00630840 125 132 3
-0.79748368 -0.50262243 -0.02500726 141 152 50
-0.78982699 -0.50924277 0.00882882 189 215 30
-0.79742950 -0.49900538 0.02100125 180 213 18
-0.78951436 -0.49306470 -0.04042104 144 152 30
-0.76895839 -0.49951482 -0.04471964 128 145 39
-0.80379093 -0.53302652 -0.02209358 126 137 9
-0.80505794 -0.50654346 0.03129023 225 255 74
-0.80294645 -0.50494498 0.02920184 233 255 64
-0.81282544 -0.52599639 0.02910667 156 184 24
-0.80179423 -0.52238816 0.01838186 146 155 40
-0.80689991 -0.50521863 -0.02622738 150 169 15
-0.80596900 -0.52848202 -0.01006868 139 159 2
-0.79363590 -0.50925356 -0.02292681 109 138 46
-0.76454580 -0.49783507 -0.04808035 99 132 0
-0.82132328 -0.53847605 0.03409200 152 203 36
-0.80029541 -0.53053594 -0.01113981 177 177 63
-0.78698015 -0.50977111 0.01934288 250 255 84
-0.78862864 -0.51135576 0.01998072 244 253 98
-0.80870605 -0.50442064 -0.02089293 124 144 21
-0.80110103 -0.52653503 -0.00125966 155 159 2
-0.81092680 -0.54314554 0.01564680 213 224 34
-0.79940307 -0.53849524 -0.00183702 65 88 10
-0.80401587 -0.52477968 -0.01713990 204 218 63
-0.77168626 -0.50331408 -0.04834296 117 122 20
-0.80311608 -0.52268070 -0.02779614 182 200 52
-0.79572284 -0.50870621 0.02598137 222 242 33
-0.80847299 -0.53663719 0.01565236 172 199 26
-0.78186750 -0.51306528 0.01411462 187 199 29
-0.81308198 -0.53259504 0.00756545 215 222 28
-0.81084478 -0.52496117 0.00418632 200 213 19
-0.81676960 -0.52021897 0.00431466 179 208 4
-0.81529754 -0.52483225 0.00549387 201 223 26
-0.76139891 -0.49813592 -0.05497188 143 165 22
-0.79898441 -0.51407081 -0.00372360 94 103 46
-0.81014615 -0.54168755 0.00801369 164 168 55
-0.80410784 -0.53301638 0.00863124 201 214 72
-0.79566222 -0.51694250 -0.03185416 231 230 104
-0.79659164 -0.51731271 -0.03165366 216 222 74
-0.81344098 -0.52118808 0.03280634 107 110 41
-0.80196458 -0.53151143 0.00497817 200 209 90
-0.80096149 -0.53111005 -0.02368092 92 104 18
-0.79955041 -0.53773844 -0.00459599 103 121 13
-0.79705650 -0.51195139 -0.02037842 169 195 8
-0.81520194 -0.50306988 0.03697348 210 246 58
-0.80903125 -0.50259620 0.03255843 219 251 44
-0.81303221 -0.51081526 0.03856213 206 246 51
-0.81682259 -0.54188949 0.02675909 176 212 50
-0.80584008 -0.52725345 -0.01042660 172 193 30
-0.80512565 -0.53143501 0.00202687 127 152 0
-0.80524373 -0.52805865 -0.00021204 189 200 34
-0.81590301 -0.51451826 0.04114061 220 249 35
-0.78625119 -0.49817938 -0.03419744 135 153 45
-0.80443490 -0.50395602 -0.03051840 160 174 25
-0.82128793 -0.52842623 0.03945925 117 155 7
-0.80401027 -0.52376145 -0.02338212 184 199 44
-0.80816269 -0.52374667 0.02357217 71 77 33
-0.80138314 -0.51966208 -0.01483899 223 230 88
-0.79330826 -0.51350594 0.00953430 167 191 7
-0.79436934 -0.50577533 -0.02401961 103 131 21
-0.80895323 -0.53577191 0.00571343 173 202 0
-0.79221797 -0.50696719 0.00641057 216 232 38
-0.77614987 -0.50677210 -0.04359398 130 142 30
-0.77715707 -0.50722551 0.01092841 168 192 20
-0.80628318 -0.53059113 -0.03025696 125 119 31
