0.507289 -0.486539 0.107897
0.505521 -0.485313 0.109482
0.508467 -0.486324 0.109334
0.504166 -0.484397 0.110639
0.503834 -0.484054 0.111208
0.507364 -0.485077 0.111489
0.505351 -0.485191 0.109643
0.501414 -0.483356 0.111010
0.502760 -0.484032 0.110426
0.504423 -0.484501 0.110587
0.503019 -0.484177 0.110276
0.558319 -0.412162 0.110633
0.556909 -0.411582 0.110803
0.556044 -0.411376 0.110905
0.553881 -0.409477 0.111187
0.556216 -0.413897 0.110838
0.556167 -0.411627 0.110887
0.557067 -0.413701 0.110745
0.558366 -0.411338 0.110643
0.554149 -0.409699 0.111152
0.556148 -0.413594 0.110851
0.490044 -0.467025 0.111588
0.491814 -0.467016 0.111467
0.486721 -0.468287 0.113169
0.487722 -0.467517 0.112268
0.488423 -0.467671 0.112392
0.489518 -0.466954 0.111543
0.579590 -0.503709 0.116487
0.577696 -0.507097 0.116426
0.578462 -0.506405 0.114403
0.579293 -0.504447 0.115854
0.577798 -0.507322 0.115201
0.576150 -0.509948 0.116122
0.577358 -0.507639 0.116605
0.577383 -0.507818 0.115931
0.580366 -0.502944 0.114626
0.579388 -0.504173 0.116171
0.580825 -0.502533 0.113400
0.579708 -0.504543 0.113334
0.579424 -0.504183 0.115943
0.578463 -0.506236 0.114906
0.579757 -0.504743 0.112463
0.579362 -0.504288 0.115960
0.577975 -0.506562 0.116541
0.579972 -0.504459 0.112167
0.577881 -0.507278 0.114886
0.577008 -0.508167 0.116892
0.579418 -0.503909 0.116804
0.579396 -0.505301 0.112718
0.576544 -0.509423 0.115589
0.498996 -0.435646 0.095790
0.497684 -0.442682 0.095913
0.498958 -0.434014 0.095905
0.494307 -0.442399 0.097347
0.497591 -0.441953 0.095996
0.496762 -0.436154 0.096696
0.495708 -0.440723 0.096861
0.497108 -0.446274 0.095936
0.496781 -0.439282 0.096498
0.495039 -0.441130 0.097117
0.494523 -0.442988 0.097221
0.496550 -0.439129 0.096604
0.497521 -0.441539 0.096051
0.494006 -0.442078 0.097493
0.493712 -0.440824 0.097693
0.495969 -0.439660 0.096816
0.498991 -0.437989 0.095649
0.493732 -0.441426 0.097647
0.495170 -0.441757 0.097024
0.495512 -0.437445 0.097142
0.497482 -0.439501 0.096191
0.497674 -0.435131 0.096375
0.496687 -0.439660 0.096514
0.494985 -0.443582 0.096991
0.496838 -0.436501 0.096643
0.497138 -0.445054 0.095998
0.575881 -0.502970 0.112033
0.575318 -0.506071 0.112178
0.576287 -0.502073 0.111934
0.579235 -0.504127 0.111255
0.575932 -0.504933 0.112029
0.576220 -0.506150 0.111967
0.577345 -0.503940 0.111695
0.577039 -0.505186 0.111772
0.578169 -0.503976 0.111504
0.575483 -0.497832 0.111981
0.572423 -0.501412 0.110360
0.575445 -0.498540 0.111947
0.575060 -0.499868 0.111725
0.575003 -0.498775 0.111719
0.575683 -0.500654 0.112024
0.575046 -0.500834 0.111698
0.574240 -0.499833 0.111311
0.574795 -0.501295 0.111561
0.576147 -0.498293 0.112307
0.487575 -0.468670 0.113282
0.490646 -0.468296 0.111406
0.490673 -0.468201 0.111475
0.489483 -0.470664 0.110050
0.488070 -0.468396 0.113178
0.487938 -0.470160 0.111636
0.491582 -0.468737 0.110320
0.492825 -0.466991 0.111041
0.491480 -0.467914 0.111158
0.488502 -0.470672 0.110752
0.488561 -0.469715 0.111598
0.466213 -0.495627 0.111254
0.464618 -0.494866 0.109943
0.461425 -0.490024 0.108794
0.459378 -0.491845 0.105866
0.460916 -0.490329 0.108131
0.462777 -0.488505 0.110868
0.465691 -0.492931 0.111913
0.463400 -0.488390 0.111564
0.464540 -0.490120 0.111973
0.460070 -0.492088 0.106474
0.462068 -0.489723 0.109593
0.466068 -0.495747 0.111050
0.465710 -0.495626 0.110734
0.458870 -0.492434 0.105079
0.461699 -0.493254 0.107640
0.460270 -0.492935 0.106305
0.461774 -0.490444 0.108968
0.464247 -0.489391 0.111994
0.461499 -0.488710 0.109454
0.462622 -0.487751 0.111043
0.463463 -0.494168 0.109058
0.459513 -0.492344 0.105784
0.458945 -0.491756 0.105457
0.463332 -0.491372 0.110167
0.461148 -0.493632 0.106903
0.460851 -0.490501 0.107988
0.459846 -0.492164 0.106209
0.463756 -0.494772 0.109094
0.465540 -0.495122 0.110783
0.461580 -0.489692 0.109101
0.505445 -0.490044 0.107086
0.498366 -0.498438 0.106111
0.500961 -0.493724 0.106977
0.502434 -0.489273 0.108020
0.498313 -0.494057 0.107484
0.499560 -0.492013 0.107832
0.501144 -0.496931 0.105938
0.500010 -0.497646 0.105978
0.501526 -0.492333 0.107279
0.499456 -0.495597 0.106742
0.498018 -0.494360 0.107459
0.500659 -0.491907 0.107611
0.504808 -0.492777 0.106383
0.505309 -0.492951 0.106214
0.502951 -0.493724 0.106518
0.503486 -0.490942 0.107259
0.497646 -0.491420 0.108458
0.497642 -0.489875 0.108939
0.504780 -0.492139 0.106588
0.501797 -0.490483 0.107791
0.503373 -0.494402 0.106210
0.503476 -0.488878 0.107903
0.505447 -0.492908 0.106195
0.505547 -0.490741 0.106846
0.502991 -0.494758 0.106187
0.505716 -0.492067 0.106395
0.501280 -0.496367 0.106082
0.498989 -0.496713 0.106503
0.502939 -0.489023 0.107982
0.501818 -0.496111 0.106037
0.497128 -0.491849 0.108444
0.504657 -0.490361 0.107169
0.501610 -0.493239 0.106978
0.498990 -0.495773 0.106795
0.501231 -0.489689 0.108169
0.502452 -0.489301 0.108008
0.502161 -0.489767 0.107930
0.502996 -0.493512 0.106573
0.499472 -0.493486 0.107395
0.503296 -0.490411 0.107468
0.497754 -0.491203 0.108501
0.502537 -0.493037 0.106827
0.499080 -0.492397 0.107824
0.500106 -0.491342 0.107915
0.523604 -0.487290 0.107916
0.521874 -0.486632 0.108123
0.521295 -0.488614 0.109251
0.519871 -0.487195 0.108999
0.520414 -0.486380 0.108443
0.523166 -0.487705 0.108248
0.521874 -0.489863 0.109677
0.522258 -0.488661 0.108982
0.573467 -0.430858 0.111336
0.571839 -0.428676 0.114097
0.572857 -0.430032 0.112347
0.571929 -0.428523 0.113217
0.572948 -0.429818 0.111301
0.571970 -0.428459 0.112831
0.572035 -0.429022 0.113987
0.572297 -0.428352 0.110819
0.573642 -0.431210 0.111349
0.573356 -0.430360 0.110591
0.576762 -0.486573 0.109319
0.577898 -0.488386 0.112267
0.577303 -0.491334 0.112133
0.575923 -0.490022 0.108871
0.576459 -0.488285 0.109326
0.577672 -0.485868 0.110902
0.576912 -0.493769 0.112224
0.577212 -0.486228 0.110103
0.576928 -0.491797 0.111544
0.576876 -0.493993 0.112233
0.576921 -0.486813 0.109727
0.577546 -0.486558 0.110897
0.577405 -0.487699 0.111023
0.575785 -0.488197 0.107933
0.577874 -0.488597 0.112297
0.577031 -0.492256 0.111917
0.576481 -0.489222 0.109709
0.578788 -0.483697 0.112369
0.577034 -0.494516 0.112741
0.576842 -0.487095 0.109668
0.579295 -0.504363 0.111213
0.576250 -0.507198 0.111888
0.577932 -0.505808 0.111494
0.578877 -0.507198 0.111016
0.577712 -0.506817 0.111448
0.578487 -0.506129 0.111272
0.575719 -0.507999 0.111970
0.579123 -0.505874 0.111092
0.578294 -0.507801 0.111138
0.578104 -0.508914 0.111069
0.528452 -0.488505 0.109408
0.527713 -0.490249 0.113739
0.528320 -0.489392 0.111922
0.524504 -0.490358 0.109987
0.526054 -0.489640 0.109788
0.527551 -0.489695 0.111858
0.527618 -0.489681 0.111903
0.526084 -0.490653 0.112888
0.525099 -0.490622 0.111543
0.525503 -0.489637 0.109078
0.527733 -0.489703 0.112114
0.524518 -0.490927 0.111725
0.524563 -0.490705 0.111110
0.526553 -0.490117 0.111863
0.525495 -0.489985 0.110120
0.520179 -0.486690 0.113718
0.524829 -0.489581 0.114884
0.525879 -0.485889 0.114271
0.521273 -0.484099 0.113333
0.521391 -0.487917 0.114118
0.522675 -0.482557 0.113197
0.518759 -0.485486 0.113297
0.523403 -0.480935 0.112961
0.525815 -0.489524 0.114997
0.525195 -0.487752 0.114561
0.525696 -0.486642 0.114400
0.523059 -0.483357 0.113407
0.521617 -0.483644 0.113284
0.524508 -0.483774 0.113673
0.523888 -0.484422 0.113726
0.523658 -0.480839 0.112974
0.524195 -0.483716 0.113622
0.525408 -0.485063 0.114046
0.524727 -0.488783 0.114711
0.520170 -0.486403 0.113659
0.524131 -0.489026 0.114685
0.523999 -0.487199 0.114300
0.526593 -0.488112 0.114809
0.523619 -0.483954 0.113598
0.525786 -0.488236 0.114733
0.523899 -0.482033 0.113245
0.524105 -0.486726 0.114218
0.523151 -0.485418 0.113834
0.521723 -0.485464 0.113664
0.514461 -0.478160 0.111367
0.511676 -0.473835 0.109878
0.513705 -0.476581 0.110848
0.512245 -0.474019 0.109984
0.511378 -0.476569 0.110622
0.509115 -0.476336 0.110340
0.511281 -0.476280 0.110531
0.520009 -0.478732 0.112059
0.509126 -0.477448 0.110655
0.513184 -0.473814 0.110016
0.511571 -0.478644 0.111227
0.512001 -0.475435 0.110361
0.513608 -0.476563 0.110834
0.514311 -0.477679 0.111217
0.515962 -0.476451 0.111027
0.511789 -0.478335 0.111161
0.509946 -0.473533 0.109627
0.511103 -0.479536 0.111435
0.519260 -0.479630 0.112242
0.512475 -0.475132 0.110321
0.515377 -0.480071 0.111995
0.511050 -0.473146 0.109623
0.514059 -0.477073 0.111021
0.510907 -0.478596 0.111150
0.515693 -0.477872 0.111403
0.519305 -0.478318 0.111875
0.516799 -0.476774 0.111199
0.516009 -0.476890 0.111156
0.509869 -0.477420 0.110719
0.517533 -0.477081 0.111356
0.518919 -0.477808 0.111694
0.518964 -0.480089 0.112343
0.510477 -0.473763 0.109743
0.513826 -0.478266 0.111336
0.519210 -0.478204 0.111833
0.516554 -0.479158 0.111849
0.512075 -0.474293 0.110046
0.520176 -0.479945 0.112418
0.512282 -0.474457 0.110112
0.548660 -0.411876 0.109761
0.551669 -0.415014 0.107857
0.552693 -0.416550 0.106628
0.547510 -0.411564 0.109386
0.552417 -0.414834 0.108576
0.554269 -0.414131 0.110678
0.554646 -0.415561 0.109151
0.549083 -0.411581 0.110407
0.552413 -0.415753 0.107432
0.551320 -0.412653 0.110560
0.551248 -0.414810 0.107831
0.553602 -0.415039 0.109107
0.553738 -0.414029 0.110452
0.546187 -0.410318 0.110057
0.549484 -0.411906 0.110270
0.554088 -0.415082 0.109376
0.551308 -0.413365 0.109666
0.554614 -0.415517 0.109184
0.477114 -0.519083 0.098518
0.475611 -0.520876 0.097087
0.471020 -0.521707 0.095524
0.471432 -0.521851 0.095532
0.475267 -0.517585 0.098995
0.477143 -0.517982 0.099190
0.475500 -0.521109 0.096921
0.475243 -0.516343 0.099740
0.474878 -0.518530 0.098335
0.473176 -0.520663 0.096653
0.474480 -0.520708 0.096927
0.476793 -0.518113 0.099029
0.473272 -0.518281 0.098114
0.474060 -0.521716 0.096222
0.475025 -0.521485 0.096584
0.477888 -0.519847 0.098236
0.476799 -0.517111 0.099636
0.477265 -0.518542 0.098879
0.474518 -0.519137 0.097885
0.576307 -0.501714 0.099436
0.576373 -0.505985 0.096810
0.576039 -0.502758 0.099337
0.575561 -0.508839 0.096692
0.576556 -0.500588 0.099619
0.575742 -0.501512 0.100635
0.576547 -0.500312 0.099797
0.575802 -0.506643 0.097517
0.577087 -0.504039 0.096582
0.577579 -0.501797 0.096953
0.576765 -0.501678 0.098581
0.576395 -0.505937 0.096796
0.575250 -0.505185 0.099426
0.575522 -0.506484 0.098145
0.576803 -0.505273 0.096403
0.576074 -0.500882 0.100368
0.578146 -0.502893 0.095227
0.576180 -0.502185 0.099404
0.577913 -0.501288 0.096612
0.575316 -0.504488 0.099708
0.575521 -0.503432 0.099934
0.578788 -0.500535 0.095379
0.575162 -0.508782 0.097488
0.575983 -0.502417 0.099645
0.578831 -0.500396 0.095378
0.569778 -0.423624 0.112393
0.571426 -0.428148 0.114891
0.571296 -0.428005 0.115235
0.569569 -0.422761 0.111342
0.571412 -0.427017 0.112106
0.571369 -0.426964 0.112203
0.569899 -0.423909 0.112457
0.571269 -0.427626 0.114425
0.568606 -0.420732 0.111444
0.569604 -0.422769 0.111176
0.570875 -0.427365 0.115906
0.569778 -0.423687 0.112553
0.571080 -0.426502 0.112607
0.569616 -0.423556 0.113104
0.571218 -0.426601 0.112106
0.570698 -0.425570 0.112319
0.569441 -0.422762 0.112040
0.565356 -0.517060 0.102964
0.573037 -0.508986 0.099673
0.574172 -0.502425 0.102044
0.569584 -0.512236 0.101355
0.568955 -0.511214 0.102520
0.574639 -0.506644 0.099337
0.568777 -0.511731 0.102421
0.573933 -0.504486 0.101183
0.569615 -0.513132 0.100848
0.566232 -0.515920 0.102706
0.566632 -0.516077 0.102227
0.574712 -0.506578 0.099301
0.568686 -0.513175 0.101742
0.571909 -0.511047 0.099691
0.569929 -0.510601 0.101884
0.565415 -0.517212 0.102825
0.573681 -0.507984 0.099571
0.572183 -0.510787 0.099558
0.573965 -0.506039 0.100325
0.571985 -0.507040 0.101749
0.573362 -0.509178 0.099250
0.572009 -0.510415 0.099928
0.566912 -0.515156 0.102441
0.567476 -0.515506 0.101697
0.573244 -0.507137 0.100454
0.572459 -0.507795 0.100879
0.571393 -0.506039 0.102866
0.574881 -0.508301 0.098216
0.571604 -0.512991 0.098958
0.571411 -0.511473 0.099957
0.573787 -0.502445 0.102414
0.573972 -0.508472 0.099023
0.571623 -0.508505 0.101326
0.569178 -0.509510 0.103207
0.571200 -0.513156 0.099269
0.566980 -0.513984 0.102997
0.573249 -0.507992 0.099993
0.573940 -0.505947 0.100399
0.566124 -0.516828 0.102329
0.574652 -0.506815 0.099233
0.575051 -0.505038 0.099785
0.573026 -0.503548 0.102578
0.570615 -0.508808 0.102161
0.571858 -0.510797 0.099875
0.568495 -0.513720 0.101641
0.566063 -0.514895 0.103418
0.572493 -0.508060 0.100704
0.571744 -0.511091 0.099830
0.565837 -0.517040 0.102500
0.573789 -0.509842 0.098475
0.569305 -0.511089 0.102241
0.563636 -0.518558 0.103866
0.573400 -0.504442 0.101734
0.574115 -0.499826 0.104810
0.571589 -0.501769 0.108939
0.572674 -0.497593 0.108351
0.573477 -0.498730 0.106416
0.572153 -0.500957 0.108151
0.571732 -0.501716 0.108684
0.574455 -0.493299 0.106477
0.575012 -0.498753 0.103479
0.574216 -0.492645 0.107165
0.573983 -0.495893 0.106457
0.573149 -0.500200 0.106519
0.574240 -0.493894 0.106676
0.573155 -0.499834 0.106637
0.575241 -0.494003 0.104728
0.573292 -0.495297 0.107987
0.575128 -0.497509 0.103700
0.574103 -0.500222 0.104692
0.574488 -0.500046 0.104020
0.573927 -0.499107 0.105424
0.572799 -0.499467 0.107446
0.574284 -0.492264 0.107170
0.574325 -0.491937 0.107208
0.574822 -0.490981 0.106600
0.575322 -0.495695 0.103973
0.574424 -0.492656 0.106765
0.572343 -0.500137 0.108078
0.574816 -0.495051 0.105167
0.574770 -0.497656 0.104330
0.573059 -0.499614 0.106898
0.573619 -0.494916 0.107498
0.476218 -0.513595 0.101525
0.474701 -0.506626 0.103875
0.476464 -0.513596 0.101507
0.475996 -0.507586 0.103476
0.476603 -0.512964 0.101701
0.474971 -0.509736 0.102854
0.476836 -0.508321 0.103181
0.477032 -0.509630 0.102746
0.474416 -0.506632 0.103893
0.474021 -0.507067 0.103780
0.474531 -0.506854 0.103813
0.475344 -0.508132 0.103345
0.478297 -0.503607 0.104598
0.475083 -0.506412 0.103918
0.475126 -0.510813 0.102496
0.476295 -0.511479 0.102201
0.478845 -0.504159 0.104383
0.477715 -0.504983 0.104196
0.477870 -0.509796 0.102651
0.483553 -0.509717 0.102866
0.482340 -0.510187 0.102687
0.480194 -0.505400 0.104025
0.480710 -0.509185 0.102927
0.479628 -0.502784 0.104776
0.480598 -0.510014 0.102679
0.478809 -0.506865 0.103546
0.479642 -0.503574 0.104544
0.477633 -0.513447 0.101568
0.480849 -0.512059 0.102085
0.482508 -0.511354 0.102349
0.484504 -0.512691 0.102022
0.481038 -0.512974 0.101822
0.478165 -0.513942 0.101440
0.478656 -0.507669 0.103304
0.485430 -0.509605 0.102963
0.484661 -0.511643 0.102336
0.480700 -0.512161 0.102050
0.482754 -0.505096 0.104200
0.480504 -0.505533 0.103996
0.483459 -0.508522 0.103215
0.484479 -0.512600 0.102048
0.483876 -0.507083 0.103653
0.484383 -0.511224 0.102450
0.484906 -0.511340 0.102434
0.485099 -0.511199 0.102482
0.478607 -0.511410 0.102200
0.481305 -0.509119 0.102967
0.480410 -0.505770 0.103923
0.481230 -0.512547 0.101954
0.486139 -0.511658 0.102382
0.485934 -0.510540 0.102704
0.483690 -0.511383 0.102380
0.480800 -0.512489 0.101957
0.477540 -0.513495 0.101550
0.487863 -0.510405 0.102809
0.480615 -0.510343 0.102583
0.477876 -0.512902 0.101736
0.479815 -0.509049 0.102937
0.479775 -0.510623 0.102472
0.483373 -0.506426 0.103830
0.467690 -0.506636 0.103339
0.469688 -0.505594 0.105382
0.465538 -0.507415 0.101575
0.468735 -0.505515 0.105140
0.469213 -0.504836 0.106175
0.471752 -0.507331 0.103914
0.470292 -0.507404 0.103297
0.469699 -0.504655 0.106580
0.470270 -0.507475 0.103199
0.471293 -0.507533 0.103492
0.471883 -0.505977 0.105684
0.471181 -0.506254 0.105079
0.468464 -0.506522 0.103762
0.469567 -0.505199 0.105841
0.469915 -0.505452 0.105644
0.468855 -0.507243 0.102984
0.578377 -0.503767 0.094689
0.502840 -0.483257 0.111190
0.507024 -0.480203 0.111195
0.506418 -0.483640 0.111552
0.503104 -0.482323 0.111102
0.504305 -0.483076 0.111298
0.507084 -0.480945 0.111289
0.507011 -0.480911 0.111279
0.505333 -0.483258 0.111410
0.505322 -0.481656 0.111218
0.506073 -0.481848 0.111307
0.504619 -0.481166 0.111098
0.561153 -0.421281 0.110885
0.561853 -0.421369 0.111105
0.558896 -0.418678 0.110817
0.562554 -0.421392 0.111343
0.561391 -0.424749 0.110006
0.560185 -0.421198 0.110569
0.562447 -0.423249 0.110791
0.557800 -0.416724 0.110976
0.560359 -0.420756 0.110752
0.560334 -0.422308 0.110313
0.562257 -0.425898 0.109990
0.557789 -0.416979 0.110901
0.556749 -0.415967 0.110819
0.562589 -0.422576 0.111027
0.565736 -0.426148 0.111241
0.566398 -0.426824 0.111308
0.565170 -0.424993 0.111342
0.565329 -0.427139 0.110813
0.565116 -0.426953 0.110783
0.563869 -0.424385 0.111012
0.565610 -0.427465 0.110830
0.566403 -0.427184 0.111211
0.566240 -0.426644 0.111297
0.563954 -0.423305 0.111342
0.534836 -0.489231 0.103435
0.532737 -0.488525 0.105587
0.534134 -0.488556 0.106603
0.534161 -0.488787 0.105338
0.532158 -0.488161 0.107127
0.533411 -0.488381 0.106965
0.533766 -0.488526 0.106461
0.533693 -0.488480 0.106652
0.534004 -0.488602 0.106239
0.530655 -0.488127 0.106034
0.532208 -0.488329 0.106230
0.523939 -0.488851 0.103704
0.523777 -0.486260 0.106876
0.522538 -0.485848 0.105786
0.522850 -0.486101 0.105864
0.523883 -0.488717 0.103804
0.522020 -0.485404 0.105684
0.562058 -0.415702 0.110953
0.563221 -0.415883 0.110901
0.567095 -0.418405 0.111058
0.562476 -0.413955 0.110622
0.565377 -0.416902 0.110922
0.562597 -0.414062 0.110632
0.565606 -0.417645 0.111034
0.561531 -0.414673 0.110814
0.564237 -0.417336 0.111079
0.573246 -0.439766 0.097964
0.574070 -0.439046 0.096118
0.572867 -0.437307 0.096665
0.570767 -0.431661 0.095610
0.572011 -0.435788 0.096837
0.572527 -0.436131 0.096293
0.571671 -0.434172 0.096126
0.573226 -0.436407 0.095411
0.573919 -0.438985 0.096309
0.571188 -0.434310 0.096990
0.572620 -0.435773 0.095872
0.574563 -0.438766 0.095130
0.572887 -0.438387 0.097464
0.573236 -0.439131 0.097490
0.571472 -0.435003 0.097079
0.571200 -0.431837 0.095067
0.571964 -0.432787 0.094807
0.572153 -0.431732 0.094764
0.574236 -0.437233 0.094700
0.572689 -0.433807 0.094763
0.570993 -0.430334 0.094840
0.535097 -0.487320 0.110197
0.534051 -0.486415 0.112155
0.532661 -0.488584 0.111954
0.533214 -0.488727 0.111197
0.535194 -0.487729 0.109745
0.535255 -0.487453 0.109904
0.532690 -0.489419 0.111226
0.533438 -0.487433 0.112015
0.532710 -0.487689 0.112641
0.531881 -0.488442 0.112971
0.535130 -0.485808 0.111416
0.533103 -0.488232 0.111737
0.534280 -0.485699 0.112486
0.533813 -0.486475 0.112380
0.528751 -0.490474 0.114890
0.533940 -0.488305 0.110711
0.531744 -0.489797 0.112003
0.579477 -0.496883 0.097727
0.580257 -0.494059 0.099153
0.578756 -0.497107 0.098800
0.577398 -0.498810 0.099537
0.578139 -0.496058 0.100963
0.577591 -0.499322 0.098677
0.579405 -0.498288 0.096446
0.578246 -0.497645 0.099180
0.579794 -0.494648 0.099397
0.580378 -0.494803 0.098190
0.578135 -0.497294 0.099731
0.579862 -0.496460 0.097457
0.579243 -0.497158 0.097871
0.579090 -0.498238 0.097063
0.576452 -0.499040 0.101010
0.578024 -0.500044 0.097171
0.577712 -0.499036 0.098745
0.579546 -0.495561 0.098928
0.580453 -0.494355 0.098503
0.576335 -0.490290 0.094779
0.574721 -0.488528 0.095777
0.574916 -0.489238 0.095334
0.575838 -0.486820 0.096987
0.574579 -0.488408 0.095842
0.576125 -0.485114 0.098121
0.579469 -0.490455 0.094954
0.574977 -0.488979 0.095508
0.575623 -0.488552 0.095843
0.576553 -0.487944 0.096322
0.576622 -0.488281 0.096109
0.576469 -0.486292 0.097387
0.576865 -0.489920 0.095067
0.578061 -0.487936 0.096463
0.574184 -0.487042 0.096693
0.581183 -0.502176 0.110835
0.579667 -0.501193 0.111305
0.578503 -0.500521 0.111654
0.577238 -0.497405 0.112388
0.577654 -0.496152 0.112485
0.578261 -0.500630 0.111690
0.577385 -0.498198 0.112239
0.577773 -0.498629 0.112092
0.578679 -0.498464 0.111922
0.577994 -0.498495 0.112064
0.576173 -0.500126 0.112211
0.563582 -0.418102 0.111187
0.563524 -0.418524 0.111218
0.564334 -0.420259 0.111313
0.565311 -0.419320 0.111220
0.564428 -0.417946 0.111152
0.564689 -0.418273 0.111167
0.562483 -0.418142 0.111222
0.564876 -0.420173 0.111291
0.521110 -0.486200 0.105041
0.521415 -0.486846 0.104678
0.523779 -0.489486 0.103111
0.521287 -0.486238 0.105007
0.521008 -0.485976 0.105166
0.522674 -0.487017 0.104493
0.521631 -0.488014 0.104048
0.523086 -0.490305 0.109546
0.524874 -0.489489 0.108887
0.524406 -0.489631 0.109022
0.524054 -0.490131 0.109330
0.525531 -0.488139 0.108094
0.523829 -0.489950 0.109264
0.528033 -0.487747 0.107566
0.523789 -0.487250 0.107852
0.500386 -0.508833 0.102610
0.500060 -0.504434 0.104028
0.498779 -0.504243 0.104256
0.501514 -0.509723 0.102184
0.504569 -0.507762 0.102395
0.499932 -0.507935 0.102951
0.499737 -0.508525 0.102792
0.498932 -0.505766 0.103760
0.505274 -0.507526 0.102376
0.500175 -0.511213 0.101894
0.502022 -0.504709 0.103684
0.503913 -0.505995 0.103034
0.501183 -0.506869 0.103119
0.504450 -0.509525 0.101860
0.507574 -0.508097 0.101896
0.499994 -0.501899 0.104829
0.498902 -0.505843 0.103740
0.504787 -0.505977 0.102925
0.498542 -0.502014 0.104984
0.501743 -0.506055 0.103300
0.501030 -0.511139 0.101805
0.503570 -0.507845 0.102501
0.499439 -0.506640 0.103420
0.506201 -0.507119 0.102382
0.501159 -0.509056 0.102439
0.502419 -0.510722 0.101752
0.502440 -0.507691 0.102697
0.500638 -0.507060 0.103131
0.499273 -0.507300 0.103236
0.501776 -0.506825 0.103055
0.573429 -0.482644 0.106168
0.572152 -0.478483 0.105695
0.570538 -0.480066 0.104317
0.573205 -0.480436 0.106253
0.573447 -0.478133 0.106695
0.572278 -0.477254 0.105928
0.573521 -0.476438 0.106943
0.572583 -0.483440 0.105450
0.573045 -0.483210 0.105819
0.572823 -0.479356 0.106093
0.573086 -0.484343 0.105720
0.571687 -0.479579 0.105225
0.571251 -0.478709 0.105001
0.572378 -0.477278 0.106000
0.574486 -0.481133 0.107124
0.573369 -0.483060 0.106076
0.574424 -0.482505 0.106921
0.573103 -0.481829 0.106019
0.573974 -0.485607 0.106235
0.555345 -0.528351 0.099099
0.553593 -0.528699 0.097450
0.551833 -0.528766 0.100835
0.552426 -0.528731 0.099918
0.554133 -0.528493 0.099714
0.555800 -0.528330 0.098290
0.555068 -0.528355 0.099738
0.554482 -0.528530 0.098163
0.554690 -0.528471 0.098660
0.552698 -0.528735 0.099146
0.555753 -0.528319 0.098598
0.556581 -0.528154 0.099386
0.530852 -0.511470 0.097423
0.532195 -0.512435 0.097106
0.532539 -0.511211 0.096968
0.526825 -0.508464 0.098367
0.530158 -0.507255 0.097442
0.533295 -0.508511 0.096663
0.527081 -0.507939 0.098279
0.532394 -0.506027 0.096804
0.526845 -0.509222 0.098392
0.521755 -0.514391 0.099936
0.532116 -0.508239 0.096964
0.529649 -0.509944 0.097681
0.524249 -0.514451 0.099280
0.530492 -0.512561 0.097560
0.535260 -0.512922 0.096317
0.531321 -0.508463 0.097182
0.531493 -0.509412 0.097174
0.529000 -0.505396 0.097674
0.525922 -0.509535 0.098647
0.533692 -0.507538 0.096521
0.524786 -0.513917 0.099118
0.537116 -0.512416 0.095808
0.527361 -0.511662 0.098351
0.536607 -0.512332 0.095939
0.528088 -0.514350 0.098264
0.528741 -0.509545 0.097905
0.528321 -0.510705 0.098060
0.536718 -0.511852 0.095891
0.528446 -0.508544 0.097943
0.532990 -0.513236 0.096928
0.528103 -0.507406 0.097989
0.529864 -0.508421 0.097565
0.528487 -0.510370 0.098004
0.534894 -0.513605 0.096441
0.527168 -0.513519 0.098474
0.529405 -0.509280 0.097719
0.532064 -0.511827 0.097117
0.531726 -0.511277 0.097185
0.527837 -0.509437 0.098138
0.532814 -0.510262 0.096859
0.528521 -0.506413 0.097840
0.533479 -0.512134 0.096756
0.526202 -0.513265 0.098719
0.529520 -0.507060 0.097602
0.524442 -0.512522 0.099154
0.532755 -0.509516 0.096845
0.536614 -0.512910 0.095960
0.536291 -0.511131 0.095976
0.525795 -0.512828 0.098809
0.533004 -0.510794 0.096829
0.530686 -0.511750 0.097478
0.525930 -0.513661 0.098806
0.531269 -0.509038 0.097218
0.531602 -0.513570 0.097307
0.578556 -0.502629 0.094806
0.578229 -0.503910 0.094827
0.576343 -0.508363 0.095791
0.577096 -0.506067 0.095554
0.577925 -0.504161 0.095116
0.526405 -0.488771 0.105114
0.525122 -0.490001 0.103207
0.524284 -0.486376 0.107138
0.524877 -0.487332 0.106237
0.525643 -0.486816 0.107119
0.524397 -0.487762 0.105559
0.527299 -0.488281 0.106013
0.527663 -0.487467 0.107097
0.540856 -0.527739 0.095288
0.545202 -0.527861 0.094793
0.540990 -0.527754 0.095273
0.536649 -0.525655 0.095762
0.539977 -0.527036 0.095386
0.545534 -0.527920 0.094755
0.545738 -0.528583 0.094734
0.540038 -0.527435 0.095381
0.541684 -0.527512 0.095193
0.544447 -0.525894 0.094872
0.546012 -0.524911 0.094690
0.544912 -0.522685 0.094808
0.540833 -0.524908 0.095281
0.544749 -0.523012 0.094828
0.540117 -0.526014 0.095367
0.545136 -0.522855 0.094783
0.545115 -0.526792 0.094799
0.543107 -0.523239 0.095016
0.541119 -0.524056 0.095246
0.545060 -0.527026 0.094806
0.545044 -0.526887 0.094807
0.541665 -0.527576 0.095195
0.541704 -0.525350 0.095183
0.578870 -0.495977 0.112181
0.580497 -0.495700 0.111770
0.581715 -0.498134 0.111157
0.580417 -0.499123 0.111396
0.581108 -0.501755 0.110904
0.579939 -0.495909 0.111898
0.579348 -0.498527 0.111756
0.579897 -0.498994 0.111553
0.581427 -0.500511 0.110961
0.581574 -0.499286 0.111063
0.582484 -0.493922 0.111436
0.577777 -0.495000 0.112591
0.582283 -0.496459 0.111197
0.581145 -0.497194 0.111421
0.579727 -0.494704 0.112095
0.580613 -0.495273 0.111788
0.580411 -0.500548 0.111233
0.568090 -0.445813 0.094765
0.567597 -0.444615 0.094695
0.561151 -0.446659 0.094735
0.565115 -0.445701 0.094726
0.567012 -0.445429 0.094732
0.561160 -0.447124 0.094760
0.562380 -0.446421 0.094735
0.559378 -0.446754 0.094721
0.561302 -0.446682 0.094738
0.564200 -0.446572 0.094763
0.566516 -0.446715 0.094796
0.562670 -0.445414 0.094685
0.565360 -0.446526 0.094773
0.544586 -0.483233 0.109749
0.546533 -0.482912 0.109935
0.545231 -0.481120 0.111391
0.541058 -0.479954 0.112453
0.545183 -0.479884 0.112367
0.543640 -0.481873 0.110853
0.549386 -0.481928 0.110613
0.547346 -0.482333 0.110363
0.547292 -0.484777 0.108440
0.548589 -0.482563 0.110140
0.546172 -0.483587 0.109416
0.545268 -0.482831 0.110042
0.545491 -0.482853 0.110017
0.547719 -0.483418 0.109496
0.543651 -0.480415 0.112001
0.544975 -0.482173 0.110571
0.543288 -0.481727 0.110980
0.544516 -0.479938 0.112347
0.548639 -0.481889 0.110669
0.545884 -0.484789 0.108479
0.548001 -0.480435 0.111836
0.550272 -0.480438 0.111757
0.550870 -0.480938 0.111342
0.548894 -0.480772 0.111541
0.551268 -0.480674 0.111537
0.543997 -0.482980 0.109969
0.547232 -0.480299 0.111970
0.543986 -0.483373 0.109659
0.546038 -0.483697 0.109334
0.542879 -0.479560 0.112702
0.556631 -0.528246 0.094886
0.561168 -0.526513 0.094758
0.559645 -0.527808 0.094738
0.556440 -0.528557 0.094871
0.557356 -0.527620 0.094896
0.560558 -0.526621 0.094786
0.559680 -0.526590 0.094843
0.556759 -0.419938 0.104103
0.556789 -0.419559 0.103517
0.558298 -0.420974 0.102902
0.554649 -0.416695 0.103176
0.555676 -0.416162 0.100647
0.557038 -0.420257 0.104072
0.556599 -0.419542 0.103821
0.562380 -0.425511 0.102243
0.560551 -0.422696 0.101433
0.556516 -0.417517 0.101106
0.557414 -0.420212 0.103357
0.562018 -0.424713 0.101740
0.556045 -0.418854 0.103808
0.560476 -0.423726 0.103016
0.553990 -0.416835 0.104515
0.557668 -0.420119 0.102786
0.557211 -0.419747 0.103051
0.555249 -0.415812 0.100892
0.554875 -0.417967 0.104582
0.558198 -0.421144 0.103315
0.557252 -0.420941 0.104666
0.555892 -0.419579 0.105097
0.557764 -0.420184 0.102712
0.558713 -0.421233 0.102548
0.557755 -0.419363 0.101568
0.558431 -0.422008 0.104132
0.556200 -0.417049 0.100993
0.557131 -0.420742 0.104594
0.555905 -0.417870 0.102662
0.571707 -0.442285 0.094731
0.569274 -0.444585 0.094733
0.571227 -0.442849 0.094741
0.576411 -0.484391 0.109084
0.576435 -0.482457 0.109433
0.576248 -0.482578 0.109169
0.578141 -0.483400 0.111511
0.575570 -0.484559 0.107955
0.575676 -0.481534 0.108593
0.577592 -0.484020 0.110691
0.575688 -0.486639 0.107766
0.577241 -0.484462 0.110158
0.575175 -0.483847 0.107556
0.575987 -0.484140 0.108570
0.574940 -0.477802 0.108245
0.575273 -0.486628 0.107225
0.576114 -0.486613 0.108328
0.575464 -0.480462 0.108492
0.574720 -0.482017 0.107261
0.577640 -0.481607 0.111151
0.574454 -0.480281 0.107199
0.576418 -0.480746 0.109694
0.575130 -0.478827 0.108325
0.575067 -0.476971 0.108548
0.576559 -0.482314 0.109620
0.576154 -0.479729 0.109515
0.575254 -0.487700 0.107024
0.576242 -0.486177 0.108568
0.528609 -0.465325 0.105088
0.523255 -0.467518 0.106373
0.525363 -0.464379 0.104417
0.525287 -0.465106 0.104879
0.527044 -0.469286 0.107580
0.523721 -0.465833 0.105309
0.524836 -0.468103 0.106779
0.529646 -0.464908 0.104845
0.530167 -0.464840 0.104813
0.528655 -0.465067 0.104925
0.524089 -0.468320 0.106902
0.525571 -0.469773 0.107860
0.526895 -0.470201 0.108161
0.526006 -0.469558 0.107732
0.520952 -0.463946 0.104048
0.527473 -0.467038 0.106157
0.529256 -0.465238 0.105047
0.519232 -0.463833 0.103940
0.521595 -0.464122 0.104174
0.521628 -0.465580 0.105104
0.526335 -0.464070 0.104241
0.526100 -0.467533 0.106443
0.524859 -0.468855 0.107259
0.525975 -0.468007 0.106742
0.526814 -0.464113 0.104278
0.521807 -0.464694 0.104543
0.525315 -0.467523 0.106420
0.524746 -0.465019 0.104812
0.527567 -0.464916 0.104806
0.521497 -0.464388 0.104342
0.504502 -0.474494 0.112033
0.505570 -0.477045 0.111822
0.502834 -0.473366 0.112683
0.508157 -0.475368 0.110427
0.506749 -0.479011 0.111493
0.504845 -0.472792 0.111681
0.508257 -0.471883 0.109987
0.507517 -0.477778 0.110996
0.504947 -0.476138 0.112010
0.506019 -0.474512 0.111327
0.506482 -0.472739 0.110912
0.504768 -0.472740 0.111711
0.505418 -0.477130 0.111902
0.508458 -0.474072 0.110140
0.506685 -0.476765 0.111270
0.501243 -0.474672 0.113573
0.509003 -0.472660 0.109727
0.507481 -0.472248 0.110391
0.504305 -0.472920 0.111947
0.504988 -0.476292 0.112009
0.507383 -0.472704 0.110487
0.507884 -0.474936 0.110505
0.503549 -0.474154 0.112439
0.504554 -0.477235 0.112317
0.507225 -0.473841 0.110690
0.507877 -0.476004 0.110629
0.579795 -0.490764 0.112221
0.578678 -0.488974 0.112436
0.579357 -0.488109 0.112290
0.579821 -0.489561 0.112206
0.578133 -0.490469 0.112558
0.580096 -0.487815 0.112137
0.578610 -0.489947 0.112457
0.579098 -0.485103 0.112321
0.579201 -0.490934 0.112343
0.579600 -0.492988 0.112277
0.580313 -0.490514 0.112113
0.578855 -0.493602 0.112434
0.579627 -0.487821 0.112233
0.578766 -0.488198 0.112412
0.579723 -0.491982 0.112244
0.578590 -0.490486 0.112465
0.580244 -0.492082 0.112139
0.580674 -0.492186 0.112051
0.574607 -0.485374 0.102967
0.573039 -0.482291 0.101470
0.572458 -0.483086 0.104207
0.573587 -0.483248 0.101790
0.572331 -0.481847 0.102404
0.575604 -0.485099 0.100123
0.572964 -0.482440 0.101903
0.574410 -0.486451 0.105267
0.573648 -0.485416 0.105326
0.573972 -0.483990 0.102130
0.574635 -0.484308 0.101089
0.571526 -0.481352 0.103485
0.574558 -0.485817 0.103837
0.571716 -0.481158 0.102700
0.573732 -0.485641 0.105508
0.572173 -0.482009 0.103056
0.572155 -0.482168 0.103369
0.574891 -0.484914 0.101508
0.573469 -0.483430 0.102380
0.575350 -0.486179 0.102564
0.574171 -0.483569 0.100942
0.504385 -0.423981 0.094931
0.501439 -0.429978 0.095313
0.507829 -0.425858 0.094809
0.502127 -0.430747 0.095303
0.506718 -0.423018 0.094767
0.503002 -0.421707 0.094924
0.504561 -0.428591 0.095089
0.502212 -0.425435 0.095104
0.501661 -0.427605 0.095214
0.501915 -0.425806 0.095134
0.508301 -0.430543 0.094954
0.503043 -0.430629 0.095248
0.503139 -0.431844 0.095287
0.504448 -0.419960 0.094780
0.507926 -0.428674 0.094907
0.504236 -0.418084 0.094723
0.504219 -0.428371 0.095100
0.509613 -0.430821 0.094892
0.503164 -0.431823 0.095285
0.503635 -0.431644 0.095252
0.509108 -0.424404 0.094685
0.505538 -0.431513 0.095142
0.509230 -0.430017 0.094884
0.504772 -0.429039 0.095094
0.504406 -0.426692 0.095029
0.507404 -0.426144 0.094843
0.507427 -0.427149 0.094878
0.506517 -0.428214 0.094968
0.504471 -0.417418 0.094686
0.502004 -0.430188 0.095289
0.503180 -0.431632 0.095277
0.507142 -0.421987 0.094705
0.506337 -0.429093 0.095010
0.509809 -0.428443 0.094794
0.509027 -0.428377 0.094835
0.505470 -0.429467 0.095071
0.503103 -0.423512 0.094984
0.505539 -0.423436 0.094847
0.502048 -0.423313 0.095035
0.508937 -0.427934 0.094824
0.504134 -0.417441 0.094705
0.505494 -0.424023 0.094871
0.504746 -0.420834 0.094796
0.506715 -0.423763 0.094794
0.502544 -0.421121 0.094928
0.504289 -0.419161 0.094760
0.503258 -0.428747 0.095167
0.507888 -0.422993 0.094701
0.502905 -0.431555 0.095289
0.504300 -0.425797 0.095002
0.507034 -0.424521 0.094804
0.507224 -0.426384 0.094862
0.506560 -0.424622 0.094834
0.506295 -0.420887 0.094712
0.508038 -0.429697 0.094938
0.502684 -0.423724 0.095015
0.501944 -0.426668 0.095164
0.502042 -0.432071 0.095356
0.503419 -0.431878 0.095273
0.566255 -0.458452 0.105238
0.566922 -0.459412 0.105619
0.568408 -0.457782 0.104221
0.564572 -0.461529 0.107555
0.566464 -0.460635 0.106479
0.565729 -0.460353 0.106522
0.568192 -0.457692 0.104229
0.568150 -0.456898 0.103769
0.564262 -0.460514 0.107040
0.565673 -0.458928 0.105690
0.567519 -0.459179 0.105308
0.565538 -0.462697 0.107972
0.560222 -0.414400 0.110793
0.558779 -0.413598 0.110644
0.559612 -0.413096 0.110565
0.559907 -0.414395 0.110789
0.559877 -0.412962 0.110544
0.560573 -0.412874 0.110535
0.559669 -0.415926 0.111048
0.529610 -0.488485 0.105382
0.529621 -0.489405 0.103408
0.528470 -0.487977 0.106750
0.527071 -0.489067 0.104763
0.528521 -0.488803 0.104969
0.531715 -0.489165 0.103406
0.530932 -0.488746 0.104495
0.526999 -0.489821 0.103166
0.528738 -0.488258 0.106083
0.527149 -0.489594 0.103614
0.527371 -0.490061 0.102561
0.525781 -0.489872 0.103358
0.528868 -0.488753 0.104989
0.528190 -0.488742 0.105182
0.528057 -0.488543 0.105640
0.575304 -0.489004 0.105444
0.575503 -0.495702 0.102557
0.575526 -0.498226 0.102036
0.575495 -0.488662 0.103385
0.575450 -0.488988 0.103845
0.575629 -0.488718 0.101914
0.575464 -0.494250 0.103134
0.575634 -0.492126 0.101504
0.575347 -0.494099 0.104433
0.575499 -0.496184 0.102547
0.575664 -0.489520 0.101444
0.575458 -0.488046 0.103852
0.575682 -0.489678 0.101233
0.575671 -0.494020 0.100897
0.575306 -0.489122 0.105410
0.575233 -0.489852 0.106121
0.575607 -0.487724 0.102264
0.575812 -0.486548 0.100148
0.575545 -0.487459 0.102963
0.575492 -0.493838 0.102877
0.575684 -0.489749 0.101209
0.575324 -0.488626 0.105258
0.575291 -0.487979 0.105694
0.575595 -0.492592 0.101878
0.575742 -0.486514 0.100911
0.575642 -0.494655 0.101150
0.575582 -0.494430 0.101830
0.575549 -0.495700 0.102047
0.575644 -0.491586 0.101446
0.575614 -0.493333 0.101587
0.570252 -0.507298 0.103778
0.570591 -0.504064 0.108420
0.567879 -0.510335 0.105330
0.571814 -0.504692 0.103812
0.565080 -0.515535 0.104348
0.572062 -0.503073 0.105909
0.572794 -0.501384 0.106739
0.569342 -0.508107 0.104991
0.565372 -0.514345 0.105576
0.572663 -0.502167 0.105756
0.571141 -0.503511 0.107801
0.570856 -0.504955 0.106110
0.571616 -0.502736 0.107778
0.571841 -0.503193 0.106339
0.567413 -0.510530 0.106331
0.572985 -0.502481 0.104284
0.572248 -0.502648 0.106113
0.572520 -0.502186 0.106133
0.571835 -0.504379 0.104296
0.566978 -0.512485 0.104186
0.568772 -0.508020 0.106782
0.571100 -0.506013 0.103569
0.567035 -0.510869 0.106828
0.570497 -0.503750 0.109237
0.565864 -0.514447 0.103984
0.569006 -0.508721 0.104892
0.567805 -0.510202 0.105772
0.567432 -0.511046 0.105381
0.570068 -0.505348 0.107694
0.569293 -0.508895 0.103762
0.571448 -0.503060 0.107700
0.572128 -0.503572 0.104854
0.573200 -0.501319 0.105684
0.571174 -0.505814 0.103704
0.571623 -0.502352 0.108425
0.568894 -0.509300 0.104205
0.567188 -0.511571 0.105171
0.572130 -0.504039 0.104037
0.565778 -0.513979 0.105043
0.571022 -0.505360 0.104930
0.571130 -0.505642 0.104129
0.568782 -0.507894 0.106970
0.570030 -0.507314 0.104390
0.570997 -0.502865 0.109337
0.570891 -0.503362 0.108776
0.473763 -0.498407 0.110033
0.472971 -0.502103 0.108236
0.476965 -0.501181 0.106857
0.473882 -0.499513 0.109324
0.475361 -0.502759 0.106699
0.477740 -0.501416 0.106345
0.476166 -0.499566 0.108194
0.472590 -0.502860 0.107973
0.478772 -0.501629 0.105723
0.474612 -0.501574 0.107758
0.473610 -0.500560 0.108838
0.473394 -0.502520 0.107786
0.473847 -0.498999 0.109644
0.475789 -0.502177 0.106836
0.476772 -0.501343 0.106855
0.474982 -0.502178 0.107223
0.474496 -0.502802 0.107090
0.541087 -0.516521 0.095250
0.545240 -0.518073 0.094896
0.543139 -0.517882 0.095052
0.544133 -0.515823 0.095061
0.546129 -0.517040 0.094873
0.548235 -0.516123 0.094759
0.542934 -0.514817 0.095185
0.546267 -0.518602 0.094802
0.545960 -0.520490 0.094751
0.548815 -0.516983 0.094685
0.538693 -0.514285 0.095506
0.542478 -0.514715 0.095221
0.542328 -0.517684 0.095117
0.544967 -0.516323 0.094983
0.544176 -0.518944 0.094937
0.546459 -0.521189 0.094689
0.547323 -0.515477 0.094848
0.546250 -0.521302 0.094699
0.548004 -0.516634 0.094755
0.545225 -0.520991 0.094784
0.542501 -0.515603 0.095185
0.542414 -0.516987 0.095138
0.571194 -0.432142 0.110679
0.570784 -0.434072 0.110653
0.570586 -0.433672 0.110701
0.569604 -0.430907 0.110975
0.569214 -0.431210 0.111020
0.538478 -0.489317 0.104108
0.537950 -0.489494 0.102755
0.535896 -0.489171 0.104445
0.537791 -0.489540 0.102400
0.536978 -0.489005 0.105861
0.536330 -0.489261 0.103941
0.538741 -0.489370 0.103817
0.536437 -0.489097 0.105091
0.537943 -0.489360 0.103677
0.535351 -0.489537 0.101792
0.536224 -0.489306 0.103602
0.540785 -0.489786 0.101491
0.536478 -0.489108 0.105024
0.538884 -0.489566 0.102505
0.496768 -0.515932 0.100470
0.494150 -0.512320 0.101962
0.496120 -0.516586 0.100274
0.494657 -0.515566 0.100744
0.490731 -0.512122 0.102262
0.494788 -0.515088 0.100909
0.493127 -0.514482 0.101241
0.494015 -0.514797 0.101067
0.492946 -0.515596 0.100847
0.498839 -0.512971 0.101411
0.497450 -0.515372 0.100628
0.494318 -0.514235 0.101252
0.494144 -0.512959 0.101729
0.496032 -0.513155 0.101531
0.493082 -0.514463 0.101251
0.496896 -0.515123 0.100756
0.495654 -0.516128 0.100473
0.495005 -0.515212 0.100850
0.490711 -0.513009 0.101940
0.493991 -0.517840 0.099959
0.495958 -0.514883 0.100906
0.494982 -0.512655 0.101784
0.521530 -0.474836 0.110439
0.519641 -0.472220 0.109309
0.521169 -0.478488 0.112046
0.516633 -0.473231 0.109783
0.517717 -0.472036 0.109247
0.523088 -0.473311 0.109753
0.515310 -0.472184 0.109336
0.519356 -0.477271 0.111530
0.521377 -0.478328 0.111973
0.518162 -0.476596 0.111245
0.524064 -0.472969 0.109593
0.525946 -0.473945 0.110003
0.518063 -0.472601 0.109492
0.520990 -0.471686 0.109061
0.519903 -0.476114 0.111016
0.518518 -0.476269 0.111098
0.524875 -0.473584 0.109855
0.519061 -0.476627 0.111250
0.519237 -0.477296 0.111542
0.519209 -0.472883 0.109604
0.521407 -0.472202 0.109283
0.523374 -0.478837 0.112177
0.517820 -0.471811 0.109147
0.523454 -0.471699 0.109042
0.524000 -0.474996 0.110484
0.525754 -0.472830 0.109515
0.517816 -0.471582 0.109047
0.521311 -0.475784 0.110857
0.521195 -0.472749 0.109525
0.518860 -0.476329 0.111121
0.519656 -0.474039 0.110107
0.525361 -0.473753 0.109924
0.525760 -0.474318 0.110169
0.521873 -0.471346 0.108903
0.525275 -0.473660 0.109884
0.514893 -0.473416 0.109882
0.522589 -0.477745 0.111705
0.518759 -0.477105 0.111463
0.518494 -0.474604 0.110367
0.521683 -0.475304 0.110643
0.525087 -0.472902 0.109553
0.523424 -0.479183 0.112328
0.513411 -0.473252 0.109824
0.521310 -0.476417 0.111135
0.524046 -0.471355 0.108884
0.521329 -0.471312 0.108893
0.512029 -0.484964 0.112446
0.510307 -0.484629 0.112151
0.507651 -0.480064 0.111238
0.510991 -0.483499 0.112125
0.510783 -0.482836 0.112019
0.512881 -0.484569 0.112528
0.508124 -0.481193 0.111437
0.510209 -0.484153 0.112083
0.509303 -0.484588 0.111997
0.509548 -0.483518 0.111912
0.509616 -0.482754 0.111836
0.469756 -0.499069 0.110451
0.468976 -0.497788 0.111148
0.469365 -0.500294 0.109983
0.470175 -0.497975 0.110857
0.468545 -0.497105 0.111523
0.470962 -0.500357 0.109676
0.470896 -0.500825 0.109483
0.472227 -0.498901 0.110094
0.471251 -0.499609 0.109954
0.471086 -0.501848 0.109001
0.470061 -0.501513 0.109327
0.472808 -0.499912 0.109550
0.471486 -0.501982 0.108873
0.470403 -0.500902 0.109535
0.517018 -0.482551 0.112598
0.513651 -0.481171 0.112026
0.518212 -0.480531 0.112366
0.510240 -0.480832 0.111630
0.509068 -0.481200 0.111578
0.515891 -0.485992 0.113082
0.511480 -0.480800 0.111747
0.521157 -0.480727 0.112691
0.517045 -0.485046 0.113032
0.516803 -0.480292 0.112185
0.512397 -0.483856 0.112367
0.512053 -0.480862 0.111814
0.515934 -0.482901 0.112551
0.512724 -0.483135 0.112274
0.516008 -0.486657 0.113208
0.523237 -0.480497 0.112856
0.517455 -0.482029 0.112550
0.523213 -0.480455 0.112847
0.520320 -0.481651 0.112768
0.516347 -0.481688 0.112382
0.514708 -0.480786 0.112064
0.517629 -0.481876 0.112541
0.516084 -0.483972 0.112751
0.514955 -0.482011 0.112300
0.512476 -0.482088 0.112068
0.515967 -0.484847 0.112891
0.513548 -0.480756 0.111944
0.512678 -0.481886 0.112053
0.512940 -0.482346 0.112159
0.523477 -0.480415 0.112866
0.520286 -0.488316 0.109617
0.518066 -0.487459 0.111311
0.518960 -0.488768 0.111822
0.521436 -0.490090 0.110386
0.516594 -0.487145 0.112749
0.517593 -0.487034 0.111372
0.519238 -0.486796 0.109034
0.517806 -0.486977 0.111038
0.521055 -0.489408 0.110014
0.519260 -0.487273 0.109598
0.469661 -0.508839 0.102030
0.471312 -0.508414 0.102800
0.476322 -0.513935 0.101407
0.468052 -0.509009 0.101413
0.469611 -0.507754 0.102608
0.472842 -0.511088 0.101834
0.470055 -0.508438 0.102378
0.468926 -0.508068 0.102213
0.470784 -0.510934 0.101248
0.466965 -0.508339 0.101426
0.472134 -0.508156 0.103209
0.468772 -0.507877 0.102267
0.469840 -0.508956 0.102024
0.471537 -0.510218 0.101886
0.470421 -0.508805 0.102296
0.470461 -0.510323 0.101478
0.470201 -0.509286 0.101961
0.474803 -0.494354 0.112017
0.474256 -0.494300 0.114884
0.475092 -0.494444 0.110401
0.474601 -0.492947 0.115259
0.474507 -0.493505 0.114860
0.475513 -0.491389 0.113068
0.474255 -0.494482 0.114602
0.474363 -0.494833 0.113501
0.474297 -0.492615 0.117328
0.474751 -0.495183 0.110971
0.476013 -0.490389 0.112098
0.475041 -0.493269 0.112510
0.474434 -0.494330 0.113931
0.474478 -0.496219 0.110732
0.474618 -0.494507 0.112716
0.474280 -0.494521 0.114416
0.475016 -0.491998 0.114643
0.474723 -0.492550 0.115261
0.474681 -0.495644 0.110604
0.524456 -0.489751 0.114569
0.523658 -0.489446 0.114579
0.526162 -0.490507 0.114308
0.520622 -0.489831 0.111085
0.526113 -0.490189 0.114992
0.521998 -0.489869 0.112183
0.520025 -0.489009 0.112452
0.518191 -0.488230 0.112656
0.524559 -0.489872 0.114381
0.521297 -0.489772 0.111802
0.525227 -0.490780 0.112878
0.518134 -0.488147 0.112796
0.518152 -0.488233 0.112614
0.522121 -0.490647 0.110508
0.519865 -0.489136 0.112025
0.521129 -0.488976 0.113477
0.520063 -0.488442 0.113781
0.465578 -0.490899 0.112833
0.465472 -0.491394 0.112435
0.466130 -0.493500 0.112127
0.464931 -0.487031 0.114099
0.466340 -0.487771 0.115460
0.463555 -0.487122 0.112334
0.467039 -0.487015 0.116737
0.467003 -0.488478 0.115908
0.463986 -0.487976 0.112413
0.463176 -0.486332 0.112284
0.465994 -0.487023 0.115429
0.467156 -0.493033 0.113658
0.467422 -0.486547 0.117466
0.468214 -0.487252 0.118076
0.466455 -0.487207 0.115905
0.465364 -0.488994 0.113586
0.466494 -0.491056 0.113891
0.467092 -0.488745 0.115876
0.465225 -0.488305 0.113783
0.464901 -0.488595 0.113223
0.465006 -0.490546 0.112308
0.465542 -0.488888 0.113866
0.465968 -0.487754 0.115005
0.466243 -0.489235 0.114554
0.467139 -0.490088 0.115215
0.466197 -0.487610 0.115368
0.468250 -0.488846 0.117136
0.470151 -0.492466 0.115825
0.471797 -0.490513 0.117813
0.470232 -0.489728 0.117545
0.471839 -0.490338 0.117940
0.469396 -0.490586 0.116617
0.469569 -0.490744 0.116603
0.469081 -0.492278 0.115427
0.467722 -0.493461 0.114050
0.469465 -0.488679 0.117821
0.470685 -0.490205 0.117469
0.470280 -0.493194 0.115440
0.472108 -0.490160 0.118179
0.467912 -0.494328 0.113608
0.468447 -0.495462 0.113169
0.469674 -0.492265 0.115720
0.469069 -0.493517 0.114661
0.470480 -0.492174 0.116162
0.470435 -0.494027 0.115003
0.471777 -0.492429 0.116628
0.472662 -0.493002 0.116700
0.470294 -0.491659 0.116389
0.468963 -0.491927 0.115586
0.469339 -0.487840 0.118276
0.522769 -0.485827 0.106995
0.521728 -0.485418 0.106519
0.521415 -0.485410 0.106633
0.520564 -0.485654 0.107537
0.523328 -0.490101 0.102957
0.523184 -0.489866 0.103053
0.517668 -0.487473 0.104995
0.516528 -0.488287 0.105049
0.516127 -0.488602 0.105060
0.519148 -0.489074 0.104219
0.516542 -0.488072 0.105102
0.518741 -0.488267 0.104530
0.511122 -0.488140 0.106368
0.519760 -0.489063 0.104077
0.518662 -0.489079 0.104333
0.519376 -0.488093 0.104426
0.519191 -0.485669 0.107624
0.518385 -0.486142 0.106282
0.519412 -0.485832 0.105602
0.518431 -0.486018 0.107160
0.480367 -0.495104 0.107596
0.479414 -0.496476 0.107033
0.482997 -0.496824 0.107116
0.479738 -0.497749 0.106581
0.478831 -0.495533 0.107347
0.483147 -0.494046 0.108152
0.480469 -0.490701 0.109231
0.482965 -0.495936 0.107442
0.480887 -0.497242 0.106836
0.482434 -0.491920 0.108896
0.481218 -0.493728 0.108155
0.477770 -0.490390 0.109186
0.482262 -0.495839 0.107437
0.481037 -0.491827 0.108848
0.481923 -0.492625 0.108605
0.478193 -0.489520 0.109533
0.482317 -0.495378 0.107610
0.479569 -0.495537 0.107389
0.478938 -0.496032 0.107169
0.480186 -0.492974 0.108373
0.482725 -0.494205 0.108068
0.482881 -0.497046 0.107027
0.483059 -0.496952 0.107072
0.481798 -0.491151 0.109142
0.478800 -0.492982 0.108288
0.479161 -0.495469 0.107390
0.485026 -0.492793 0.108726
0.482603 -0.492854 0.108560
0.480309 -0.494661 0.107756
0.479519 -0.489842 0.109492
0.480004 -0.500529 0.105569
0.481430 -0.493212 0.108359
0.478527 -0.494382 0.107755
0.480045 -0.490002 0.109464
0.473684 -0.487993 0.117243
0.470157 -0.487157 0.118654
0.471596 -0.485451 0.117790
0.473222 -0.489634 0.117674
0.472370 -0.485965 0.117527
0.474356 -0.488176 0.116978
0.473933 -0.489752 0.117383
0.474322 -0.489967 0.117244
0.470530 -0.487368 0.118522
0.470469 -0.485879 0.118339
0.468883 -0.486125 0.119060
0.471835 -0.485585 0.117705
0.473485 -0.485855 0.117029
0.470148 -0.487193 0.118662
0.569830 -0.445787 0.105401
0.571191 -0.443311 0.102468
0.569845 -0.449835 0.103931
0.571859 -0.442130 0.101016
0.570465 -0.450486 0.101970
0.570520 -0.444065 0.104078
0.570228 -0.450835 0.102510
0.570417 -0.449987 0.102279
0.569715 -0.446629 0.105425
0.570325 -0.447843 0.103293
0.570027 -0.444890 0.105165
0.569961 -0.451030 0.103188
0.570172 -0.446212 0.104295
0.570312 -0.443409 0.104892
0.570297 -0.442470 0.105265
0.569866 -0.453787 0.102481
0.570295 -0.451223 0.102183
0.570086 -0.452678 0.102255
0.569945 -0.449363 0.103818
0.570785 -0.449108 0.101561
0.569770 -0.444560 0.106002
0.570232 -0.448677 0.103259
0.570996 -0.443987 0.102773
0.570661 -0.442852 0.104112
0.570997 -0.443092 0.103086
0.571224 -0.444565 0.101934
0.570653 -0.448200 0.102248
0.571450 -0.442815 0.101918
0.465804 -0.503598 0.105184
0.469418 -0.502364 0.108360
0.469162 -0.504311 0.106593
0.467870 -0.501019 0.108553
0.464561 -0.506888 0.101716
0.468739 -0.500530 0.109476
0.468693 -0.500828 0.109202
0.470677 -0.503084 0.108514
0.468001 -0.499073 0.110245
0.468033 -0.501967 0.107864
0.465938 -0.502381 0.106273
0.466457 -0.501634 0.107202
0.469895 -0.501887 0.109039
0.468019 -0.504999 0.105342
0.467670 -0.504614 0.105453
0.464627 -0.505982 0.102506
0.468365 -0.502953 0.107244
0.467216 -0.504054 0.105647
0.468635 -0.499893 0.109943
0.466805 -0.504902 0.104699
0.466511 -0.500005 0.108584
0.466425 -0.502452 0.106504
0.466437 -0.504548 0.104774
0.467609 -0.505624 0.104579
0.466072 -0.503398 0.105510
0.458264 -0.497227 0.101806
0.457300 -0.499144 0.099934
0.460743 -0.500987 0.101766
0.456842 -0.501723 0.098113
0.453594 -0.497784 0.097614
0.457618 -0.500088 0.099671
0.457433 -0.500642 0.099208
0.459746 -0.496913 0.103214
0.457703 -0.493643 0.103342
0.460180 -0.503575 0.099852
0.461461 -0.503174 0.101141
0.460244 -0.499390 0.102243
0.458624 -0.497290 0.102070
0.458743 -0.501263 0.099949
0.459312 -0.498776 0.101812
0.458461 -0.501328 0.099679
0.458774 -0.494186 0.103928
0.459702 -0.503812 0.099323
0.458452 -0.502849 0.098822
0.462108 -0.505392 0.100440
0.454795 -0.498978 0.097945
0.461287 -0.502911 0.101143
0.461251 -0.500743 0.102324
0.460535 -0.503353 0.100272
0.460726 -0.502685 0.100804
0.453122 -0.500191 0.095877
0.457487 -0.501067 0.099015
0.451758 -0.498906 0.095461
0.459576 -0.498415 0.102233
0.455540 -0.501487 0.097163
0.455354 -0.497595 0.099182
0.455423 -0.499003 0.098453
0.454491 -0.496023 0.099343
0.461952 -0.505343 0.100337
0.460650 -0.501213 0.101562
0.462751 -0.506105 0.100576
0.461144 -0.500355 0.102452
0.455304 -0.500342 0.097606
0.456456 -0.501019 0.098186
0.461305 -0.503337 0.100920
0.461074 -0.500750 0.102173
0.458065 -0.500765 0.099664
0.455737 -0.497349 0.099638
0.460944 -0.502872 0.100880
