0.25683755 -0.25128299 0.32309571 121 162 70
0.25909513 -0.25223771 0.32721958 155 193 94
0.25901949 -0.25216326 0.32224497 129 170 74
0.26100028 -0.25051376 0.32101211 101 134 19
0.26343921 -0.25116235 0.31502292 125 147 39
0.25834972 -0.25383011 0.33164647 115 130 63
0.26099628 -0.25271460 0.32240039 130 159 31
0.26543865 -0.25068644 0.31044617 140 166 59
0.26064622 -0.25186950 0.32816958 168 201 94
0.26952779 -0.24461211 0.27945799 132 157 29
0.26331690 -0.25179133 0.30618978 117 146 20
0.27013814 -0.24557245 0.28823939 125 153 8
0.26998797 -0.24530321 0.28366598 126 156 6
0.26358545 -0.25569773 0.28890878 122 153 49
0.26831523 -0.24844034 0.30235532 138 162 48
0.26304007 -0.25138548 0.31341931 113 138 21
0.26130977 -0.25279483 0.29906839 111 142 22
0.25928935 -0.25230774 0.30050173 114 145 15
0.26418188 -0.25203133 0.29951304 102 131 21
0.26671156 -0.25146216 0.29837549 121 154 15
0.26691654 -0.25117418 0.30084765 122 154 21
0.26109004 -0.25377053 0.29233530 122 152 20
0.26505798 -0.25804138 0.28198767 143 175 64
0.26369813 -0.25253102 0.29839140 120 151 34
0.26920828 -0.25381756 0.28228289 132 169 29
0.27057472 -0.25237200 0.28049397 127 161 4
0.26901767 -0.25625470 0.27617896 142 179 39
0.27006528 -0.25071633 0.28369138 130 157 0
0.27120447 -0.25286087 0.27589494 132 168 20
0.27099040 -0.24709542 0.27489218 119 147 0
0.26943067 -0.25117201 0.28903377 134 165 2
0.26870695 -0.25092497 0.29359713 126 159 8
0.26704699 -0.25435585 0.28597865 119 157 48
0.26787406 -0.25548437 0.28195599 146 183 54
0.26597214 -0.25399414 0.28877071 117 153 57
0.27020296 -0.24726047 0.28746688 144 171 6
0.26985729 -0.24934626 0.28758007 115 147 4
0.26161045 -0.25249270 0.32468045 135 139 88
0.26924905 -0.25139073 0.28849611 128 159 4
0.27032253 -0.24826430 0.29427680 147 169 6
0.26962423 -0.25090244 0.28912702 134 163 0
0.26284200 -0.24999394 0.31941658 202 215 159
0.26253363 -0.24901284 0.31831527 168 190 90
0.26531792 -0.24781425 0.30947974 184 213 61
0.25659192 -0.25461665 0.33370999 130 162 27
0.25073010 -0.25366822 0.34422928 174 197 89
0.26024747 -0.25544718 0.28709236 74 105 0
0.26296848 -0.25717208 0.28152356 85 117 0
0.25188142 -0.25611708 0.33921269 127 170 18
0.25730899 -0.25145000 0.31708354 111 153 15
0.25929412 -0.25216916 0.31721851 122 162 4
0.25693512 -0.25099409 0.31941739 125 166 62
0.27037781 -0.24720003 0.27531269 61 78 0
0.26302373 -0.25539002 0.28497258 104 136 3
0.26601461 -0.24788758 0.30699322 156 180 34
0.25905973 -0.25162107 0.30987984 112 147 5
0.25840992 -0.25152481 0.30983683 106 139 6
0.27106547 -0.25221473 0.13385716 70 89 10
0.26757529 -0.25223804 0.12892491 83 107 9
0.26751095 -0.25225502 0.12894802 84 108 12
0.27088755 -0.25194210 0.12774616 87 103 40
0.26451278 -0.25448841 0.13957086 84 108 24
0.26513821 -0.25477177 0.14295761 88 114 27
0.26605269 -0.25703573 0.13248163 107 128 37
0.25896218 -0.25438535 0.09544916 82 106 20
0.26006070 -0.25309715 0.10002071 78 100 17
0.26495939 -0.25273418 0.09476345 73 95 30
0.26436564 -0.25257686 0.09632432 74 100 29
0.26132986 -0.25351399 0.09692355 94 119 36
0.26477614 -0.25212899 0.09760460 72 97 29
0.25965330 -0.25372297 0.10409540 88 110 28
0.26779479 -0.25344217 0.10297384 44 56 18
0.26661488 -0.25410512 0.09808844 75 86 43
0.26648286 -0.25405067 0.09742574 92 105 62
0.26684573 -0.25196150 0.09476607 93 111 59
0.26785165 -0.25107622 0.11783186 84 104 45
0.27069488 -0.25083667 0.12615617 67 82 27
0.25806051 -0.25640240 0.10454769 99 120 17
0.26335281 -0.25216964 0.10448785 91 116 50
0.26814523 -0.25149512 0.10798602 95 110 55
0.26665422 -0.25127888 0.10021178 99 119 58
0.26840726 -0.25604993 0.12268592 140 157 79
0.26929849 -0.25556663 0.12527528 111 127 39
0.26333180 -0.25306690 0.12380273 88 109 16
0.26257023 -0.25367698 0.11995554 95 119 23
0.26251131 -0.25725424 0.11889739 107 128 25
0.26195765 -0.25717226 0.11706802 96 120 10
0.26517603 -0.25544465 0.13962069 99 121 36
0.26380780 -0.25414157 0.13189006 85 108 20
0.25971758 -0.25570971 0.11076147 87 109 8
0.26571432 -0.25716829 0.11575232 98 114 39
0.26226360 -0.25814924 0.11477816 108 130 22
0.26468018 -0.25786459 0.12105407 108 128 29
0.26214159 -0.25424635 0.12474051 86 108 10
0.26216260 -0.25582674 0.12101489 98 121 13
0.26676160 -0.25695518 0.13501984 104 122 38
0.26647061 -0.25708818 0.13329707 102 125 34
0.26905429 -0.25302768 0.10800309 92 106 57
0.26041073 -0.25378436 0.11270580 118 139 48
0.25803238 -0.25452107 0.09891794 97 117 28
0.26156285 -0.25275797 0.11057000 85 106 31
0.26069584 -0.25298056 0.10807528 87 110 30
0.26657733 -0.25189844 0.12230069 66 90 6
0.26587188 -0.25250712 0.12697425 85 110 16
0.26323515 -0.25218338 0.10954907 85 107 42
0.26403978 -0.25202131 0.11522991 85 105 34
0.26226258 -0.25228968 0.10733116 88 114 40
0.26944512 -0.25095779 0.12599853 82 100 26
0.26914802 -0.24970388 0.12172733 141 154 84
0.26023847 -0.25286043 0.16078864 52 85 0
0.25980890 -0.25132054 0.16018964 85 116 12
0.23538996 -0.25946936 0.19822145 128 171 4
0.24725206 -0.25346777 0.18569489 116 157 17
0.26344180 -0.25905293 0.16094045 101 139 18
0.20860001 -0.25815213 0.21061249 108 150 2
0.21257177 -0.26173544 0.20829654 69 104 0
0.25913504 -0.25985131 0.16491044 87 113 50
0.25963709 -0.25860068 0.16773771 77 114 9
0.26260328 -0.25934705 0.15896890 114 143 37
0.26270595 -0.25826859 0.16266771 88 127 10
0.23854630 -0.26125094 0.19684379 135 173 2
0.23393667 -0.26350161 0.19803908 167 211 12
0.21262886 -0.26021230 0.20860597 49 85 0
0.20587754 -0.25463578 0.21176201 153 203 16
0.20975675 -0.25011355 0.21519563 193 233 59
0.21511085 -0.24841507 0.21477221 184 214 18
0.21270779 -0.25167659 0.21375066 173 206 13
0.21615233 -0.25970230 0.20720884 139 182 4
0.20924902 -0.25718263 0.21089141 139 187 15
0.23974296 -0.25610068 0.19107589 75 109 15
0.23989043 -0.25515512 0.19150408 85 125 3
0.23443641 -0.25573891 0.19699457 69 104 4
0.25476736 -0.26019579 0.17213401 69 100 24
0.25164583 -0.25945315 0.17361692 70 108 0
0.21681608 -0.25993234 0.20659226 149 192 27
0.25692740 -0.25900126 0.16590127 25 57 0
0.20322104 -0.25926080 0.21158589 83 120 7
0.23084834 -0.26291209 0.20098455 191 225 14
0.21863300 -0.25276110 0.21200472 146 183 5
0.22152527 -0.25421932 0.20895192 98 142 7
0.23709935 -0.25559008 0.19377160 84 124 12
0.20977372 -0.25294062 0.21293849 132 183 30
0.21592121 -0.25631285 0.20933671 93 133 11
0.25348690 -0.26015958 0.17733707 94 133 26
0.25500804 -0.25863808 0.17525576 96 132 42
0.26015386 -0.25530568 0.16660690 98 131 44
0.25822082 -0.25269669 0.17089222 95 129 42
0.25929523 -0.25276968 0.16723412 76 112 2
0.22998948 -0.25544587 0.20104279 69 111 0
0.22255690 -0.25313079 0.20972021 124 161 6
0.22213471 -0.26108781 0.20314935 125 166 12
0.21256053 -0.24967732 0.21525136 189 230 92
0.22484735 -0.24990328 0.21006793 90 130 0
0.22040735 -0.25601465 0.20703959 102 140 27
0.25978670 -0.25109491 0.16291538 85 114 24
0.22448926 -0.25595832 0.20484893 91 130 21
0.23498553 -0.25842336 0.19722126 130 175 24
0.24827476 -0.25326657 0.18672787 138 176 55
0.24153368 -0.25349605 0.19102827 118 153 7
0.24689564 -0.25855121 0.18587495 122 161 18
0.25834894 -0.25438270 0.16745378 61 100 7
0.24791609 -0.25251296 0.18762045 145 184 57
0.22907682 -0.25694999 0.20177248 98 135 19
0.25148782 -0.25457612 0.17962091 89 130 12
0.22611384 -0.25930735 0.20402987 135 178 3
0.25293976 -0.25611424 0.17678379 62 103 1
0.25573888 -0.25484115 0.17223872 74 111 15
0.24842656 -0.25389028 0.18368287 92 132 7
0.25925800 -0.25247914 0.16405399 70 104 7
0.25206712 -0.25364283 0.17975719 96 138 10
0.25966638 -0.25598848 0.16413252 59 91 0
0.25716034 -0.25713223 0.16643777 68 111 0
0.26091999 -0.25727266 0.16157515 91 125 5
0.21513325 -0.25756437 0.20917407 145 194 14
0.25773451 -0.25317326 0.16927285 85 123 12
0.26181614 -0.25052279 0.16208494 95 128 39
0.25132525 -0.25867707 0.17776304 92 133 3
0.25263387 -0.25859463 0.17232801 76 113 0
0.24186724 -0.25274792 0.19147907 151 189 14
0.23051253 -0.26339647 0.19877042 147 189 0
0.23529881 -0.26215744 0.19894642 143 183 0
0.23621199 -0.26093009 0.19860464 146 187 0
0.22072372 -0.26125556 0.20338401 143 183 22
0.21593946 -0.26210067 0.20677404 80 116 10
0.25054133 -0.25512448 0.18152438 136 174 73
0.25370687 -0.25407451 0.17852798 116 152 54
0.25921595 -0.25322941 0.16948569 101 136 54
0.26157495 -0.25651804 0.16398174 104 139 47
0.22533877 -0.25786990 0.20432210 108 151 10
0.22229218 -0.26092085 0.20327407 135 176 18
0.22396864 -0.25096920 0.21133155 101 141 6
0.26448539 -0.25583789 0.15427849 73 100 7
0.25444564 -0.25850129 0.16849661 73 110 5
0.24271330 -0.25977999 0.19179472 114 151 0
0.21932340 -0.24978971 0.21475202 166 206 74
0.24502729 -0.26018256 0.18856339 127 167 9
0.22303498 -0.25026557 0.21259478 72 109 0
0.25011867 -0.25771248 0.18099491 107 143 21
0.26304233 -0.25827274 0.15755519 112 140 30
0.24332188 -0.26111290 0.19055693 112 148 0
0.22444730 -0.24983774 0.21116565 127 169 31
0.26529613 -0.25582004 0.14758436 71 101 5
0.29890567 -0.23955682 0.14520116 217 225 212
0.29714301 -0.23928560 0.14425649 207 219 199
0.29554892 -0.23914768 0.14343503 203 211 188
0.28792152 -0.24346846 0.13972221 143 164 105
0.29569700 -0.23866257 0.14860094 48 91 0
0.29459468 -0.24454784 0.14595607 57 97 9
0.28895122 -0.24585371 0.13773768 152 160 136
0.28324723 -0.24954416 0.13037764 232 221 225
0.28814182 -0.24713443 0.13962194 58 97 16
0.28413934 -0.24585165 0.13566032 115 135 76
0.27797225 -0.24878702 0.13147129 50 82 6
0.29117507 -0.24264255 0.14423372 39 76 0
0.27899510 -0.24631691 0.12998894 111 136 70
0.30439481 -0.23856218 0.15260117 72 114 30
0.29181787 -0.24484083 0.14353450 67 105 22
0.27489236 -0.24820472 0.12839778 59 91 16
0.29380283 -0.24816640 0.14205058 93 120 89
0.29596195 -0.24662690 0.14608312 42 81 0
0.29291531 -0.24031800 0.14573069 53 93 7
0.28336537 -0.24583514 0.13545571 116 141 75
0.30072248 -0.23686200 0.14681834 168 186 148
0.29406124 -0.24209940 0.14652015 61 95 9
0.30100489 -0.24374130 0.15142047 79 118 37
0.30170509 -0.24276736 0.15163057 73 112 33
0.29008695 -0.24244480 0.14133035 90 106 61
0.27483389 -0.24978870 0.12762479 65 96 28
0.30170777 -0.23520945 0.14921674 112 142 78
0.27878186 -0.24789803 0.12911807 114 136 71
0.28607476 -0.24581946 0.13785362 61 90 8
0.30257067 -0.23470266 0.14868303 140 164 116
0.29309151 -0.24585687 0.20064463 125 148 0
0.29588550 -0.24677134 0.20299217 171 197 44
0.29402518 -0.24623084 0.20138204 155 181 22
0.29156584 -0.24620265 0.19921586 129 147 3
0.29112354 -0.24692526 0.19852775 118 139 2
0.33744633 -0.24731353 0.23319717 172 206 6
0.38850406 -0.24453075 0.24280797 129 159 3
0.39094159 -0.24462989 0.24285050 140 175 19
0.27911487 -0.24337499 0.19619758 123 145 19
0.27946636 -0.24508603 0.20006773 102 127 9
0.27704462 -0.24602085 0.19945201 109 129 4
0.28523326 -0.24708985 0.20198168 156 170 15
0.38180164 -0.24070290 0.25049871 159 210 83
0.38255936 -0.24179628 0.25098243 133 184 55
0.40572327 -0.25312805 0.25233850 99 136 23
0.34197500 -0.23783056 0.24895528 157 187 11
0.40420207 -0.25261748 0.25627556 120 156 34
0.28369430 -0.24597146 0.20356502 92 116 18
0.32709682 -0.23508446 0.22472620 161 187 18
0.33918646 -0.25213054 0.23053539 163 197 14
0.34888926 -0.25223196 0.23253691 95 126 0
0.40152025 -0.25424156 0.25550696 113 153 30
0.40093797 -0.25203660 0.24871929 112 151 22
0.39122254 -0.23566589 0.24097030 93 130 1
0.39538524 -0.23773712 0.24118455 101 138 0
0.38494700 -0.23590080 0.24137861 129 164 46
0.39271426 -0.23835510 0.24147114 109 147 0
0.40046859 -0.23986945 0.24135970 98 133 7
0.37835279 -0.25540054 0.25144136 164 218 72
0.38801587 -0.24139957 0.24206673 145 175 2
0.38445008 -0.24305342 0.24239783 141 171 13
0.39107546 -0.24096286 0.24191865 137 173 5
0.39602453 -0.24207394 0.24193078 151 175 15
0.38927504 -0.23911846 0.24171482 130 167 10
0.36878806 -0.24100968 0.24832857 170 216 84
0.36428398 -0.24171056 0.24670635 165 207 79
0.41254267 -0.25322443 0.25380418 100 133 16
0.38891879 -0.25652248 0.25567561 134 175 21
0.30342916 -0.24215004 0.20598322 178 197 53
0.38456187 -0.25498351 0.25540820 191 244 74
0.36065927 -0.25196633 0.23712830 57 87 0
0.31045660 -0.24263826 0.21049196 191 210 43
0.31374472 -0.24546333 0.21185051 194 216 45
0.34803161 -0.24356933 0.24137475 114 150 2
0.41020903 -0.25289291 0.25096798 94 134 19
0.37773106 -0.25475842 0.25129738 170 221 84
0.37806997 -0.25394106 0.25186142 154 205 78
0.39628649 -0.25505432 0.25606558 150 191 50
0.39262682 -0.24753153 0.24416502 122 158 10
0.38947204 -0.24803163 0.24425082 135 170 18
0.38295808 -0.23254076 0.24952140 172 219 65
0.38600227 -0.23332262 0.24970812 167 218 65
0.38533938 -0.23423587 0.24971706 154 203 60
0.46024078 -0.23970953 0.23536797 115 144 51
0.37421775 -0.23695558 0.24903248 165 210 55
0.37198776 -0.23515466 0.24880752 197 240 65
0.37648490 -0.23276703 0.24919854 156 202 54
0.37256339 -0.23396799 0.24884839 185 228 63
0.37268791 -0.24053819 0.24901097 156 203 71
0.37239227 -0.23880455 0.24890839 176 222 72
0.32157513 -0.24743746 0.21664599 186 209 7
0.30129603 -0.23262341 0.20915821 217 235 55
0.31973433 -0.23630419 0.21458773 158 192 9
0.37248760 -0.25488141 0.24558794 103 146 41
0.39889902 -0.24188533 0.24826252 110 160 35
0.39174619 -0.24281037 0.24996771 107 162 19
0.39590210 -0.24269250 0.24942349 104 155 24
0.39401725 -0.24530643 0.25239518 125 180 16
0.38274533 -0.24077605 0.24189283 149 174 21
0.37397391 -0.24223441 0.24042241 163 191 21
0.37793007 -0.24112158 0.24102302 167 193 32
0.37564218 -0.24400273 0.24113512 158 184 23
0.37610689 -0.24429610 0.24134336 162 185 15
0.36194971 -0.24910638 0.23922209 137 172 10
0.37170035 -0.25222465 0.24290311 101 138 0
0.28282300 -0.24190655 0.19748926 172 177 23
0.36612499 -0.25440904 0.24100576 74 104 8
0.28331456 -0.24293959 0.19778053 150 156 8
0.39259115 -0.24820052 0.24475130 159 192 25
0.28749883 -0.24147071 0.20063266 150 155 3
0.38561070 -0.25509769 0.25039625 130 171 30
0.28810954 -0.24418367 0.19953844 166 172 4
0.39948097 -0.25248951 0.25213292 100 141 13
0.38501367 -0.25352401 0.24821170 134 164 30
0.42163908 -0.24400726 0.23507166 72 118 0
0.41702566 -0.24348611 0.23630454 84 125 5
0.36794740 -0.25391874 0.24174653 86 122 14
0.37986383 -0.24728920 0.24328944 138 164 28
0.37783077 -0.24741200 0.24298979 151 178 21
0.37694776 -0.24645135 0.24242383 138 169 16
0.38750485 -0.24890925 0.24462375 146 177 21
0.40301919 -0.25123164 0.24608722 80 118 7
0.38599345 -0.25024202 0.24573354 151 177 16
0.38928029 -0.25130340 0.24764939 91 131 19
0.39509255 -0.25335178 0.25326964 125 162 22
0.40214112 -0.25113955 0.24592003 94 131 17
0.40274990 -0.23171574 0.23932379 109 136 5
0.39471617 -0.25238860 0.25190881 128 169 31
0.29413551 -0.23465697 0.20985460 189 209 36
0.29189616 -0.23675093 0.20661913 174 189 0
0.29217079 -0.24149048 0.20292681 183 185 0
0.29728261 -0.24429692 0.20581727 185 210 44
0.29693034 -0.24372268 0.20572183 154 176 15
0.29882270 -0.23456915 0.21041301 190 212 41
0.29928759 -0.23622844 0.20944759 231 246 59
0.40134263 -0.25201687 0.24827327 112 153 25
0.30956453 -0.24685907 0.20976251 197 215 77
0.30805123 -0.24530773 0.20917837 181 206 42
0.39201993 -0.25241476 0.25108975 119 157 18
0.35027528 -0.25209838 0.23133661 93 127 4
0.40282920 -0.24993232 0.24393325 107 143 21
0.40008155 -0.24912506 0.24393819 117 157 9
0.28114918 -0.24103183 0.19344203 171 178 48
0.34235361 -0.24642834 0.23669833 167 197 5
0.34520778 -0.24558905 0.23824929 142 177 0
0.28116304 -0.24633482 0.18405062 132 148 41
0.34655058 -0.24797572 0.23845296 173 207 6
0.37690836 -0.24974981 0.24370164 132 163 8
0.32442436 -0.24766567 0.21830399 211 229 23
0.37566906 -0.25512156 0.24728709 159 198 81
0.31654459 -0.24119537 0.21403751 186 210 26
0.31540933 -0.23550996 0.21218511 162 194 23
0.37080839 -0.25079226 0.24210401 147 181 7
0.33817336 -0.23660514 0.24366242 148 173 11
0.32778755 -0.23479457 0.22785215 142 168 32
0.39145038 -0.22727545 0.24304092 100 131 11
0.39710531 -0.22714925 0.24451034 106 131 14
0.28761354 -0.24214815 0.19773495 177 184 55
0.37538156 -0.25359005 0.24487266 99 131 0
0.34313896 -0.23903978 0.24724860 117 143 10
0.34280881 -0.23870748 0.24736939 121 147 11
0.36512646 -0.24752600 0.24006361 160 182 9
0.34935153 -0.25157911 0.23500039 125 161 9
0.36532992 -0.24502383 0.24651912 172 219 91
0.36295837 -0.24513857 0.24562883 174 220 96
0.37249038 -0.24646600 0.24935134 166 220 74
0.33681795 -0.24793963 0.23125969 158 187 0
0.39264977 -0.22429262 0.24656649 118 136 50
0.34715864 -0.24956667 0.23798972 121 153 0
0.32040414 -0.24067083 0.22998354 166 202 40
0.31699401 -0.24145545 0.22570209 180 211 29
0.31725183 -0.24078828 0.22500582 143 177 3
0.31703067 -0.23964353 0.22272190 191 212 13
0.31106111 -0.24305281 0.21864316 185 209 35
0.43109316 -0.24556687 0.23119877 116 168 6
0.42819762 -0.24741724 0.23302138 71 121 0
0.28773287 -0.23926252 0.20062444 142 145 2
0.43650755 -0.24869809 0.22983913 73 122 0
0.43368980 -0.24834086 0.23065940 65 108 0
0.37273595 -0.22798778 0.24796154 168 198 24
0.37288502 -0.22861779 0.24825838 147 182 18
0.37710971 -0.22571598 0.24678862 182 213 58
0.37871993 -0.22751646 0.24779367 160 206 58
0.38496998 -0.22784179 0.24819976 151 204 51
0.38178590 -0.23107053 0.24939443 168 216 68
0.38694623 -0.22598583 0.24711968 161 202 35
0.38326052 -0.22653833 0.24492791 157 190 21
0.38570067 -0.22570615 0.24445413 141 165 53
0.38817918 -0.22842677 0.24876279 142 188 63
0.30160573 -0.23688984 0.20948896 229 244 55
0.32688028 -0.23414519 0.22780487 84 116 7
0.42213282 -0.25483572 0.24745101 142 180 58
0.42467210 -0.25534546 0.24023014 87 123 0
0.33483332 -0.24010511 0.23755875 170 201 11
0.41007459 -0.25266570 0.24949954 97 139 29
0.41608119 -0.23898907 0.23502439 112 150 3
0.29894775 -0.24349213 0.20324403 178 195 19
0.29680601 -0.24557209 0.20236915 143 174 8
0.29207546 -0.23635243 0.20640804 168 185 0
0.27463147 -0.24668677 0.17724191 138 154 30
0.27737328 -0.24742387 0.17748202 90 105 10
0.27763152 -0.24505307 0.18315910 149 162 44
0.27924669 -0.24254268 0.18953383 151 161 36
0.32093483 -0.23630275 0.22617239 133 168 4
0.31928688 -0.23735248 0.22370602 117 152 0
0.32122010 -0.23763132 0.22831754 128 160 1
0.33540979 -0.23358442 0.24422655 144 168 0
0.35902357 -0.24950480 0.23918125 100 137 0
0.27544993 -0.25086826 0.20493136 153 174 47
0.27523816 -0.25076312 0.20204537 173 193 62
0.42735198 -0.25385824 0.23778626 92 125 0
0.40944612 -0.25279459 0.24598651 89 129 14
0.42258760 -0.25664923 0.24450563 141 174 31
0.42273399 -0.25489876 0.24045208 100 135 5
0.29613543 -0.23327284 0.21065451 194 211 35
0.28319889 -0.24548033 0.20426728 89 116 13
0.29615861 -0.23311995 0.20926429 234 250 65
0.28228307 -0.24452746 0.18999632 143 154 34
0.30442449 -0.24734354 0.20743936 196 213 81
0.30391100 -0.24779508 0.20718519 193 211 75
0.36879563 -0.24073634 0.24029431 149 178 28
0.28911063 -0.24148692 0.19877017 137 152 11
0.33222440 -0.23623949 0.23799521 176 200 0
0.29423723 -0.23601221 0.20424652 225 230 102
0.29639503 -0.23761438 0.20349048 200 222 26
0.29827327 -0.23668483 0.20429181 189 209 13
0.38870826 -0.24249396 0.25021136 113 167 30
0.38274479 -0.24117407 0.25075409 147 196 71
0.38814369 -0.24032024 0.24932091 142 193 66
0.27581501 -0.24860939 0.20039727 128 143 18
0.36451682 -0.25005335 0.24010475 122 161 6
0.42983064 -0.25383329 0.24005163 101 145 30
0.32456502 -0.23496407 0.23022941 76 115 0
0.28139013 -0.24265163 0.19191742 130 139 10
0.28343770 -0.24205233 0.19483785 123 125 0
0.32650113 -0.23524979 0.23625983 153 186 7
0.44695234 -0.23587428 0.23506263 142 177 77
0.29088765 -0.23730786 0.20174371 134 145 4
0.43653265 -0.24243999 0.24023983 109 165 58
0.43596280 -0.23907590 0.23914650 88 134 46
0.28139025 -0.24559221 0.18622911 128 138 25
0.43608406 -0.23713653 0.23401444 106 142 44
0.45471761 -0.23851560 0.23702623 204 234 146
0.44146940 -0.23688261 0.23679082 103 156 52
0.44292471 -0.23799999 0.23701483 96 148 40
0.42632794 -0.23875871 0.24116468 112 159 19
0.42712694 -0.23884666 0.24116412 122 171 28
0.41422665 -0.23673187 0.24125662 89 132 16
0.41151568 -0.23406471 0.23764862 66 104 3
0.35469204 -0.25078887 0.23665927 108 141 8
0.41093510 -0.23399581 0.23941694 92 136 23
0.34390539 -0.24122514 0.24410255 142 176 4
0.40614784 -0.23344299 0.24169843 89 136 22
0.30454007 -0.23183970 0.21056369 195 219 45
0.33350039 -0.24130036 0.23512718 138 170 7
0.33423141 -0.24138340 0.23604564 146 181 0
0.32350865 -0.23653229 0.23213315 116 157 3
0.32577902 -0.23566619 0.23610833 172 206 8
0.44392291 -0.23616597 0.23539722 113 160 44
0.40598398 -0.23198259 0.24106663 90 135 32
0.40330699 -0.22936699 0.24294837 84 127 45
0.44027734 -0.24083187 0.23868793 141 196 77
0.43839511 -0.23982541 0.23862486 102 151 62
0.42332217 -0.23740628 0.23877361 99 142 35
0.39377478 -0.22639973 0.24900995 46 73 38
0.40667531 -0.23083556 0.23985913 70 113 6
0.33226004 -0.24112970 0.23353037 148 186 13
0.43159395 -0.23741572 0.23564893 60 93 14
0.31239954 -0.23524714 0.21140207 181 208 33
0.31290200 -0.23379828 0.21307741 205 219 44
0.42856520 -0.23802784 0.23894447 81 127 28
0.33558017 -0.25081253 0.22766881 181 216 0
0.35344917 -0.25171924 0.23124515 68 99 0
0.33138350 -0.23342633 0.23902062 170 193 0
0.29865280 -0.23525415 0.20528975 193 209 15
0.40478197 -0.24689035 0.24275976 100 145 2
0.40131453 -0.24666777 0.24308504 104 145 7
0.39716151 -0.24669629 0.24353619 108 145 16
0.40244657 -0.24424063 0.24230568 112 149 9
0.40457544 -0.24327567 0.24130274 95 137 1
0.30112174 -0.24866587 0.20430760 187 210 80
0.30187634 -0.24922711 0.20494339 183 205 70
0.30821997 -0.23931699 0.21337727 235 251 64
0.41205725 -0.24753702 0.24061228 143 184 18
0.33197129 -0.23740838 0.23500820 175 202 0
0.33835161 -0.23874156 0.24144644 136 167 3
0.41211236 -0.24896945 0.24108538 91 134 3
0.41297138 -0.24197873 0.23728034 72 112 0
0.41350332 -0.23957594 0.23598999 86 122 0
0.40762332 -0.24243012 0.23970819 107 151 6
0.40685242 -0.24321923 0.24036144 81 122 2
0.40622190 -0.23750196 0.23860697 87 125 0
0.40165338 -0.23834996 0.24095964 116 151 5
0.41325113 -0.23866674 0.23575176 98 134 2
0.46118289 -0.24220990 0.23611835 189 216 147
0.45114991 -0.23778608 0.23053037 114 145 8
0.45173579 -0.23853773 0.22938128 126 153 24
0.45535228 -0.23924989 0.22966959 111 139 20
0.39954844 -0.25310242 0.25331154 106 145 28
0.46094945 -0.24203132 0.22440398 77 107 17
0.45859271 -0.23888521 0.23218870 96 123 26
0.43704727 -0.23995264 0.22876333 124 165 7
0.44087794 -0.24038476 0.22767738 118 157 4
0.33780283 -0.25742066 0.22485363 148 187 6
0.32894602 -0.25599575 0.22112393 170 200 40
0.32906592 -0.25455263 0.22163185 179 210 46
0.33669108 -0.25542271 0.22592881 155 191 3
0.44719884 -0.23644865 0.23272553 93 122 14
0.29440394 -0.24489124 0.20071287 194 217 41
0.29299855 -0.24101253 0.20084743 131 147 15
0.33015311 -0.23444507 0.23376523 184 212 6
0.33934093 -0.23712410 0.24445650 134 160 11
0.30969107 -0.25119951 0.21017182 162 189 50
0.31199902 -0.25265118 0.21150473 168 194 69
0.35009006 -0.24490598 0.24032827 144 180 0
0.44073838 -0.23792429 0.22995199 92 129 0
0.33287418 -0.23422839 0.24965470 183 213 57
0.33217701 -0.23364599 0.24630162 210 236 49
0.31167698 -0.24135992 0.21142349 189 211 50
0.44583735 -0.23803855 0.22913006 92 127 7
0.44577947 -0.23652636 0.23214796 107 142 16
0.33721706 -0.24483512 0.23639278 101 141 0
0.45334247 -0.23719482 0.23695819 157 179 104
0.28033435 -0.24518111 0.20398590 84 112 2
0.39811960 -0.22757016 0.24379107 104 132 13
0.39857379 -0.22845972 0.24194908 92 129 0
0.39917541 -0.23375924 0.24040020 95 136 0
0.39983267 -0.23425992 0.24019288 96 137 0
0.39799619 -0.23229107 0.24093325 135 172 17
0.39066380 -0.22909297 0.24249886 127 160 21
0.38378206 -0.23054640 0.24244319 115 161 0
0.38361701 -0.23302516 0.24194354 120 168 6
0.35396263 -0.24724430 0.23997876 150 183 0
0.35721165 -0.24305275 0.24195725 159 195 0
0.36018616 -0.24158546 0.24291839 155 198 0
0.38774541 -0.25209868 0.25718254 157 222 56
0.38773614 -0.25125763 0.25647792 147 207 57
0.38173413 -0.22725372 0.24341474 111 148 0
0.37545282 -0.23049282 0.24401656 122 157 0
0.38313174 -0.23045602 0.24252903 124 167 0
0.38141498 -0.24881914 0.25255972 172 225 73
0.37701419 -0.24926148 0.25113186 162 216 66
0.37846801 -0.24970698 0.25189504 172 228 75
0.37872633 -0.22718523 0.24419330 123 163 0
0.37951919 -0.22780198 0.24379936 159 200 8
0.37388176 -0.24839063 0.24996062 158 211 69
0.38040787 -0.24549642 0.25119987 162 215 75
0.37419289 -0.24578105 0.24976626 162 217 72
0.37859911 -0.24859963 0.25148413 161 216 73
0.37995765 -0.24789774 0.25175092 167 219 82
0.37114739 -0.22886038 0.24611442 152 188 2
0.37223804 -0.23063296 0.24477625 150 184 1
0.36251664 -0.24263352 0.24108568 159 192 27
0.36771557 -0.23471767 0.24560742 165 204 17
0.36886802 -0.23400968 0.24514398 171 208 14
0.46021190 -0.23857760 0.23382433 96 124 14
0.35779026 -0.24463430 0.24044725 171 208 6
0.35661012 -0.24579014 0.24015264 163 199 3
0.37194222 -0.23582411 0.24209411 159 195 43
0.37191427 -0.23695138 0.24138221 158 192 33
0.37127215 -0.23302756 0.24390937 148 190 2
0.40784791 -0.25010115 0.25840998 183 216 77
0.40376475 -0.25033677 0.25917748 46 154 141
0.40277559 -0.25182101 0.25770104 83 124 54
0.39017281 -0.25408262 0.25845766 172 207 79
0.39529046 -0.25141728 0.25979024 192 239 75
0.39287058 -0.25435153 0.25845096 100 129 21
0.40484285 -0.25351587 0.25374985 152 193 39
0.41794074 -0.25347781 0.25093082 117 145 22
0.42040402 -0.25530177 0.24541034 139 172 29
0.33804208 -0.25414726 0.22785148 156 189 12
0.32437316 -0.25129253 0.21832295 202 227 12
0.44944069 -0.23847653 0.23687814 128 187 71
0.44920439 -0.23782080 0.23660934 110 167 54
0.32747924 -0.25337857 0.22055067 196 224 26
0.33921388 -0.23699175 0.25055525 180 206 9
0.33363593 -0.23392640 0.24948129 235 255 87
0.34314916 -0.24098693 0.24370138 136 168 5
0.32680809 -0.23757105 0.23938027 174 206 43
0.32602310 -0.23845255 0.23844054 229 254 75
0.42881170 -0.25036556 0.23344170 90 141 4
0.42995408 -0.25081956 0.23368256 83 132 4
0.46344563 -0.24270266 0.22653410 80 117 3
0.34841672 -0.25278762 0.22859107 73 109 0
0.34568667 -0.24037297 0.24613646 131 160 10
0.32012257 -0.23652515 0.22458991 146 178 5
0.32211924 -0.23570490 0.22709927 126 162 2
0.31095827 -0.23875555 0.21123028 145 181 23
0.46122310 -0.23975244 0.23161237 102 132 18
0.30440947 -0.23558067 0.20715761 193 212 24
0.32937008 -0.23722617 0.24269147 178 213 57
0.47003379 -0.24310450 0.22823989 100 137 24
0.47116002 -0.24329156 0.22885947 84 121 5
0.30283347 -0.24512534 0.21066804 203 231 68
0.30151120 -0.24286038 0.20927148 208 236 73
0.33401397 -0.23796776 0.24979064 198 233 87
0.32663277 -0.24092971 0.22259548 134 173 0
0.35450944 -0.25130948 0.23280241 84 116 9
0.29949972 -0.23965752 0.20374635 203 222 19
0.42825055 -0.24184285 0.23228775 69 123 0
0.42794955 -0.23849559 0.23233308 80 120 8
0.33155358 -0.23384036 0.23739071 177 201 1
0.32520694 -0.24476548 0.21911065 191 217 8
0.42573908 -0.24698356 0.23397377 83 130 0
0.42545837 -0.24776390 0.23419197 85 132 2
0.42668667 -0.24454603 0.23326583 98 146 2
0.38114339 -0.25658265 0.24939211 140 177 48
0.46434641 -0.24236593 0.22718258 90 125 5
0.46539477 -0.24123962 0.23012744 97 135 13
0.29467532 -0.24649255 0.19950821 151 181 7
0.47452226 -0.24542516 0.22483312 97 135 14
0.46239460 -0.24278826 0.22328031 79 111 26
0.46595332 -0.24245672 0.23331545 110 145 51
0.47210988 -0.24407098 0.22962558 106 137 44
0.33674559 -0.24684481 0.23294576 167 201 1
0.35827473 -0.24008977 0.24707763 162 195 4
0.30085361 -0.23309889 0.20732591 228 233 71
0.32189414 -0.23564443 0.21995105 122 161 8
0.46878073 -0.24506073 0.23252249 124 162 85
0.31615141 -0.25272596 0.21373409 173 199 63
0.31844181 -0.25308591 0.21503730 176 200 52
0.37648514 -0.25632399 0.24909626 108 153 26
0.31155285 -0.23994660 0.21645582 218 237 70
0.31126115 -0.24190673 0.21738309 180 209 31
0.31135935 -0.24092540 0.21687983 167 193 24
0.30953869 -0.23225968 0.21400839 183 211 15
0.39673623 -0.24928334 0.25920415 142 203 38
0.32104817 -0.23621745 0.21579851 158 196 0
0.32376367 -0.23677516 0.21853296 138 180 0
0.28759268 -0.24795166 0.18933424 119 142 36
0.31517446 -0.23457794 0.21519609 160 189 11
0.31810263 -0.23489618 0.21381395 143 181 20
0.29242894 -0.24617955 0.19741285 152 179 14
0.28650469 -0.24564104 0.19210702 115 137 28
0.42573285 -0.25111714 0.23544641 133 181 0
0.42465642 -0.25371015 0.23787166 90 130 0
0.41814694 -0.25114435 0.23940359 104 148 11
0.33505473 -0.24913055 0.22761245 182 212 4
0.37523428 -0.23913462 0.24072036 160 192 31
0.37882611 -0.23714191 0.24106120 131 162 35
0.29856187 -0.24066202 0.20806928 219 236 59
0.29694656 -0.23926598 0.20763069 184 195 17
0.29770792 -0.24592809 0.20283379 126 152 0
0.30256486 -0.23910169 0.20997205 229 245 60
0.31451929 -0.23680937 0.21753775 179 208 32
0.30866516 -0.23724033 0.21287492 219 241 45
0.30180767 -0.23901948 0.20963879 225 237 53
0.40385449 -0.24625225 0.25560439 97 149 4
0.39578184 -0.24633500 0.25423688 107 163 10
0.39739573 -0.24521512 0.25285000 120 175 12
0.39699319 -0.24571800 0.25353232 105 158 8
0.31928989 -0.23667566 0.21963654 125 155 0
0.32222006 -0.23481263 0.21760464 161 192 2
0.31593162 -0.25202641 0.21354812 170 197 54
0.32889986 -0.24582916 0.22304928 191 222 4
0.30869043 -0.23348428 0.21346115 181 207 20
0.30625659 -0.23453285 0.21229823 208 225 35
0.42336518 -0.24885009 0.23540941 117 163 3
0.41739389 -0.24723329 0.23777533 73 117 0
0.43545255 -0.24461180 0.22882193 112 159 5
0.43553296 -0.24205734 0.22888742 100 147 5
0.32557824 -0.23417085 0.22225495 187 215 70
0.40611121 -0.23061979 0.23785901 92 128 6
0.32735646 -0.23973630 0.22430341 128 170 0
0.40083060 -0.22752528 0.24459203 93 135 51
0.41575158 -0.25286937 0.24475412 91 131 17
0.41531876 -0.25255224 0.24433877 84 126 16
0.29589501 -0.24265204 0.20180769 191 211 34
0.29697123 -0.24057072 0.20265079 199 218 40
0.42149553 -0.25358298 0.23955581 91 133 0
0.41847494 -0.25162107 0.23970753 83 129 0
0.32494813 -0.23842752 0.22002989 129 172 0
0.33298823 -0.25086030 0.22520393 173 200 1
0.36943451 -0.23638189 0.24247032 128 162 16
0.33564201 -0.23648112 0.24090362 163 192 3
0.27690333 -0.25145447 0.21163277 105 133 0
0.27589205 -0.25086734 0.20899335 128 151 19
0.28041846 -0.25453284 0.20914917 89 119 0
0.27911085 -0.25387883 0.20455554 103 125 0
0.33569601 -0.24505468 0.23508358 90 130 0
0.34379280 -0.25401223 0.22838527 107 142 0
0.30274829 -0.23616254 0.20599276 200 222 25
0.33109355 -0.25011221 0.22374667 191 218 1
0.32778814 -0.24812692 0.22066641 198 224 5
0.36396235 -0.24194139 0.24090376 167 200 33
0.33079445 -0.23950000 0.23148493 172 209 7
0.42475411 -0.23707524 0.23693189 56 96 0
0.43448642 -0.23854089 0.23095781 104 139 0
0.41637856 -0.23784398 0.23568511 98 135 6
0.42115772 -0.23764315 0.23458251 71 107 7
0.41212419 -0.23500046 0.23668201 93 130 16
0.43300253 -0.23842998 0.23169048 118 154 2
0.43048227 -0.23741253 0.23546709 55 88 7
0.34439000 -0.23693769 0.25362790 118 145 2
0.39295131 -0.25526929 0.25465101 113 154 24
0.32947227 -0.25192448 0.22183116 165 195 0
0.33026674 -0.25243044 0.22240888 170 200 0
0.33210972 -0.24506944 0.22826514 186 222 12
0.35372066 -0.24172455 0.24454898 165 200 12
0.35726392 -0.24047878 0.24648881 160 191 0
0.34122425 -0.24918355 0.23395486 119 153 0
0.30710861 -0.24118301 0.20833410 155 186 33
0.30343610 -0.24025765 0.20554648 180 204 30
0.36138570 -0.24541032 0.23951088 166 196 20
0.41142648 -0.23774588 0.23628731 109 146 4
0.40988180 -0.23660612 0.23657089 103 140 1
0.31744653 -0.24868132 0.21397105 193 215 29
0.32952660 -0.24090108 0.22795056 125 173 3
0.39548951 -0.23721410 0.24836005 149 199 52
0.39114943 -0.23850915 0.24864487 148 196 58
0.38448685 -0.23814152 0.24939322 161 213 53
0.38473436 -0.23701204 0.24951640 157 211 53
0.39591169 -0.23901127 0.24807836 127 177 52
0.34482116 -0.25257510 0.23115875 102 134 0
0.39405939 -0.22815207 0.24247338 103 141 6
0.32069516 -0.24076003 0.21686491 177 198 31
0.36681581 -0.24476407 0.23990223 136 167 14
0.36692572 -0.24490990 0.23992023 142 172 22
0.39824629 -0.24746746 0.25655827 104 160 11
0.39931655 -0.24917492 0.25987858 160 220 37
0.35173726 -0.24288642 0.24269730 115 154 3
0.34990585 -0.23952667 0.24615683 187 213 2
0.33647966 -0.22221534 0.16804090 116 166 53
0.34297237 -0.21704954 0.16443576 197 202 196
0.31826711 -0.23129545 0.16029561 44 86 0
0.31870025 -0.22995719 0.16098295 39 82 0
0.32693520 -0.22752945 0.16296597 61 101 2
0.33173171 -0.23082615 0.16070984 185 190 193
0.33450580 -0.23066516 0.16179438 183 209 146
0.33864015 -0.22986764 0.16439758 174 211 115
0.32289192 -0.23070537 0.16122086 84 121 44
0.32737553 -0.22807939 0.16284706 78 113 31
0.32832557 -0.23086683 0.16173393 201 202 204
0.32888854 -0.23192079 0.16040012 194 198 201
0.33967417 -0.22914948 0.16596550 135 176 84
0.33027706 -0.23004353 0.16182974 197 201 204
0.33169815 -0.22679029 0.16361350 132 164 57
0.31883582 -0.23467854 0.15993084 79 118 27
0.31185228 -0.23671368 0.15642662 87 127 38
0.35058445 -0.22110021 0.16414800 171 212 74
0.35031638 -0.22202668 0.16470303 158 199 69
0.31855902 -0.22893532 0.16120178 41 86 3
0.36491638 -0.21691838 0.16261670 119 153 67
0.35438827 -0.22180615 0.16529453 139 180 60
0.36564958 -0.21630189 0.16400369 109 140 81
0.35862571 -0.21461478 0.16365141 201 216 177
0.35428983 -0.21762201 0.16191944 152 200 64
0.35601795 -0.21465415 0.16146302 154 153 158
0.34473693 -0.21936014 0.16544944 198 209 193
0.35046500 -0.21657169 0.16362993 164 169 163
0.34146994 -0.22135329 0.16622002 106 145 0
0.36047676 -0.21936874 0.16561592 96 136 50
0.33968079 -0.22241174 0.16618834 98 143 14
0.34481993 -0.21632855 0.16433941 216 216 218
0.34300473 -0.22160514 0.16574529 206 218 198
0.34781224 -0.22419040 0.16547418 149 187 76
0.35812595 -0.21854901 0.16376489 150 191 51
0.33973047 -0.22540054 0.16228592 167 166 182
0.33922768 -0.22549134 0.16268705 182 182 194
0.33949184 -0.22289592 0.16550025 95 137 11
0.31984746 -0.22957791 0.16107629 47 85 0
0.34181315 -0.22548619 0.16386557 186 217 113
0.34084371 -0.22063205 0.16726393 118 167 49
0.36238319 -0.21474417 0.16515476 83 121 48
0.33210829 -0.22494113 0.16496716 94 141 0
0.34689125 -0.22249995 0.16885687 123 170 58
0.36073595 -0.21717006 0.16951874 56 84 23
0.35933104 -0.21745737 0.16949046 77 108 48
0.35437250 -0.21855649 0.16841277 114 152 65
0.35225543 -0.21557865 0.16556738 100 144 57
0.36529088 -0.21544617 0.16979751 57 88 20
0.34795091 -0.22093444 0.16858333 117 158 54
0.35144138 -0.21725005 0.16644436 98 145 41
0.32045510 -0.23691604 0.15991046 93 122 29
0.32116407 -0.23699813 0.15754452 184 195 181
0.35052258 -0.22302154 0.16952890 107 142 26
0.32910588 -0.22655657 0.16387068 101 149 49
0.34701985 -0.22379072 0.16942279 114 160 36
0.36444959 -0.21494608 0.16516121 76 113 44
0.33406538 -0.22624736 0.16547604 134 187 81
0.33762988 -0.22271730 0.16756548 120 168 59
0.35349068 -0.22236504 0.16702479 128 168 53
0.35694227 -0.22204813 0.17008638 141 183 45
0.36162719 -0.21859196 0.16631033 97 138 68
0.34688675 -0.22227775 0.16874185 110 153 45
0.36134544 -0.21867882 0.16742404 93 135 63
0.36405501 -0.21708789 0.16570336 142 184 98
0.33625069 -0.22741647 0.16580282 128 175 71
0.32669079 -0.23464628 0.15982126 170 186 150
0.36291328 -0.21736373 0.16806981 101 133 86
0.35840899 -0.21869387 0.17052136 106 137 59
0.32255891 -0.23242098 0.16173972 92 134 36
0.35518038 -0.22069333 0.17071435 143 180 74
0.35548544 -0.22176526 0.16694605 122 166 43
0.32324353 -0.23569033 0.16196127 97 135 34
0.32551473 -0.22916517 0.16247389 70 112 12
0.32842049 -0.22982424 0.16342799 84 132 32
0.32305101 -0.23579514 0.16072133 169 196 155
0.33680430 -0.23047549 0.16704978 131 182 51
0.33348563 -0.23214029 0.16581094 98 136 35
0.33076099 -0.23143606 0.16640159 102 147 42
0.33479467 -0.22956976 0.16584510 123 176 58
0.33493680 -0.22903167 0.16573186 127 180 64
0.28669792 -0.25701040 0.22762516 102 132 0
0.28383356 -0.25454167 0.23130064 126 153 0
0.28205186 -0.25325432 0.23102005 142 169 2
0.28204221 -0.25468090 0.23691566 143 172 2
0.28860551 -0.25666127 0.22421215 115 142 1
0.28264609 -0.25498590 0.20841324 77 106 0
0.28491431 -0.25474298 0.21365932 89 128 3
0.28928235 -0.25474378 0.22065459 137 158 5
0.27748835 -0.25186232 0.21734020 100 131 1
0.27897152 -0.25318703 0.21308260 109 140 2
0.28014895 -0.25462890 0.22264646 102 133 3
0.28710327 -0.25260511 0.21295352 134 160 9
0.28632376 -0.25483611 0.21911876 122 155 2
0.28394195 -0.25568581 0.21701758 68 103 0
0.28147343 -0.25547826 0.23207089 77 111 1
0.28161591 -0.25532046 0.23585333 82 116 0
0.28469041 -0.25739598 0.23594840 132 164 3
0.28160292 -0.25548556 0.21384920 90 121 1
0.28157645 -0.25523522 0.22291438 86 120 0
0.28005549 -0.25495026 0.24245861 95 127 2
0.28350493 -0.25698581 0.23932679 128 160 0
0.27739891 -0.25032780 0.23553282 65 95 0
0.27977958 -0.25354442 0.23376136 88 119 2
0.28559008 -0.25836888 0.23248039 98 130 7
0.28337085 -0.25673592 0.23768689 74 110 0
0.27809167 -0.25228474 0.23969330 74 102 2
0.27842477 -0.25249532 0.23877867 74 102 0
0.28248641 -0.25579163 0.23073478 74 108 0
0.28162140 -0.25555095 0.23069860 78 114 4
0.28898853 -0.25744006 0.22411275 117 144 5
0.28613770 -0.25720593 0.22677696 100 129 1
0.27741334 -0.25018793 0.22664133 83 114 0
0.27746889 -0.24923715 0.23053068 101 128 13
0.27850565 -0.25241295 0.22483091 88 121 6
0.27914459 -0.25346529 0.22347899 92 122 0
0.27602041 -0.24175985 0.25117943 159 189 7
0.27938870 -0.24546896 0.23440562 158 183 3
0.27857119 -0.24863990 0.23678812 135 167 0
0.27625132 -0.23936082 0.25296995 148 179 15
0.27001852 -0.25767514 0.26815248 89 124 0
0.28587061 -0.25174659 0.20681624 77 108 5
0.28006139 -0.24449313 0.23221362 174 195 4
0.28161430 -0.24689676 0.22771363 166 189 0
0.28014106 -0.24510300 0.23209746 170 193 0
0.27581179 -0.24355900 0.24460223 112 135 21
0.27815193 -0.24178180 0.23774628 106 132 7
0.27635711 -0.24518816 0.23853968 82 108 17
0.28815264 -0.24753508 0.21642371 80 121 3
0.28285632 -0.24429075 0.21127893 103 132 6
0.28171507 -0.24519050 0.20649643 110 138 17
0.28297076 -0.24306874 0.21647327 109 142 0
0.28874156 -0.24732201 0.22311348 121 166 5
0.28619152 -0.24139680 0.22524393 73 109 0
0.28627172 -0.24123895 0.22574770 79 114 0
0.28880242 -0.25127944 0.21421842 121 147 20
0.28888017 -0.24518175 0.22679119 128 173 20
0.27005574 -0.25537977 0.27478456 144 181 16
0.27097598 -0.25551534 0.27246344 144 184 10
0.27769223 -0.24369192 0.24098086 151 176 0
0.27854115 -0.24225843 0.24049413 150 174 0
0.27152309 -0.24734500 0.27271467 119 148 0
0.27352676 -0.25007352 0.26441631 123 157 1
0.27381977 -0.24991654 0.26258174 127 159 0
0.27283740 -0.26032457 0.26124477 112 143 3
0.27112019 -0.25876629 0.26563931 99 137 0
0.28912178 -0.25220889 0.22155318 131 167 15
0.28857374 -0.24625519 0.22292006 122 161 6
0.27791631 -0.24487710 0.22679909 107 132 14
0.27800110 -0.24440745 0.23219107 101 127 17
0.27805293 -0.24437761 0.23069087 102 129 14
0.27389973 -0.25425711 0.26292521 144 181 15
0.27393088 -0.25624868 0.26266068 145 184 13
0.27566126 -0.24524911 0.25103644 148 177 0
0.27346721 -0.24383509 0.25836894 133 164 0
0.28310230 -0.24403924 0.23150556 149 180 0
0.27106631 -0.24301286 0.26511598 83 106 2
0.27190709 -0.24326840 0.26267514 120 152 0
0.28584155 -0.24281114 0.23155218 132 174 2
0.28261977 -0.23966910 0.24077019 150 179 0
0.27341488 -0.25070959 0.26571214 130 163 12
0.27156180 -0.25289237 0.27357122 133 168 16
0.27124146 -0.24984436 0.27431187 120 154 0
0.28346306 -0.24584964 0.22747044 165 188 0
0.27210471 -0.24109532 0.25946987 90 112 4
0.28145123 -0.24056426 0.23923951 142 179 1
0.26915497 -0.26115260 0.27033663 165 207 83
0.27147105 -0.25967309 0.26644939 158 196 59
0.27636391 -0.25423121 0.25653708 154 192 17
0.27570948 -0.25721326 0.25876415 161 202 38
0.27482513 -0.25068733 0.25711662 130 167 2
0.27452725 -0.24778137 0.25545913 130 162 0
0.27417514 -0.24676715 0.25651979 125 157 0
0.28523150 -0.25100064 0.22483835 134 173 6
0.28317052 -0.24894689 0.22592787 151 189 5
0.28261581 -0.25309989 0.22973740 140 170 0
0.28345403 -0.25314379 0.22828539 142 172 0
0.28386432 -0.24112932 0.22371162 118 154 2
0.28436267 -0.24044444 0.22766061 133 171 6
0.27791804 -0.26163319 0.25759143 164 208 59
0.27336237 -0.25854996 0.26362294 159 197 36
0.27695552 -0.26105884 0.25851023 167 207 58
0.27503389 -0.26204836 0.26175210 182 219 61
0.27174431 -0.26090571 0.26553291 171 212 72
0.28154171 -0.25654855 0.24443518 139 172 0
0.28166968 -0.25653866 0.24409828 139 172 0
0.27932769 -0.25962192 0.25422207 164 206 46
0.28059608 -0.25995013 0.25277138 156 198 26
0.26690176 -0.25839353 0.27233389 101 138 0
0.27832413 -0.24497613 0.21661974 131 150 32
0.27976310 -0.24406807 0.21684802 106 126 11
0.28026217 -0.25972244 0.25177911 153 190 24
0.28074458 -0.25418723 0.23996218 140 173 0
0.28020313 -0.25355032 0.23944879 147 185 2
0.27651218 -0.24767278 0.24385010 137 164 0
0.28436860 -0.24053045 0.23731282 145 178 3
0.28337476 -0.24085447 0.23697521 143 175 6
0.28164774 -0.25649247 0.24185009 94 128 7
0.27849239 -0.25392440 0.24623406 138 179 1
0.27842873 -0.25287741 0.24430725 140 184 0
0.27617010 -0.24451029 0.24839509 159 182 4
0.27632666 -0.24427794 0.24632120 163 183 8
0.27595842 -0.25254920 0.25544229 134 169 4
0.27584484 -0.25290188 0.25662464 135 171 3
0.27963853 -0.25465286 0.24488418 141 176 0
0.27922624 -0.25561130 0.24819097 155 191 7
0.28098205 -0.25773385 0.24574551 101 133 0
0.27680561 -0.24906074 0.21720959 122 147 30
0.27761215 -0.24635571 0.21811196 115 140 20
0.27708939 -0.24769780 0.22051491 102 131 3
0.27533069 -0.23950677 0.25398690 152 183 20
0.27452061 -0.24262542 0.25080842 90 112 11
0.27529591 -0.24056172 0.25014216 112 140 3
0.27949381 -0.24232411 0.22687681 93 117 5
0.27872604 -0.24384984 0.22132897 107 127 14
0.28987294 -0.25012738 0.21787794 140 180 22
0.28833294 -0.24866842 0.22039823 124 165 9
0.27698869 -0.24314010 0.24510193 148 172 0
0.28538075 -0.24233352 0.22208779 89 126 0
0.27743223 -0.23996072 0.25043669 148 181 6
0.28275156 -0.24050963 0.23114799 118 150 4
0.28178617 -0.24060126 0.23306607 104 135 0
0.27963161 -0.24523103 0.20730945 77 102 1
0.27845511 -0.24593888 0.20734617 116 136 13
0.28524837 -0.25302351 0.20882417 106 141 0
0.28717133 -0.24706507 0.21140490 74 111 6
0.28738829 -0.24630260 0.21551083 80 119 4
0.27270082 -0.25699580 0.26519752 147 183 11
0.27222621 -0.25319713 0.27078626 133 172 21
0.27787754 -0.23883733 0.24505369 95 120 3
0.27854225 -0.23889694 0.24450359 92 120 0
0.27888170 -0.24031015 0.23737882 129 155 19
0.27793708 -0.23866667 0.24741460 91 118 0
0.26758051 -0.25920349 0.26991630 123 156 3
0.27706334 -0.24769971 0.21302527 119 144 26
0.27689546 -0.24693933 0.20767044 125 143 25
0.28609559 -0.24989437 0.20693052 65 101 13
0.27959698 -0.25143284 0.23511650 143 185 0
0.27739075 -0.24817523 0.24051705 136 164 1
0.27792481 -0.24025722 0.24056961 136 161 18
0.27657512 -0.23884204 0.24789658 106 137 0
0.29480007 -0.24456957 0.14110038 200 201 195
0.29839912 -0.24206400 0.14401068 209 212 205
0.30076954 -0.24448808 0.15136713 76 113 36
0.30635715 -0.24028641 0.15046406 156 178 139
0.31693155 -0.23889431 0.15605333 193 206 188
0.25651786 -0.25791010 0.09666859 93 110 32
0.28011632 -0.25110456 0.13114460 54 84 14
0.27634588 -0.25229195 0.12647845 45 63 25
0.27469510 -0.25254691 0.12639682 80 100 47
0.27216068 -0.25224090 0.11729284 152 145 135
0.27502242 -0.25201917 0.12060378 176 176 186
0.28603345 -0.25117442 0.13560936 125 137 99
0.28477052 -0.24998160 0.13544068 49 82 3
0.27950972 -0.25014624 0.12782902 219 221 210
0.27569222 -0.25095928 0.12215759 211 217 217
0.30548397 -0.23440291 0.15414262 55 100 0
0.30543137 -0.23583317 0.15013152 207 217 190
0.30563530 -0.23784941 0.15008967 181 197 152
0.28298256 -0.25170299 0.13062918 244 234 232
0.28636488 -0.25136530 0.13533288 219 219 207
0.28797522 -0.24833785 0.13576111 162 161 157
0.31038448 -0.23887148 0.15328169 117 143 95
0.26495388 -0.25744668 0.10759048 116 133 65
0.26125911 -0.25799033 0.10811509 107 127 28
0.25805852 -0.25814575 0.10408555 106 128 17
0.29371959 -0.24630755 0.14063843 216 213 222
0.29502180 -0.24566980 0.14124233 213 212 220
0.25970456 -0.25808129 0.10024032 102 121 13
0.25032359 -0.25758684 0.09658218 111 132 67
0.30341932 -0.24371704 0.14734961 161 187 152
0.29245341 -0.24873181 0.13962214 140 154 163
0.28849047 -0.25090790 0.13678177 198 200 179
0.29286891 -0.24611720 0.14017616 209 202 209
0.25947881 -0.25823936 0.10562281 94 115 12
0.25224400 -0.25810298 0.09502774 107 129 56
0.27416754 -0.24852842 0.12361672 142 155 109
0.25023800 -0.25840133 0.10074449 132 156 60
0.29749352 -0.24854220 0.14398621 164 185 168
0.31165373 -0.23476735 0.15489946 83 127 3
0.27757788 -0.24749017 0.12771440 112 130 70
0.31188506 -0.23561706 0.15492480 79 125 1
0.27207318 -0.25388402 0.12657481 124 132 81
0.31512716 -0.23827773 0.15729710 83 121 20
0.26882398 -0.25601712 0.11788492 90 106 61
0.29651168 -0.24924169 0.14234661 159 174 155
0.28767657 -0.25087243 0.13677149 159 166 132
0.31017110 -0.23366255 0.15670927 65 109 11
0.30948019 -0.23661992 0.15557419 85 125 39
0.31106663 -0.24094956 0.15440401 57 92 10
0.26821628 -0.25556895 0.11071502 107 123 76
0.30729508 -0.23729309 0.15426223 82 122 36
0.30382350 -0.24146844 0.14798969 165 189 139
0.27505031 -0.25337911 0.12292887 69 84 41
0.30831063 -0.23995671 0.15154965 163 183 155
0.26587498 -0.25703701 0.10545608 98 115 63
0.26766530 -0.25617731 0.11027727 106 122 73
0.31061473 -0.24206170 0.15351295 170 187 153
0.31904781 -0.23425117 0.15880512 90 131 3
0.32032406 -0.23613295 0.15772995 186 204 166
0.27226833 -0.25363842 0.11535551 127 128 96
0.26956168 -0.25416267 0.11154107 103 115 79
0.30051860 -0.24507755 0.15046480 64 90 25
0.30524552 -0.24390158 0.15051360 112 143 86
0.30203277 -0.24397461 0.14511807 228 232 231
0.27171481 -0.24910364 0.12174529 184 197 151
0.27491879 -0.25370848 0.12156652 140 144 129
0.27945274 -0.25186640 0.12530625 214 205 200
0.32450065 -0.23313771 0.16045141 194 206 196
0.30704948 -0.23409899 0.15190379 111 146 52
0.31059512 -0.23178677 0.15737823 61 103 1
0.31764004 -0.23088357 0.15992932 57 97 1
0.45785400 -0.24842972 0.22420569 88 127 20
0.45049262 -0.24403617 0.22408685 101 135 14
0.45039850 -0.24141814 0.22583461 86 122 0
0.45134082 -0.24285945 0.22483109 87 121 1
0.44891232 -0.23925489 0.22777927 94 133 6
0.44815096 -0.23986559 0.22714330 79 112 0
0.47665414 -0.24612638 0.22368865 100 138 19
0.47480389 -0.24577877 0.22183317 61 97 23
0.46044877 -0.24835443 0.22985885 123 159 85
0.45683515 -0.24400704 0.22159603 81 108 53
0.45279154 -0.24503464 0.22253673 82 108 34
0.46881902 -0.25007099 0.22430819 88 124 50
0.47311720 -0.24707526 0.21794431 48 78 14
0.46798769 -0.24528955 0.22055760 60 89 25
0.45512879 -0.24958734 0.22785352 91 126 32
0.41056481 -0.25099331 0.25668332 142 181 52
0.47131526 -0.24912696 0.21905199 85 118 27
0.47687298 -0.24776319 0.21704261 54 85 28
0.46898916 -0.24509694 0.22309192 68 101 12
0.46595410 -0.24744828 0.21950378 47 76 9
0.47794881 -0.25011998 0.21981719 92 128 66
0.48179159 -0.25149691 0.21888372 76 111 47
0.47022304 -0.25018209 0.22791323 141 173 74
0.41089404 -0.24958956 0.25554281 83 132 6
0.40676761 -0.24815652 0.25644726 96 147 6
0.47310987 -0.24914245 0.22821315 141 169 110
0.42953360 -0.24042256 0.24161769 101 151 40
0.45886263 -0.24333420 0.22136584 90 123 52
0.45597264 -0.24971060 0.22733824 90 128 25
0.45260888 -0.24889882 0.22589578 70 107 12
0.45215046 -0.24795517 0.22483858 63 101 2
0.47097245 -0.24938229 0.22942650 146 173 80
0.43353650 -0.24975350 0.23908095 104 148 63
0.43350852 -0.25178659 0.23791213 88 126 67
0.41537738 -0.25116807 0.25240627 91 140 14
0.44342083 -0.24075101 0.22679169 104 138 0
0.44679907 -0.24518389 0.22429642 93 133 0
0.44016662 -0.24645130 0.22711709 98 138 5
0.46896723 -0.24646291 0.21937473 54 84 24
0.44631523 -0.24789098 0.23386575 111 151 80
0.44565418 -0.24776530 0.23424175 114 154 81
0.44193971 -0.24527608 0.23771434 123 168 85
0.47870705 -0.24751084 0.22416055 123 153 63
0.42000848 -0.25052363 0.24817251 92 142 27
0.46507591 -0.24871279 0.22980073 125 160 68
0.46703601 -0.24967450 0.22275893 81 118 25
