0.11874154 0.08723277 0.25093845 192 207 4
0.11893727 0.08887169 0.24937497 191 209 3
0.13108501 0.05881282 0.24172363 136 162 1
0.14026314 0.05905593 0.24377993 210 213 0
0.13551255 0.05456004 0.23944439 146 162 14
0.13079612 0.05882778 0.24167582 138 162 2
0.05564892 0.12992474 0.21868080 46 78 5
0.05641747 0.13048831 0.21923175 33 62 0
0.05987760 0.12673761 0.22187407 27 57 0
0.04852583 0.13482085 0.21174064 25 53 5
0.04942587 0.13688615 0.21272744 62 91 11
0.06315504 0.12398870 0.22569725 37 69 0
0.05692054 0.12278812 0.22877549 72 98 53
0.05807023 0.12443788 0.22557956 44 74 14
0.05446950 0.12677056 0.22178923 47 75 16
0.05007159 0.12906329 0.22272439 74 99 42
0.05036861 0.12958595 0.22100048 74 101 48
0.05318824 0.12659155 0.22379033 77 104 49
0.07588092 0.10596713 0.26116091 67 91 15
0.07625860 0.10927709 0.26062435 55 86 10
0.07727777 0.10604529 0.26247627 113 148 30
0.07718647 0.10083967 0.26380107 63 87 29
0.11756991 0.08968072 0.25557268 138 163 0
0.11830293 0.08848277 0.25301051 214 225 1
0.16930473 0.06329700 0.23146662 110 137 8
0.12800683 0.08472712 0.24347551 176 197 14
0.11174098 0.08821496 0.26332498 137 160 0
0.11185329 0.08596531 0.26413143 105 130 0
0.11006255 0.08978699 0.26429376 155 182 25
0.11412016 0.08433530 0.26262265 165 182 8
0.16463110 0.05028083 0.21577767 172 191 3
0.16624130 0.05520953 0.21516579 151 169 0
0.16609448 0.05247938 0.21327479 177 197 1
0.17933287 0.01821695 0.18127906 176 187 0
0.18253279 0.01774871 0.17930734 211 218 0
0.17350736 0.05428914 0.20667520 155 176 0
0.16954531 0.05139944 0.20848241 180 190 0
0.16960680 0.05384784 0.20951277 201 211 3
0.14952816 0.06080373 0.24885973 184 192 27
0.15419109 0.05956214 0.24819961 243 229 45
0.15171415 0.06000010 0.24838319 233 228 50
0.15476009 0.05477908 0.24462658 203 208 2
0.15011279 0.00342099 0.18795879 179 191 5
0.14854792 0.00318987 0.18910775 204 217 15
0.14863642 0.00235803 0.18830332 206 220 9
0.14868101 0.00258592 0.18846424 210 223 19
0.11497439 0.07966711 0.25575474 179 190 12
0.11721577 0.08210243 0.25394395 225 231 9
0.11788973 0.08244754 0.25278476 202 215 1
0.08826540 0.09869033 0.25654373 163 191 8
0.08644736 0.10051385 0.25505662 146 179 2
0.17455785 0.02362805 0.19262747 228 230 61
0.17842160 0.02086486 0.18289492 214 213 34
0.17526333 0.02191448 0.18873009 232 231 63
0.17218067 0.02242813 0.19352971 206 211 56
0.18994813 0.03267208 0.20135103 149 172 2
0.19179656 0.02904468 0.19757131 164 188 14
0.16078065 0.05212538 0.23467098 162 173 0
0.16058186 0.05102501 0.23310010 189 196 2
0.16275133 0.05390088 0.23283295 155 168 0
0.16202614 0.05398760 0.23492023 171 193 4
0.16578420 0.05786611 0.23235431 177 196 6
0.16203888 0.05173191 0.23058623 188 204 9
0.16077340 0.06445904 0.24754435 194 206 0
0.16206558 0.06315237 0.24645689 197 216 2
0.15575816 0.04658426 0.22907092 252 243 0
0.15555680 0.05076532 0.23957761 186 191 1
0.15391397 0.04780958 0.23437563 208 210 5
0.15311255 0.04852645 0.23713318 212 212 4
0.15897113 0.05281034 0.24033712 218 218 10
0.15212980 0.04652328 0.23344484 156 168 0
0.15646148 0.04953522 0.23543245 193 200 9
0.15764767 0.04813461 0.23051810 194 198 0
0.16033155 0.04851795 0.22811238 245 239 5
0.15846880 0.05238380 0.23991713 226 222 11
0.15104015 0.06902345 0.24592592 190 209 6
0.15122327 0.06751108 0.24638686 177 191 0
0.15681484 0.05716809 0.24434288 174 180 0
0.15891318 0.05973831 0.24561860 175 187 0
0.15888090 0.05869483 0.24517192 177 189 3
0.14109580 0.08134381 0.24362464 78 111 6
0.13998978 0.08095348 0.24619754 128 157 5
0.14451203 0.07820658 0.24400793 106 139 6
0.14394096 0.06735854 0.24903710 218 218 6
0.14193814 0.06421690 0.24717855 210 212 4
0.14188983 0.05943828 0.24419729 190 201 3
0.13693576 0.07585992 0.25007376 211 218 1
0.13467161 0.07909893 0.24920072 232 226 0
0.13509241 0.07863893 0.24931644 230 227 0
0.14328353 0.07484153 0.24826290 177 193 0
0.14120364 0.07741974 0.24884069 174 202 6
0.14463997 0.07029808 0.24905011 239 232 4
0.14852756 0.06756546 0.24762693 172 184 0
0.15044264 0.06771331 0.24627221 192 205 3
0.13987455 0.06202010 0.24519080 197 205 0
0.13828240 0.06551187 0.24669562 225 224 9
0.12969889 0.05787091 0.23993306 113 143 9
0.13157372 0.05316983 0.23497781 132 156 0
0.12763365 0.06153197 0.24295613 133 161 0
0.13032448 0.05770369 0.24052878 130 157 18
0.10836148 0.06638414 0.25192246 46 82 0
0.11031727 0.06796052 0.24726602 70 111 7
0.10978859 0.06709304 0.24850936 50 86 0
0.10712928 0.06509180 0.25484571 80 118 7
0.11747390 0.06674778 0.23833971 78 107 0
0.11706261 0.06752426 0.23987497 143 174 21
0.11587221 0.07846544 0.25045961 214 227 15
0.11388888 0.07627711 0.25271916 190 203 12
0.11132564 0.07584222 0.26134157 154 172 2
0.11218558 0.07551894 0.25659302 148 167 0
0.11565233 0.07537627 0.24534737 201 205 4
0.11190393 0.07770168 0.26329449 164 185 0
0.11232866 0.07591765 0.25798088 170 181 0
0.11338691 0.07735256 0.25643209 143 166 0
0.11877207 0.09093523 0.24401534 143 184 0
0.11923594 0.08791986 0.24411091 123 157 8
0.11859275 0.08088635 0.24450983 191 203 5
0.11689584 0.08420421 0.25706649 164 191 2
0.11686530 0.08699087 0.25754851 231 233 0
0.11463253 0.08919905 0.25994158 131 154 0
0.11389756 0.09171392 0.25961542 191 205 6
0.11311653 0.07337147 0.25023493 167 180 0
0.11335789 0.07161591 0.24632958 128 154 0
0.11304679 0.07479227 0.25285444 169 182 7
0.11250010 0.07486913 0.25350094 203 217 16
0.11061941 0.07335239 0.25317988 158 175 0
0.11841591 0.08270975 0.24835657 185 199 0
0.11902209 0.08398773 0.24666396 190 198 1
0.11691777 0.09504168 0.24313417 136 173 15
0.11844635 0.09540220 0.24977770 148 178 0
0.12924773 0.08062787 0.24846140 192 204 0
0.12261064 0.07626975 0.24612367 208 219 1
0.12198213 0.08024501 0.24514440 156 175 0
0.11541143 0.09548157 0.25541902 131 154 1
0.11671709 0.09391434 0.25464728 176 198 2
0.11465888 0.09270319 0.25819480 219 222 7
0.11427718 0.09809979 0.25196433 120 149 5
0.11022006 0.09976935 0.25461811 173 196 4
0.11135516 0.10033876 0.25170037 139 164 8
0.12638023 0.09102113 0.23975755 28 60 10
0.13267529 0.08698615 0.24135166 24 59 0
0.13605744 0.08572010 0.24175501 79 111 14
0.13273124 0.08359952 0.24435930 135 178 10
0.13165687 0.08281314 0.24569207 173 193 7
0.18161933 0.02735472 0.19340794 177 190 12
0.18073836 0.02794241 0.19496715 158 174 3
0.09952585 0.09713547 0.26472563 105 136 6
0.09827130 0.09751923 0.26482245 112 146 0
0.09736361 0.09817451 0.26466674 119 148 0
0.14510438 0.03044309 0.21643868 177 190 0
0.14550385 0.03198812 0.21705337 190 201 1
0.14567530 0.03051916 0.21652627 182 195 1
0.14111930 0.03600495 0.21976221 172 194 5
0.13663229 0.04435483 0.22093244 197 213 0
0.13910632 0.04370948 0.22480577 167 194 5
0.14237428 0.04296506 0.23004539 145 174 0
0.14095147 0.04316737 0.22762513 163 187 1
0.18863681 0.00405554 0.16030638 111 127 28
0.18538570 0.00334691 0.15425667 131 145 32
0.19019535 0.00224174 0.15990116 123 142 24
0.14563021 -0.01548734 0.18497121 184 198 1
0.05430785 0.13293949 0.21753499 24 53 7
0.05258859 0.13660213 0.21595645 90 123 16
0.19256996 0.00734240 0.17012304 163 172 17
0.19376591 0.00549487 0.16915467 158 172 35
0.18158284 -0.01710542 0.17240261 68 97 4
0.18406130 -0.01835117 0.16090390 132 147 18
0.18997723 -0.02185051 0.15889016 106 128 1
0.18098027 -0.01818215 0.16498420 68 94 0
0.18154483 -0.01742598 0.16668059 73 101 0
0.18821816 -0.02308774 0.15779056 94 113 8
0.16873662 0.06192125 0.22608119 114 140 0
0.16888289 0.06205335 0.22783290 118 145 6
0.16893339 0.06198546 0.22461829 103 129 0
0.16763768 0.05873587 0.21960513 149 171 0
0.16643091 0.05858828 0.22473381 137 157 0
0.17557546 0.02929725 0.19896102 195 199 0
0.04695341 0.14292787 0.20156512 36 67 0
0.04729756 0.14374425 0.20062380 51 83 0
0.04432122 0.14247975 0.20009662 52 77 19
0.03892976 0.13805369 0.20688207 54 75 32
0.04412548 0.13756590 0.20799553 26 50 0
0.18849738 0.03457695 0.20343094 178 196 12
0.18594998 0.04339673 0.20499182 166 182 13
0.16996677 0.05700393 0.21336162 170 187 13
0.18796110 0.00920300 0.16828789 192 206 31
0.19788136 0.01182484 0.18535730 160 181 44
0.19759554 0.01262351 0.18583547 172 190 46
0.17248876 0.02716241 0.19785105 201 193 6
0.17340514 0.02717526 0.19791448 187 181 0
0.16607147 -0.00065196 0.19129735 113 138 0
0.16602796 -0.00080145 0.18816951 101 127 2
0.15717521 -0.00774094 0.17735913 143 169 20
0.17351356 0.02375199 0.19446532 214 212 41
0.17461324 0.02433435 0.19416700 208 213 49
0.18240555 0.01102084 0.16660418 172 184 24
0.17992257 0.01281670 0.16764836 233 226 76
0.18289137 0.01255601 0.17052063 206 211 30
0.19675182 0.00366342 0.17646930 99 130 26
0.17190258 0.01636212 0.17842893 195 204 27
0.17610468 0.01556094 0.17435069 200 204 19
0.17094663 0.01494996 0.17627399 165 180 17
0.18171020 0.00950337 0.16247809 179 189 38
0.18473510 0.00857446 0.16394171 176 189 39
0.19080900 0.01774910 0.18164186 185 193 19
0.18967213 0.02262772 0.18608347 198 208 33
0.18916334 0.02005280 0.18327239 235 234 30
0.16991509 0.01777058 0.18409257 158 178 18
0.17401601 0.01901945 0.18406926 204 207 30
0.17322049 0.01990362 0.18725021 204 209 29
0.17098545 0.02001734 0.18950295 215 220 32
0.19590467 0.00794755 0.17809010 139 166 35
0.15298776 -0.00466957 0.18020985 189 195 7
0.15411417 -0.00704445 0.17859022 151 171 12
0.16578963 0.01469053 0.17467666 149 164 69
0.16519383 0.01482118 0.17548062 162 171 62
0.17531501 0.01150774 0.16717407 215 220 30
0.17805915 0.01576183 0.17368951 250 234 89
0.17826362 0.01068499 0.16410019 231 224 55
0.17821358 0.01610670 0.17425315 252 236 89
0.19222201 0.02705784 0.19463143 167 187 10
0.18856801 0.02686041 0.19101474 178 197 11
0.18622383 0.02541882 0.18762147 207 215 34
0.18467163 0.02563402 0.18866234 193 207 10
0.18069735 0.02326878 0.18612668 232 236 35
0.17978725 0.02489529 0.18941259 217 224 48
0.19100019 0.02215447 0.18649243 208 219 37
0.19369048 0.02413287 0.19230248 168 186 24
0.19556999 0.01838065 0.18888676 154 178 20
0.19491455 0.02110418 0.19059315 173 191 29
0.19349551 -0.00113580 0.16328388 134 148 50
0.19407991 0.00331254 0.16710165 140 160 37
0.19451873 -0.00108610 0.16667309 94 125 32
0.18050802 0.01974889 0.18020424 214 214 22
0.18267481 0.02117653 0.18226007 198 205 27
0.18687212 0.02243719 0.18475501 203 209 21
0.18549518 0.01617524 0.17802800 230 231 33
0.18443845 0.01529832 0.17621788 193 202 13
0.18376832 0.01376846 0.17358805 221 225 27
0.19858094 0.00458749 0.17915022 107 142 40
0.19434823 0.01742347 0.18351838 183 204 41
0.19539355 0.00480521 0.17336003 105 131 22
0.19579220 -0.00017298 0.17206356 90 122 25
0.19130144 0.00109640 0.15980026 126 143 28
0.19235566 0.00414363 0.16544962 97 118 17
0.19520219 0.00959498 0.17545934 184 198 40
0.17945150 0.02842183 0.19774941 175 187 1
0.19513418 -0.01159038 0.16736999 113 133 12
0.19616671 -0.01198610 0.17024173 176 180 44
0.19631316 -0.01218477 0.17063710 194 200 66
0.03156146 0.14375903 0.20235115 70 93 37
0.03416109 0.14052388 0.20387848 52 75 23
0.03673425 0.13778080 0.20734112 78 93 60
0.03845407 0.14180142 0.19960052 39 66 0
0.03689130 0.14131430 0.20056325 26 55 0
0.04640822 0.13359082 0.21276115 22 47 5
0.04346053 0.13384634 0.21281168 50 67 35
0.04460471 0.13724461 0.20856485 32 56 8
0.04634428 0.13915351 0.20661141 51 86 0
0.04435699 0.14024872 0.20339540 49 79 7
0.20150520 -0.01053043 0.23129630 145 158 40
0.19817030 -0.01065984 0.22988431 175 182 26
0.20967065 -0.00757373 0.24684939 88 105 3
0.20835380 -0.00838738 0.24191719 128 147 21
0.19974136 -0.01321972 0.22133246 168 184 25
0.19895449 -0.01316993 0.22454418 102 114 2
0.19212574 -0.01599884 0.20888874 180 206 0
0.19432455 -0.01420477 0.21300557 184 206 7
0.19245283 0.03290608 0.20256184 154 172 2
0.19272828 0.03432979 0.20344110 146 162 0
0.19922379 -0.00885713 0.22364907 185 198 0
0.19035910 -0.02068452 0.20316575 177 192 15
0.19078657 -0.02374638 0.19827130 182 196 15
0.19042969 -0.02403393 0.19730416 176 190 9
0.10426413 0.09910431 0.26136133 200 215 8
0.10017564 0.10095105 0.26177347 147 170 0
0.17031142 0.04405984 0.20713829 200 210 27
0.17492744 0.04177349 0.20520961 229 227 65
0.19331616 -0.01222134 0.16028011 90 115 21
0.19267437 -0.01276904 0.15756860 91 116 32
0.19190735 -0.01028424 0.15395793 99 121 39
0.19417116 -0.01134870 0.16387540 92 118 17
0.19297871 -0.01356563 0.15897894 89 116 23
0.18207930 0.03447344 0.20335425 246 240 104
0.18859756 -0.02067397 0.19018905 124 146 12
0.18579184 -0.01639120 0.18842144 130 149 23
0.18364213 -0.01603018 0.17956163 67 100 0
0.18869355 -0.02065836 0.19488184 151 175 0
0.18915974 -0.02149354 0.19157958 152 174 4
0.10427868 0.10555972 0.24662311 170 201 22
0.10243133 0.10666963 0.24468033 71 102 0
0.18538103 -0.01381033 0.18686271 193 205 21
0.20021272 -0.00395649 0.22551085 128 141 0
0.19834022 -0.00797438 0.22243564 205 214 0
0.12700003 0.05899266 0.23721685 101 132 0
0.12521207 0.06057145 0.23281294 128 156 11
0.12453528 0.06273799 0.23401211 87 116 0
0.12645708 0.05908958 0.23518071 108 138 4
0.12651880 0.05885488 0.23500352 102 132 2
0.12194479 0.06719161 0.23639436 129 158 4
0.12035796 0.06904785 0.24128474 180 202 0
0.14931767 0.07452612 0.25331554 190 193 112
0.15151474 0.07537963 0.25280443 176 189 101
0.18977267 -0.00349229 0.21883284 135 167 6
0.18284798 -0.00805924 0.20826313 153 177 1
0.15588728 0.00145119 0.18091163 202 216 15
0.16043977 0.00284784 0.17875601 120 147 6
0.16061136 0.00548486 0.17949890 148 168 19
0.15620451 0.00845512 0.18617204 140 163 0
0.15805146 0.00766681 0.18333803 133 153 6
0.18463348 -0.01223273 0.19591071 170 192 5
0.18782400 -0.01430052 0.19880728 115 142 0
0.18965183 -0.02282990 0.19544919 151 166 0
0.18347496 -0.01978959 0.15936206 57 80 0
0.18395676 -0.02354901 0.15904558 93 122 12
0.04438930 0.13302645 0.21720865 77 100 54
0.04548424 0.13263653 0.21671829 80 102 64
0.04744892 0.13170581 0.21818034 101 125 77
0.18949877 -0.01120294 0.18019409 126 147 30
0.20157665 -0.00881077 0.22755712 169 190 1
0.15626955 0.07511502 0.25110394 158 189 33
0.19428656 -0.00635196 0.17401636 140 155 12
0.17708620 0.02381232 0.19060767 157 176 0
0.17815080 0.02441951 0.19152690 193 206 4
0.19613588 -0.01158477 0.17382842 120 142 5
0.18346332 -0.01626381 0.17236686 71 93 0
0.18845695 -0.01730772 0.16866583 152 169 55
0.18847254 -0.01718982 0.16955808 157 171 57
0.18774684 -0.01744467 0.17439894 125 146 25
0.18654634 -0.01612539 0.17065422 126 144 24
0.18704417 -0.01699322 0.17603217 108 126 14
0.18873627 -0.01787821 0.17435007 171 190 72
0.18892148 -0.00599864 0.17711185 136 157 28
0.19262001 -0.00910238 0.17375535 109 131 20
0.18953672 -0.01036022 0.18037605 130 148 26
0.19212107 -0.01841489 0.16970819 159 174 45
0.19601455 -0.01348274 0.17289229 135 152 24
0.19099376 -0.01770516 0.16486397 119 128 21
0.19409370 -0.01372270 0.17621107 130 146 22
0.19507207 -0.01310168 0.17547189 153 163 51
0.18655600 0.01885254 0.17933063 177 190 0
0.19031028 0.01639258 0.18017668 191 200 0
0.18659461 0.02041432 0.18196554 170 185 0
0.18914297 0.02144868 0.18594858 169 184 0
0.18609264 0.02134608 0.18324578 179 192 0
0.18520378 -0.01198705 0.18056037 167 184 44
0.18795907 -0.01585761 0.19715869 137 171 0
0.13573198 0.06785444 0.24711116 183 194 2
0.09274276 0.11340559 0.24897808 91 123 0
0.09341186 0.11017661 0.24677029 93 116 0
0.18639754 -0.00981959 0.20856668 140 166 0
0.09363312 0.11854374 0.24513948 146 181 39
0.08956102 0.12130051 0.24793716 106 137 0
0.08940765 0.12185822 0.24748184 141 172 16
0.14807245 -0.01026213 0.18235786 191 200 11
0.15302025 0.00961008 0.19085674 178 199 8
0.15529479 0.01798256 0.19802502 143 170 0
0.15543382 0.01814109 0.19792376 143 170 0
0.15398954 0.01153851 0.19140787 136 159 0
0.15675786 0.01523573 0.19021729 145 170 6
0.16751769 0.05151320 0.21228419 202 207 1
0.16754818 0.05175135 0.21187976 199 206 6
0.08635499 0.11209466 0.24853417 168 195 28
0.06922022 0.11726660 0.23358697 45 72 1
0.06744954 0.11638868 0.23301549 35 68 11
0.06819721 0.11728921 0.23287046 35 65 5
0.06718370 0.11976209 0.23037380 83 112 64
0.07453222 0.11756169 0.23682952 139 162 9
0.07810708 0.11479187 0.24101615 56 83 0
0.07539385 0.11381236 0.24000441 147 176 10
0.07446320 0.11625212 0.23770662 52 87 0
0.08639976 0.09687196 0.25923669 103 133 0
0.08538122 0.09769226 0.25754198 117 139 4
0.08423822 0.09990969 0.25434032 168 186 4
0.07932890 0.11560409 0.24191158 132 162 2
0.07858153 0.12179794 0.23922187 153 179 26
0.08469836 0.09394832 0.25979251 115 145 13
0.08360289 0.09473521 0.25823882 78 110 9
0.08262267 0.09403735 0.25776431 41 70 4
0.08432101 0.12514880 0.24318625 175 195 0
0.08659668 0.12379052 0.24540997 166 196 12
0.07676130 0.11812752 0.23842661 117 141 1
0.07558889 0.11890894 0.23686016 55 87 0
0.07874008 0.10477592 0.24741530 33 62 4
0.07976694 0.11066592 0.24482529 117 156 1
0.07264395 0.10762215 0.24210496 27 61 0
0.07135360 0.11162620 0.23898636 48 81 10
0.07603317 0.10572995 0.24522726 23 54 0
0.07739988 0.10445800 0.24678543 42 71 15
0.07690448 0.10459949 0.24640845 35 64 10
0.08295930 0.10911504 0.24810605 133 158 0
0.07962499 0.11309214 0.24317670 116 149 6
0.08017524 0.11779980 0.24200688 102 132 0
0.08530703 0.11837838 0.24705456 143 173 0
0.07311223 0.10440380 0.24585931 19 50 0
0.07240738 0.10350025 0.25047952 83 111 37
0.07511834 0.10246893 0.24663305 47 81 7
0.07011546 0.10733624 0.24457340 51 81 19
0.07529639 0.10079215 0.25135189 40 73 2
0.07456303 0.10256665 0.24777177 45 77 4
0.08134858 0.10531450 0.24940912 84 115 0
0.08609933 0.11970788 0.24713340 172 199 6
0.08618260 0.12335172 0.24540792 163 191 19
0.08341583 0.11491092 0.24580695 165 191 30
0.06222323 0.14246109 0.21927829 96 128 3
0.06076758 0.13928543 0.22014590 106 137 7
0.05993775 0.14035936 0.21834160 91 126 10
0.06090513 0.13975376 0.21992981 73 106 0
0.07686414 0.12584843 0.23629817 93 115 0
0.07787524 0.12667024 0.23695685 180 196 9
0.07302799 0.12422299 0.23256788 75 106 2
0.07457824 0.12412616 0.23433338 112 142 20
0.06809596 0.13572109 0.22588737 73 101 0
0.07087417 0.13347851 0.22841968 124 155 0
0.06363807 0.13484354 0.22385310 143 170 13
0.06179042 0.13493691 0.22280274 129 154 11
0.07222397 0.12155803 0.23254010 79 111 14
0.07009739 0.12734610 0.22922429 88 122 2
0.07177698 0.12746590 0.23060529 55 91 0
0.06937643 0.13153896 0.22787851 142 170 8
0.06411134 0.13216740 0.22448751 47 82 0
0.06769854 0.13272867 0.22672488 137 167 11
0.06044810 0.13502437 0.22194973 91 118 3
0.06649324 0.12773186 0.22632778 117 151 5
0.05265348 0.14368872 0.20601825 12 45 2
0.05853967 0.14387810 0.21344273 76 105 21
0.05322402 0.14029305 0.21070839 55 86 8
0.06237182 0.14440320 0.21780907 64 99 5
0.18984029 -0.00746374 0.21453191 150 169 0
0.05199898 0.13755348 0.21483593 79 112 5
0.19349846 0.02633006 0.19647902 147 166 0
0.19430944 0.02737956 0.19766729 155 175 0
0.18162556 0.04634846 0.20576787 164 190 3
0.11654171 0.09692983 0.24768580 152 181 1
0.11216890 0.10011788 0.24465150 125 166 8
0.11277571 0.09976494 0.24718508 110 144 0
0.18594398 0.03652197 0.20436865 202 200 87
0.19238079 0.03306506 0.20266941 200 218 34
0.19348755 0.03262636 0.20127483 173 195 24
0.19920412 0.02368931 0.19613308 181 195 0
0.19873232 0.02501611 0.19689128 179 195 10
0.18493547 0.03274263 0.20032725 193 206 2
0.18488476 0.04382876 0.20552030 229 238 83
0.16554314 0.03642887 0.20674129 237 225 43
0.16364570 0.03150968 0.20646115 223 220 0
0.18054268 -0.00676722 0.20021643 156 183 0
0.18311483 -0.00889659 0.19869645 144 177 2
0.19053324 0.00958685 0.17646270 189 200 0
0.19120349 0.01244452 0.17791973 186 198 0
0.19597620 -0.01224577 0.21730128 177 199 0
0.14926554 0.07993677 0.25092143 112 133 42
0.14736445 0.08238432 0.24984416 110 124 39
0.13568497 0.05252448 0.23798446 109 135 2
0.14099610 0.05599237 0.24171671 176 198 2
0.14003167 0.05543638 0.24109180 146 168 0
0.14026043 0.04788432 0.23573558 154 172 12
0.13573559 0.04606686 0.23026498 123 155 0
0.13810495 0.04833935 0.23552963 139 164 0
0.13432555 0.05036004 0.23575474 106 135 0
0.13594103 0.04604273 0.22510575 132 161 0
0.13706358 0.04542992 0.22821392 139 165 3
0.15045328 0.05094414 0.23972699 183 195 1
0.14312625 0.05489158 0.24134637 206 212 2
0.15474962 0.05142033 0.24074011 185 197 3
0.14532524 0.05063515 0.23870015 208 212 1
0.15188241 0.05279588 0.24125484 211 214 1
0.15198053 0.04921433 0.23875159 195 203 6
0.14682983 0.04539297 0.23525107 159 178 0
0.14551142 0.05418464 0.24122575 194 204 9
0.14545985 0.04600692 0.23546657 140 166 0
0.14806639 0.03598929 0.22185272 128 151 0
0.14479166 0.03984129 0.22836736 119 150 0
0.14800218 0.03735209 0.22439013 157 175 11
0.14312622 0.03747150 0.22357729 156 184 4
0.14487107 0.03817442 0.22526397 131 159 0
0.14460437 0.04046465 0.22949445 124 149 0
0.08405613 0.10588106 0.25027955 83 114 0
0.11062803 0.10160720 0.24240424 128 171 6
0.10857017 0.10311168 0.24893981 120 151 0
0.10462304 0.10486782 0.24869560 171 195 11
0.10161029 0.10540406 0.25003964 108 137 0
0.10384388 0.10475393 0.24987076 94 124 0
0.09722881 0.10643603 0.24994165 177 203 10
0.19100244 -0.01000451 0.21416095 181 197 3
0.09756052 0.10909247 0.24322344 103 134 5
0.09400341 0.10904968 0.24600822 98 140 0
0.09966593 0.10378147 0.25627521 199 211 7
0.10270515 0.10286961 0.25903195 166 186 3
0.10914087 0.09872465 0.25940824 192 203 11
0.10891510 0.10143436 0.25327557 204 220 8
0.10024115 0.10509706 0.25379243 87 122 0
0.10443242 0.10390259 0.25592744 128 149 0
0.10509196 0.06759950 0.25945440 35 71 0
0.10300387 0.07307930 0.26385060 199 217 7
0.10646326 0.06979069 0.25657612 48 88 0
0.17445092 0.04852514 0.20752239 203 211 2
0.17524645 0.04757733 0.20769258 200 210 0
0.17143925 0.05147007 0.20715357 206 211 5
0.17528680 0.04642471 0.20743358 191 202 2
0.17746778 0.04605235 0.20722580 198 211 9
0.17337808 0.04659557 0.20751281 182 193 0
0.17480347 0.04041481 0.20376663 192 198 4
0.17259201 0.03996356 0.20422865 200 204 5
0.16877238 0.04585956 0.20753658 189 196 0
0.18206131 0.04310917 0.20615457 165 185 0
0.18425706 0.04130161 0.20531934 173 200 1
0.18531400 0.03648088 0.20371945 160 181 2
0.18830687 0.03521034 0.20387001 172 192 0
0.18511157 0.03783883 0.20441394 177 198 9
0.19459523 -0.00747943 0.21701685 225 231 9
0.19904351 -0.00728399 0.22361334 203 215 7
0.18577707 -0.01144675 0.20120433 158 184 0
0.19343504 0.02844607 0.19742125 190 215 25
0.19371605 0.02615052 0.19532275 192 213 30
0.19651970 -0.00399296 0.22072138 181 196 7
0.19912761 -0.00332234 0.22404578 148 166 0
0.16937609 0.03416883 0.20259680 220 222 14
0.16864215 0.03200115 0.20156968 230 226 31
0.17172515 0.03253455 0.20096838 211 217 5
0.15395737 0.03215930 0.21621872 152 169 5
0.15354203 0.02761267 0.20990685 130 148 4
0.15682541 0.02922565 0.21070558 159 178 1
0.16176328 0.01640921 0.18281797 127 139 13
0.16182627 0.01671220 0.18364453 135 147 23
0.16514723 0.01593040 0.18053219 149 161 63
0.16813250 0.01788477 0.18513863 189 208 31
0.16036330 0.01793319 0.18623312 123 138 9
0.16213612 0.02053968 0.19193402 175 188 21
0.16332236 0.02189142 0.19492371 176 189 0
0.16362444 0.02174984 0.19466361 170 185 0
0.16721943 0.02093786 0.19340348 171 182 0
0.15127851 0.02558437 0.21007983 150 173 3
0.15185063 0.03107058 0.21716611 139 155 7
0.15090892 0.02659435 0.21206644 150 174 2
0.14969309 0.02476254 0.21032220 142 161 0
0.15715310 0.02209504 0.19795308 125 138 7
0.15782671 0.02348681 0.19878347 178 185 27
0.15283993 0.01912314 0.19987364 142 164 0
0.16977528 0.03543885 0.20313843 212 215 0
0.17018145 0.03669560 0.20363306 199 203 0
0.16219814 0.02655911 0.20383297 184 196 2
0.16099419 0.02304041 0.19701189 194 205 7
0.16912718 0.02180649 0.19546403 215 210 4
0.19051617 -0.01994141 0.20180430 166 187 6
0.18830918 -0.01805635 0.19885236 143 169 8
0.15147118 0.02446301 0.20700258 153 175 2
0.15050995 0.02126959 0.20407316 141 159 0
0.18684667 -0.01345138 0.20188779 193 208 5
0.17809702 0.02183201 0.18444355 172 189 0
0.18409492 0.02284229 0.18466204 208 219 5
0.17431422 0.02322143 0.19213048 236 229 17
0.17445624 0.02294745 0.19063750 245 235 26
0.19406584 0.01007589 0.17425498 228 226 43
0.19471419 -0.00508177 0.21737957 189 202 0
0.19719651 0.02632104 0.19873832 170 188 6
0.19836085 0.02250749 0.19697043 175 196 0
0.20019846 0.01629356 0.19402812 157 176 0
0.19043985 -0.01711177 0.20520873 156 185 7
0.18898878 0.03192226 0.20013876 137 152 0
0.19387524 0.02407696 0.19377619 159 178 0
0.18338296 0.02896891 0.19573890 167 182 0
0.18365155 0.02993361 0.19769016 184 195 7
0.18302135 0.03029495 0.19863924 180 192 6
0.17370667 0.00512844 0.18419465 123 140 0
0.19618894 -0.01139195 0.21860532 164 184 0
0.19413489 -0.00210946 0.22528306 111 144 3
0.19636080 -0.00237270 0.22614595 112 143 14
0.18460265 -0.00985648 0.20562112 142 170 0
0.19960171 0.01506161 0.19211480 170 190 5
0.19627999 0.01048818 0.18369702 133 153 2
0.12052640 0.07447491 0.24573505 162 174 2
0.13174523 0.06904504 0.24748491 164 183 3
0.13004504 0.06880800 0.24745001 169 185 0
0.12607974 0.07233928 0.24746394 201 211 1
0.12663752 0.06894231 0.24628429 149 173 0
0.12262084 0.07248805 0.24552377 160 171 5
0.12174278 0.06858108 0.24311984 147 170 0
0.13457397 0.06309444 0.24461158 166 185 0
0.13472076 0.06569050 0.24550234 180 194 10
0.13684453 0.06408001 0.24517071 198 203 0
0.20277531 -0.00388218 0.23069859 85 117 0
0.19898537 0.01964671 0.19407406 177 191 0
0.19938327 0.01794376 0.19399077 179 195 1
0.18926659 -0.01189928 0.20801567 185 209 1
0.18112379 -0.00601685 0.20499824 170 193 1
0.18032633 -0.00208754 0.20454866 154 177 0
0.08676641 0.09416091 0.26188996 119 149 3
0.14343578 0.05587469 0.24594432 209 215 47
0.14598908 0.05462218 0.24472694 207 211 10
0.14295383 0.05962186 0.24862190 232 228 58
0.14586982 0.05410367 0.24438150 220 225 11
0.08630701 0.10567542 0.25071549 161 180 11
0.08584683 0.10596041 0.25082061 167 184 18
0.08890196 0.10262899 0.25197598 145 168 2
0.08714406 0.10329425 0.25177163 89 112 0
0.10514822 0.10766943 0.24142969 85 123 2
0.10184609 0.10745532 0.24176864 66 107 0
0.09971513 0.11425512 0.24328013 38 73 5
0.09902456 0.11159293 0.24288991 84 124 2
0.09636265 0.11318333 0.24336046 130 173 21
0.09585544 0.11355559 0.24459645 113 154 0
0.09684445 0.10531993 0.25159392 119 144 0
0.09698869 0.10446002 0.25236341 148 172 14
0.09708300 0.10089069 0.25944698 146 167 10
0.09749385 0.10424889 0.25311294 172 195 29
0.11035539 0.10754743 0.24208622 124 144 83
0.10598759 0.10814039 0.24165596 47 75 0
0.20339979 -0.00947357 0.23584190 124 142 20
0.20518295 -0.00874235 0.24351662 180 189 70
0.20218168 -0.00952762 0.23300484 114 128 17
0.16720642 0.01303111 0.16825043 134 154 55
0.16743846 0.01191033 0.16467142 166 186 75
0.16432539 0.01290801 0.16854653 160 170 21
0.16191794 0.01400268 0.17386600 137 151 6
0.16413751 0.01301722 0.16895671 174 182 34
0.16673069 0.00362430 0.18362658 163 175 15
0.16412994 0.00298051 0.18056729 189 201 41
0.18355347 0.01481695 0.17853442 214 224 13
0.18238766 0.01735334 0.17919035 218 226 5
0.18111156 0.01273801 0.17890123 210 221 5
0.18837537 0.00248526 0.17462598 169 178 9
0.16987158 0.02008970 0.18728946 201 212 0
0.17536034 0.01975314 0.18435436 230 229 14
0.18104187 0.00831205 0.18065338 125 146 0
0.18182389 0.00936699 0.17949131 124 145 0
0.14621946 0.08084293 0.24487266 97 125 14
0.14644611 0.08006998 0.24474959 72 98 0
0.14671983 0.08174157 0.24537195 138 160 78
0.15247250 -0.00182990 0.18150826 239 235 6
0.15769708 -0.00037725 0.17905235 190 206 12
0.18552554 0.00743229 0.17708986 162 176 3
0.18570392 0.00835331 0.17706652 177 192 5
0.19233431 0.00418876 0.17304882 167 181 10
0.19094948 -0.00232644 0.17498183 117 137 3
0.19380620 -0.00057719 0.17427251 100 121 0
0.18906423 0.01140548 0.17768112 231 228 1
0.14670874 0.06712006 0.25178477 201 205 56
0.14361252 0.06713977 0.25208205 222 221 45
0.14440472 0.06776073 0.25223958 223 227 52
0.14601663 0.06636185 0.25156662 202 209 53
0.13927825 0.07215185 0.25425279 201 204 61
0.13805284 0.07245747 0.25440890 189 201 77
0.17927770 0.00507859 0.18190092 146 166 0
0.14362334 0.07982657 0.25321382 160 179 61
0.14371639 0.08353558 0.25207630 153 170 74
0.19557458 0.00064888 0.17667833 109 130 0
0.19548507 0.00140633 0.17696586 108 130 0
0.19302225 0.01522412 0.18315518 189 199 4
0.19217369 0.01687192 0.18331753 193 201 0
0.12577298 0.08716421 0.24173272 116 150 11
0.12253983 0.09067653 0.24018463 67 104 0
0.15093450 0.07488775 0.24496016 119 148 0
0.15402550 0.07701452 0.24633862 205 192 122
0.16459137 0.06832973 0.24711584 190 208 2
0.16457123 0.07083371 0.24669449 140 176 8
0.16128904 -0.00063086 0.17803039 106 131 3
0.16432430 0.01676192 0.18526103 153 165 5
0.16804889 0.01877428 0.18744056 160 177 1
0.16840813 0.01304135 0.18298066 181 198 22
0.17086503 0.01035868 0.18337739 147 162 0
0.15195778 0.07391535 0.24477479 151 180 10
0.15505084 0.07031214 0.24621102 204 219 2
0.16041414 0.07277791 0.24668625 113 138 20
0.17029537 0.01304148 0.18301244 186 203 26
0.17192680 0.01495990 0.18314180 201 208 6
0.17399429 0.00269885 0.18466009 128 145 7
0.16623001 0.00556083 0.18294525 179 194 39
0.16827658 0.00324747 0.18541841 182 196 41
0.16854300 0.00836097 0.18287079 150 166 16
0.19374351 0.02150709 0.19070938 164 185 6
0.19410668 0.01641985 0.18651292 166 188 1
0.19760315 0.00809917 0.18204869 146 168 21
0.10790949 0.10544037 0.24144450 108 142 30
0.11055383 0.10280728 0.24208434 108 149 8
0.17123251 0.06767194 0.24852598 147 164 24
0.16851749 0.06808119 0.24936147 143 169 34
0.18605702 -0.00107559 0.17746907 111 133 0
0.17460977 0.03487812 0.20270348 206 210 38
0.17640175 0.03338527 0.20217440 219 222 55
0.17853406 0.03754046 0.20430970 232 225 59
0.17472309 0.00018002 0.19653954 159 177 17
0.16848570 -0.00129626 0.19783787 171 189 9
0.16796486 -0.00043256 0.19677022 181 199 27
0.16825384 0.03939649 0.20515575 217 219 34
0.16696543 0.04437966 0.20799464 179 191 7
0.17830731 0.04051077 0.20509204 218 214 78
0.18737191 0.01270224 0.17367804 200 205 24
0.19636314 0.01829205 0.19126987 168 189 10
0.19573084 0.01706691 0.18940827 148 166 6
0.19494304 0.02220490 0.19311100 152 169 3
0.16935362 0.06480665 0.23443390 104 132 0
0.16660433 0.05928845 0.22806716 131 152 0
0.16548015 0.05934210 0.23717476 143 166 0
0.18726602 -0.00380288 0.21260716 186 208 11
0.16955839 0.00093364 0.19357803 172 185 18
0.18405193 0.00827604 0.17837249 159 175 4
0.18169920 0.00401852 0.18016687 109 130 0
0.17498076 0.01061615 0.18235637 155 177 4
0.16595547 -0.00076697 0.19187070 142 166 20
0.17230843 0.06640714 0.24382588 127 150 34
0.17179610 0.06320397 0.24568710 94 122 0
0.17012620 0.06460608 0.24003489 153 183 35
0.16929676 0.06179016 0.23974231 124 150 1
0.17480022 0.05433314 0.20582138 160 181 2
0.15751068 0.02514950 0.20287763 162 174 6
0.15970919 0.02711775 0.20586354 198 211 7
0.15543385 0.02468775 0.20339027 125 143 9
0.20886467 -0.00629976 0.24222641 131 153 6
0.20603400 -0.00911260 0.23568466 152 175 9
0.16889684 0.06082323 0.21826611 106 131 1
0.15732250 0.03546214 0.21562186 208 212 4
0.16109946 0.02926009 0.20833845 203 212 11
0.16092575 0.03403214 0.21118566 208 214 0
0.16321298 0.05126848 0.22632338 187 199 3
0.16764133 0.05713592 0.22174247 137 161 3
0.16663088 0.05525133 0.22095935 176 191 10
0.16346383 0.05147522 0.22564302 163 176 0
0.14785355 0.04096961 0.22890072 132 160 0
0.15576313 0.04014440 0.22242393 185 189 0
0.15326987 0.03751158 0.22198303 160 181 0
0.15078852 0.04016345 0.22606839 149 171 0
0.15453079 0.03779524 0.22130683 210 217 0
0.14906679 0.03801138 0.22547735 119 146 0
0.15038535 0.04171581 0.22769456 158 178 5
0.15167502 0.03798739 0.22355452 138 167 1
0.16129836 0.04290308 0.21874769 243 235 4
0.15912841 0.04280475 0.22183806 181 187 0
0.15900490 0.03761727 0.21540298 231 230 0
0.15739310 0.03696151 0.21695502 168 172 0
0.16266938 0.04450761 0.21719211 193 196 5
0.16290185 0.04334134 0.21516763 213 216 5
0.16418339 0.04631663 0.21495704 207 216 5
0.16447090 0.04730468 0.21528307 187 192 1
0.16247749 0.04103607 0.21370044 252 240 0
0.16569349 0.03938099 0.20778246 195 192 0
0.16548422 0.04225706 0.20920898 215 220 6
0.16445781 0.03769243 0.20888235 233 218 39
0.16665047 0.00092834 0.18411756 181 191 30
0.16192600 0.00006315 0.17860973 110 133 0
0.16702574 0.05222929 0.21487993 196 210 3
0.16658030 0.05153041 0.21511267 180 197 7
0.16348317 0.04841550 0.21946116 196 209 0
0.16464309 0.05219303 0.22191925 175 195 0
0.16835931 0.06279182 0.22374439 100 134 0
0.16007240 -0.00507418 0.17847829 107 137 7
0.16062431 -0.00733510 0.18052553 146 165 14
0.15281944 -0.01134191 0.18233530 129 149 0
0.15391894 -0.01121550 0.18151386 167 191 15
0.16810678 0.05948717 0.21655346 123 148 4
0.16798420 0.06080775 0.22372320 122 147 3
0.16783845 0.05955320 0.22376660 165 186 5
0.17630152 0.05234632 0.20548025 159 180 0
0.17817566 0.00280237 0.18207434 114 131 3
0.16901420 0.06420931 0.23456137 105 136 0
0.16785899 0.06098396 0.23226771 165 184 4
0.16837944 0.06525327 0.24363461 101 130 4
0.16673362 0.06568134 0.24603370 134 163 0
0.16423933 0.05827473 0.24184214 125 152 0
0.16665621 0.05960720 0.23630160 136 157 0
0.16722600 0.05997804 0.23543715 132 151 0
0.16692947 0.05982141 0.23617032 126 147 0
0.16857821 0.06302353 0.24024357 131 156 0
0.16853073 0.06307332 0.24161020 135 161 0
0.16821748 0.06377771 0.24780384 124 143 1
0.13647266 0.08301233 0.24453032 71 108 5
0.13774195 0.08234815 0.24511588 70 103 0
0.17994228 -0.00589520 0.19590966 168 190 4
0.18766525 -0.00376193 0.17740501 116 135 7
0.17211565 0.00114764 0.19470181 155 171 2
0.17875932 -0.00469621 0.18822625 147 167 10
0.17158946 0.06767058 0.24599627 191 209 71
0.18181100 -0.00657870 0.19098443 155 175 0
0.18105161 -0.00234818 0.18281478 153 174 33
0.18227129 -0.00665420 0.18459514 131 150 8
0.18715644 -0.00791088 0.18140675 124 144 13
0.18328224 -0.00872117 0.19346769 189 207 23
0.17765239 -0.00278899 0.18901977 161 178 10
0.18501182 -0.01320057 0.19104832 217 228 46
0.18466070 -0.01161720 0.19075492 201 215 8
0.17694783 -0.00079852 0.18684880 163 180 16
0.17440049 0.00040013 0.18857627 139 159 10
0.17283042 0.00098507 0.18815662 160 176 17
0.17070426 0.00185342 0.18865636 168 177 24
0.17811769 -0.00437651 0.19537006 194 216 19
0.17745256 -0.00311817 0.19522400 189 211 14
0.17781262 -0.00294109 0.19748291 163 182 15
0.17853543 -0.00508701 0.18939702 153 170 16
0.19788556 0.00748129 0.18086064 128 158 36
0.17902645 0.04294146 0.20565741 216 208 65
0.14460994 -0.00750048 0.18594509 230 230 18
0.14370711 -0.00776652 0.18789256 244 243 3
0.18047023 0.04624276 0.20683390 206 204 101
0.17587467 0.04902891 0.20757782 243 238 86
0.19244862 0.01278140 0.17860162 209 215 5
0.19327867 0.00814139 0.17646898 208 217 4
0.19816257 0.02915979 0.19717115 234 250 38
0.12994283 0.07810567 0.24889712 207 210 5
0.12850985 0.07498422 0.24846226 185 198 4
0.14812703 -0.00894085 0.18186200 149 171 1
0.16451529 0.01322683 0.18255587 165 174 7
0.16508554 0.01064188 0.18067729 158 167 16
0.18879896 -0.00359693 0.17632699 124 147 13
0.13367991 0.04746542 0.23085117 182 207 2
0.14687167 0.07942286 0.25263986 157 177 54
0.14823990 0.07927717 0.25253218 158 178 63
0.07843433 0.09816900 0.25122753 47 79 6
0.07291631 0.09932706 0.25905091 64 91 40
0.07594345 0.09346110 0.26461327 83 109 35
0.07353438 0.09950901 0.25758746 51 76 21
0.07379203 0.09722760 0.26141834 57 84 29
0.18425258 0.04244467 0.20585573 212 211 105
0.12846793 0.05208220 0.22924782 115 152 12
0.13336989 0.05004452 0.23424008 126 155 3
0.15056729 0.06067957 0.24532840 241 230 0
0.14792331 0.06070038 0.24513398 205 203 0
0.14969575 0.06032642 0.24511378 238 230 7
0.15095377 0.05695800 0.24380182 186 194 0
0.17689212 0.04126919 0.20503844 209 209 49
0.19862260 0.03112094 0.20002711 171 181 24
-0.09817339 -0.15606594 0.16169791 27 56 2
-0.09831830 -0.15237820 0.16573887 52 92 0
-0.09917634 -0.16179416 0.16365324 11 42 1
-0.11111774 -0.15527071 0.11164036 62 103 1
-0.11139648 -0.15600528 0.09734832 80 120 0
-0.11135696 -0.15530182 0.10409965 46 84 0
-0.11087827 -0.15787080 0.09844426 65 96 18
-0.11068185 -0.15858248 0.09882379 59 91 28
-0.11247870 -0.15166163 0.09858940 121 160 31
-0.11744458 -0.14617805 0.08310346 95 133 12
-0.11429704 -0.14903152 0.09391112 79 116 0
-0.11283113 -0.16047990 0.12982127 76 109 28
-0.11367925 -0.16058841 0.12742972 75 114 21
-0.10200739 -0.15047424 0.15276068 42 72 0
-0.09946288 -0.15765965 0.15860094 27 56 0
-0.10354462 -0.15885128 0.14896730 12 43 2
-0.10973960 -0.14943328 0.14512594 84 108 0
-0.11165793 -0.14879584 0.14168718 135 161 38
-0.10531476 -0.15116973 0.14177500 107 138 21
-0.10692303 -0.15170757 0.13529573 114 141 24
-0.12263483 -0.14229317 0.10679743 130 152 67
-0.12464336 -0.14168675 0.12085409 95 104 25
-0.12261464 -0.14230758 0.10650292 154 179 88
-0.12144279 -0.14181785 0.11385209 115 136 45
-0.12285601 -0.15394865 0.10541855 44 85 17
-0.12003648 -0.15457554 0.09865976 59 98 41
-0.11217161 -0.15220506 0.10979103 50 89 0
-0.11236770 -0.15171677 0.10932083 55 92 0
-0.12088905 -0.15428144 0.09822502 65 105 45
-0.12480719 -0.15484609 0.09716745 156 184 143
-0.10706443 -0.16181791 0.16472469 54 85 25
-0.10745898 -0.16107406 0.15228426 19 53 2
-0.10954321 -0.16131008 0.15449964 17 47 0
-0.10314394 -0.16112931 0.15611826 38 72 12
-0.11433366 -0.15080914 0.12637253 112 139 10
-0.11177590 -0.14943686 0.13383375 147 173 37
-0.11402792 -0.15041898 0.12824894 140 167 26
-0.12582439 -0.15352479 0.10110730 196 210 185
-0.12250310 -0.15480717 0.09252266 130 163 118
-0.11251900 -0.15978923 0.13737462 48 80 13
-0.11724795 -0.16040447 0.09564283 65 104 25
-0.11738887 -0.16034332 0.09259199 107 146 67
-0.11859060 -0.15820521 0.09612995 114 155 61
-0.11427729 -0.15984713 0.14324838 37 68 11
-0.11578198 -0.15960315 0.14263786 56 85 39
-0.11746882 -0.15982540 0.10167760 90 126 36
-0.10890564 -0.16148551 0.15193214 24 57 4
-0.11135721 -0.16092615 0.14972417 6 37 0
-0.10198608 -0.15579252 0.15028773 32 62 2
-0.10331421 -0.15535063 0.14623891 45 72 19
-0.10839584 -0.16071045 0.14870299 7 41 0
-0.11294676 -0.16011259 0.10187059 52 91 24
-0.11354532 -0.16024713 0.10308108 72 114 28
-0.11065319 -0.15758012 0.11419941 90 134 11
-0.11066636 -0.15699019 0.11943400 99 135 47
-0.11236457 -0.15926002 0.11051677 79 120 14
-0.09874067 -0.15988213 0.16240494 19 51 4
-0.12118745 -0.15506633 0.09075107 93 132 77
-0.10920107 -0.16139111 0.15543203 16 48 0
-0.10544189 -0.16016568 0.15151154 37 73 11
-0.09609545 -0.16116624 0.16956185 5 32 0
-0.09744736 -0.16120602 0.16735186 12 44 0
-0.10912289 -0.15705967 0.12720974 64 98 21
-0.11039209 -0.15724109 0.12466192 73 106 25
-0.10993870 -0.15892480 0.13609076 66 100 16
-0.10595906 -0.15903388 0.14666373 30 58 10
-0.10820280 -0.15926531 0.14268766 23 57 0
-0.10672670 -0.15627579 0.13515490 37 70 0
-0.10599452 -0.15757810 0.14008370 20 53 0
-0.10816474 -0.15613358 0.12923241 71 100 16
-0.11880334 -0.14439510 0.10624450 58 81 11
-0.11897276 -0.14463866 0.12198783 84 109 8
-0.11880923 -0.14256380 0.12243531 141 169 48
-0.11225926 -0.16032897 0.13052422 53 85 10
-0.11206160 -0.16008921 0.13052338 53 85 10
-0.11874943 -0.14766012 0.12109192 95 118 10
-0.11818694 -0.14815766 0.11902322 85 113 10
-0.11866117 -0.14774109 0.12078136 69 96 1
-0.11588501 -0.14850351 0.12927487 100 123 17
-0.11533928 -0.15077750 0.12519342 141 165 27
-0.11084324 -0.15112796 0.12393799 71 103 4
-0.11503636 -0.15191133 0.11975093 141 161 14
-0.11205052 -0.15133947 0.12342443 100 133 16
-0.11418691 -0.15221678 0.11175739 135 166 3
-0.11708342 -0.14802425 0.10566632 88 128 5
-0.11674489 -0.15065227 0.10723128 37 73 0
-0.10875125 -0.15574518 0.12677175 67 100 11
-0.10936196 -0.15385945 0.12628095 138 166 55
-0.10555248 -0.15404080 0.13766153 71 103 27
-0.10951459 -0.15198086 0.12667987 58 87 5
-0.11111571 -0.15218540 0.11943004 118 147 19
-0.09975741 -0.15067856 0.16283001 115 148 7
-0.10149553 -0.14950679 0.15980345 108 143 25
-0.11421651 -0.15485370 0.08246998 141 180 35
-0.11504702 -0.15417834 0.08082241 141 178 36
-0.11589785 -0.15319151 0.07918047 112 149 7
-0.11806536 -0.14672419 0.12571330 164 178 41
-0.11555757 -0.14692277 0.13289446 120 136 29
-0.11325268 -0.15074511 0.09412592 143 183 48
-0.11365823 -0.15018563 0.09274329 137 177 44
-0.11486406 -0.15089940 0.08218466 167 203 33
-0.11346468 -0.15154313 0.09044571 91 129 0
-0.11637335 -0.15791456 0.07956538 43 81 0
-0.11449584 -0.16173586 0.08095892 85 110 16
-0.11231342 -0.15244474 0.09774956 70 108 0
-0.11190428 -0.15612388 0.09262004 112 159 5
-0.11205620 -0.15624928 0.09103581 82 121 2
-0.11425270 -0.16169865 0.08988182 80 120 57
-0.11485641 -0.16234180 0.08529463 64 99 31
-0.10094701 -0.15393798 0.15293075 29 53 0
-0.10007515 -0.15514965 0.15533341 58 85 4
-0.11773790 -0.14645725 0.09877627 94 130 22
-0.11628216 -0.14758916 0.09884425 90 129 0
-0.11682439 -0.14710850 0.10037927 58 93 3
-0.11297478 -0.15802966 0.08654974 86 134 0
-0.11355964 -0.15887378 0.08414085 68 111 4
-0.11132357 -0.15821800 0.09324919 55 94 0
-0.11882038 -0.15728931 0.10363120 83 123 50
-0.11846390 -0.15802695 0.10259334 79 118 35
-0.10840785 -0.16097422 0.16378997 68 99 42
-0.11510554 -0.16231334 0.08646421 58 92 41
-0.11681576 -0.16045167 0.08690594 68 107 40
-0.11622192 -0.15999551 0.09847159 73 111 28
-0.11265659 -0.15144564 0.11092370 107 139 4
-0.11298085 -0.15083794 0.10308662 96 141 12
-0.11899835 -0.14388016 0.08249176 120 155 25
-0.12030528 -0.15642740 0.08713735 87 125 50
-0.09268746 -0.14049254 0.18751454 99 125 26
-0.09778823 -0.14462312 0.17827138 124 148 60
-0.09201807 -0.13956296 0.19471267 138 167 49
-0.09109469 -0.13812499 0.19564372 156 186 64
-0.09090551 -0.13779545 0.19744270 122 150 40
-0.11168543 -0.14849575 0.13907233 161 192 54
-0.10742816 -0.14902557 0.14283837 150 179 11
-0.11033985 -0.14914937 0.13720462 84 109 5
-0.12663147 -0.15336362 0.09828392 113 117 102
-0.11839161 -0.14606014 0.11348446 84 108 0
-0.11818941 -0.14683419 0.11290686 135 161 38
-0.11935207 -0.15730584 0.08490374 135 177 95
-0.11937995 -0.15760677 0.08700244 126 164 81
-0.11810637 -0.15886620 0.08603187 66 104 27
-0.10328904 -0.14934158 0.15234587 86 124 15
-0.09241524 -0.14160235 0.18456279 116 149 32
-0.09369989 -0.14414696 0.18200424 121 155 35
-0.08880381 -0.14505439 0.18605745 118 146 36
-0.09200844 -0.14334004 0.18400648 115 151 17
-0.08801898 -0.14168146 0.19564073 148 173 55
-0.08841427 -0.14285548 0.19018608 130 162 35
-0.08957858 -0.13887054 0.19050786 113 142 36
-0.08792056 -0.14222035 0.19516866 158 183 63
-0.08774246 -0.15517536 0.18258008 33 75 0
-0.08852790 -0.15065464 0.18292582 37 74 0
-0.08894414 -0.15662847 0.17998669 73 117 22
-0.09946249 -0.14888242 0.16931483 126 155 11
-0.09862622 -0.14964920 0.17045820 139 172 5
-0.09415777 -0.14868496 0.17757513 67 97 0
-0.09686001 -0.14636104 0.17747253 84 116 7
-0.09448212 -0.14924954 0.17653199 144 180 30
-0.09070134 -0.15148897 0.17926407 35 72 0
-0.08895334 -0.14969429 0.18269022 42 77 0
-0.09284905 -0.15194856 0.17621076 38 77 0
-0.09057875 -0.15854576 0.17730431 95 137 25
-0.09237985 -0.15944679 0.17448221 30 67 0
-0.09401990 -0.15662067 0.17082801 38 74 10
-0.09413911 -0.15487276 0.17140482 36 78 14
-0.09707220 -0.15357481 0.16810468 54 89 5
-0.11643884 -0.15133272 0.10637616 71 111 0
-0.11498012 -0.15030804 0.10261450 47 88 0
-0.12038746 -0.14343402 0.10395660 96 119 49
-0.12433705 -0.14169197 0.12436441 93 103 6
-0.12083093 -0.14216019 0.12699358 166 184 74
-0.11911976 -0.14194165 0.12074286 130 155 53
-0.10556439 -0.14972872 0.15543765 122 152 20
-0.10367777 -0.14871643 0.15724732 58 92 6
-0.11540327 -0.15045333 0.08082464 168 205 30
0.16767599 -0.05524034 0.19272637 221 223 96
0.16176094 -0.06991228 0.20104989 169 174 30
0.16039053 -0.07372507 0.20675571 193 195 23
0.16436468 -0.07237682 0.20010412 221 222 24
0.16697846 -0.05865996 0.19564615 182 189 51
0.16075063 -0.06343558 0.19985925 154 163 20
0.16348673 -0.06002593 0.19851929 167 180 48
0.16459641 -0.05537523 0.19763809 152 163 33
0.16473523 -0.05520064 0.19749725 152 163 33
0.16388488 -0.05824113 0.19837813 157 168 38
0.16277483 -0.08637983 0.20939799 206 201 0
0.16028477 -0.05259949 0.19716553 159 163 24
0.15601408 -0.07814288 0.21050480 232 222 13
0.15844223 -0.07824506 0.20947002 164 177 10
0.15877874 -0.12911955 0.21733822 86 100 0
0.15911116 -0.12755291 0.21681195 199 211 49
0.15774566 -0.12865324 0.21759908 38 69 1
0.14560917 -0.09283663 0.21665065 108 122 0
0.14553024 -0.09132943 0.21607274 190 197 3
0.14500299 -0.09533056 0.21881834 102 134 11
0.14739096 -0.10479279 0.22265440 115 132 26
0.14717740 -0.10924242 0.21917787 76 94 10
0.14864379 -0.09237529 0.21498768 213 217 8
0.14908344 -0.10622879 0.21535850 92 116 2
0.14962403 -0.10767339 0.21470782 74 106 0
0.14688000 -0.07330891 0.22420615 179 195 11
0.14503774 -0.07318956 0.22578800 193 210 20
0.14622381 -0.07084768 0.22337678 155 172 6
0.15822500 -0.05000085 0.19242384 167 170 37
0.15448995 -0.06273194 0.20139596 211 210 31
0.15742934 -0.05542216 0.19828743 177 182 27
0.15787101 -0.05251190 0.19566002 161 166 14
0.15630044 -0.05965173 0.19943593 178 180 21
0.14816026 -0.10292891 0.21622658 55 84 0
0.14800745 -0.10262754 0.21637659 56 87 0
0.14544547 -0.10072475 0.21958391 83 113 15
0.15457204 -0.10445552 0.21269950 218 212 4
0.15719043 -0.09920167 0.21242112 190 191 0
0.15969636 -0.09578083 0.21051492 220 220 8
0.15925598 -0.09218735 0.21102588 206 204 5
0.15355712 -0.09231171 0.21287623 225 220 4
0.15856412 -0.10205153 0.21178885 225 214 0
0.15874247 -0.08642063 0.21078171 189 194 13
0.13809063 -0.04281726 0.19773224 169 176 2
0.15022883 -0.09195331 0.21437447 201 203 5
0.15951785 -0.09667031 0.22683215 201 201 89
0.16140510 -0.09889513 0.22695081 210 215 87
0.16327888 -0.09794432 0.22623368 244 240 166
0.14602080 -0.07065111 0.21436328 204 209 19
0.14610946 -0.06871242 0.20845509 144 169 13
0.14297077 -0.06349535 0.20782378 178 184 22
0.14427775 -0.06719942 0.21118195 230 228 31
0.14575574 -0.06318174 0.20343630 176 186 25
0.14319661 -0.06205573 0.20489545 197 207 58
0.14073117 -0.05993281 0.20414303 160 159 6
0.14170730 -0.05725336 0.19934402 168 171 42
0.13989793 -0.06881490 0.22087030 153 171 0
0.14322840 -0.07217540 0.22261868 207 226 13
0.14145139 -0.07253902 0.22326799 188 200 0
0.15883614 -0.06969603 0.20241095 158 167 16
0.15540974 -0.07110415 0.20503443 214 210 25
0.15109919 -0.07183146 0.21976590 227 232 24
0.15394938 -0.07616007 0.22063544 212 216 18
0.16428375 -0.04743450 0.19113576 189 192 39
0.16685945 -0.04667552 0.18491204 135 138 23
0.14128216 -0.05064312 0.19757754 162 166 17
0.14014995 -0.04725042 0.19714516 162 171 18
0.13807429 -0.04990501 0.19851257 193 196 21
0.14268731 -0.05588938 0.19809194 179 183 47
0.14566255 -0.05023269 0.19167490 168 179 40
0.14523186 -0.04769913 0.19335209 183 189 29
0.14635922 -0.04567605 0.19317612 179 188 17
0.14768451 -0.06697743 0.20545569 175 180 25
0.14645600 -0.06929016 0.20871949 139 158 4
0.14850177 -0.07098448 0.20888688 230 224 14
0.15301237 -0.07082598 0.20520556 172 173 7
0.15655008 -0.07490319 0.20928602 166 167 0
0.15559241 -0.07531963 0.20992979 171 175 2
0.15047254 -0.11851849 0.21792176 109 129 42
0.15192196 -0.11809970 0.21576551 39 78 0
0.15139480 -0.07929557 0.21379474 184 191 0
0.14903606 -0.07737813 0.21511485 203 209 11
0.15267958 -0.08229779 0.21407826 183 186 0
0.14861159 -0.08060225 0.21570097 193 195 0
0.15049013 -0.08876233 0.21336530 199 201 3
0.15062203 -0.08586187 0.21456572 200 201 0
0.15580818 -0.08599834 0.22454198 180 191 37
0.15287989 -0.08354877 0.22546259 183 192 5
0.16278943 -0.08414800 0.22086105 218 224 102
0.15929686 -0.08206378 0.22110157 238 233 55
0.15941399 -0.08815654 0.22370319 217 214 73
0.14683099 -0.08531048 0.21467781 223 223 11
0.14335334 -0.05238279 0.19661482 170 171 44
0.13992494 -0.07724577 0.22228637 162 179 3
0.14125612 -0.07822951 0.22100052 194 194 0
0.17279330 -0.08912603 0.22293019 233 231 108
0.17550474 -0.08266332 0.22057793 240 240 128
0.17618468 -0.08470913 0.22143406 203 208 90
0.17680709 -0.08771936 0.22147942 190 196 72
0.17246005 -0.08898800 0.22284815 225 222 119
0.16693021 -0.08498292 0.22076735 235 236 134
0.17127690 -0.08345091 0.22055194 226 219 103
0.14771250 -0.05558213 0.19467533 198 199 45
0.15167043 -0.05553928 0.19179568 198 205 47
0.14911135 -0.05669854 0.19564286 129 146 18
