-0.29250950 -0.33220363 0.02881114 225 223 110
-0.29079780 -0.29286790 0.04344790 191 208 102
-0.29729980 -0.31033686 0.03938369 204 217 138
-0.27180982 -0.24383385 0.03256974 175 195 38
-0.27896300 -0.29352644 0.05085333 177 206 38
-0.30570507 -0.34626058 0.02325731 225 232 74
-0.30052960 -0.34348983 0.02531723 240 242 145
-0.29981640 -0.34472394 0.02440361 229 230 111
-0.28224722 -0.30845541 0.04442511 156 178 67
-0.28963897 -0.31818077 0.03743226 181 195 82
-0.27676544 -0.24155308 0.02931076 137 173 21
-0.28783166 -0.27793008 0.03966458 211 234 120
-0.29612610 -0.32496005 0.03473345 232 232 120
-0.29764882 -0.33216625 0.03104821 213 218 126
-0.31269428 -0.34258026 0.02370445 217 218 52
-0.27455890 -0.23869196 0.02899541 162 182 0
-0.27962825 -0.30265254 0.04498524 139 162 0
-0.27612573 -0.24295431 0.02803328 150 186 0
-0.31068179 -0.31233966 0.03568435 219 236 158
-0.31024215 -0.31226620 0.03626487 245 249 175
-0.28949389 -0.30745518 0.04371501 249 247 164
-0.30188173 -0.29636237 0.03382469 136 165 25
-0.30329189 -0.29790792 0.03120619 126 157 2
-0.28506890 -0.26432040 0.03600911 126 155 0
-0.27897793 -0.25055447 0.03546801 208 232 60
-0.28115648 -0.25461179 0.03475959 177 211 29
-0.27896303 -0.24805050 0.03106724 119 165 14
-0.28223759 -0.30523652 0.04737845 210 223 143
-0.28517970 -0.29991788 0.04793350 165 183 49
-0.27560544 -0.27123180 0.03863725 235 243 62
-0.27370593 -0.26852614 0.03267169 154 175 18
-0.28381726 -0.28167841 0.04330711 249 251 64
-0.32695156 -0.33005998 0.03376068 232 246 133
-0.30913997 -0.31506819 0.03599766 227 235 113
-0.27208224 -0.23878814 0.03256596 157 175 15
-0.28917027 -0.32529742 0.03134038 175 184 79
-0.28472918 -0.31570926 0.03537279 147 164 93
-0.31952441 -0.32862273 0.03403724 230 239 68
-0.32566562 -0.35327402 0.01184131 206 215 46
-0.31886134 -0.32991433 0.03414103 222 233 67
-0.31060424 -0.32678735 0.03270923 226 231 69
-0.31288639 -0.32374629 0.03477904 232 236 81
-0.29800969 -0.31651622 0.03744774 236 238 128
-0.29875270 -0.31882849 0.03633171 240 240 130
-0.30298728 -0.31999016 0.03581871 197 212 111
-0.30249152 -0.31694889 0.03694619 231 245 158
-0.31168729 -0.33671007 0.02818181 234 232 69
-0.30698726 -0.33194083 0.03060593 229 237 138
-0.30870786 -0.30819568 0.03528829 198 218 93
-0.30360901 -0.29750296 0.02954086 117 150 1
-0.32148576 -0.34975827 0.01754449 217 224 48
-0.31693080 -0.33660477 0.02909346 227 232 70
-0.31685218 -0.33669651 0.02901507 227 232 70
-0.32373980 -0.33752993 0.03049562 211 215 40
-0.32256985 -0.34167403 0.02676787 205 211 41
-0.30130967 -0.32294440 0.03455795 218 229 124
-0.31448314 -0.34631905 0.02059061 204 210 48
-0.31628284 -0.34752646 0.01953470 214 216 53
-0.27106020 -0.25670648 0.02897142 119 134 0
-0.30663976 -0.32781488 0.03270636 199 217 97
-0.31163153 -0.33445227 0.02933373 236 237 83
-0.27959013 -0.25456378 0.03623256 211 233 60
-0.32925114 -0.33648941 0.03178499 200 216 65
-0.32662901 -0.33357543 0.03301225 200 211 72
-0.31476453 -0.35228106 0.01480357 223 219 32
-0.30522886 -0.31332910 0.03671350 237 242 113
-0.30307987 -0.31056365 0.03757447 223 234 130
-0.29216933 -0.32659698 0.03233674 183 198 97
-0.28645056 -0.28164211 0.04207340 181 201 52
-0.27802965 -0.30058119 0.04738658 181 197 2
-0.30140272 -0.29832229 0.03755314 211 228 96
-0.29722604 -0.29765594 0.04005958 224 231 177
-0.27988964 -0.25039688 0.02971102 102 154 9
-0.30967134 -0.34963048 0.01911410 205 212 44
-0.30007559 -0.30891666 0.03848506 217 231 144
-0.30215734 -0.30588877 0.03827516 241 245 161
-0.30427998 -0.34395552 0.02505435 239 234 117
-0.30247691 -0.35436696 0.02023707 220 229 114
-0.26551053 -0.23746948 0.02388795 139 160 21
-0.25408372 -0.20402263 0.00449323 81 110 0
-0.26253039 -0.22533789 0.01652802 82 101 0
-0.26409951 -0.23090915 0.01969828 126 151 5
-0.26354563 -0.23905607 0.02306585 101 126 0
-0.25316060 -0.20780544 0.00738510 78 98 0
-0.26682889 -0.23980555 0.02456549 144 167 24
-0.26492584 -0.23362638 0.02079350 153 174 35
-0.29249868 -0.41154918 -0.00530287 216 217 89
-0.28774163 -0.42136094 0.00472548 214 218 79
-0.31818259 -0.41651943 -0.02040763 214 226 32
-0.31918350 -0.41575137 -0.02202368 201 216 29
-0.27998248 -0.44691715 0.02441169 174 193 15
-0.27731830 -0.44902560 0.02625980 199 214 53
-0.28663388 -0.43337259 0.00851537 211 214 85
-0.28494760 -0.43326887 0.00831144 255 248 108
-0.29712111 -0.42630807 0.00399324 255 252 132
-0.29367542 -0.42324099 0.00405675 251 249 146
-0.28825927 -0.43153363 0.00814963 216 220 107
-0.28854153 -0.43142471 0.00816515 218 222 111
-0.28481093 -0.44029689 0.01658894 191 197 11
-0.30214909 -0.42258525 -0.00252957 227 230 79
-0.28515574 -0.44304994 0.01945016 194 208 24
-0.29009911 -0.43851602 0.01292241 190 205 18
-0.30517665 -0.41024220 -0.02306027 226 231 69
-0.29137459 -0.40766653 -0.01779113 222 236 91
-0.29978260 -0.40107074 -0.01902683 216 226 67
-0.29582736 -0.45728832 -0.00000523 145 164 20
-0.29048800 -0.45935726 -0.00018179 97 127 5
-0.29802293 -0.41070157 -0.01811276 207 217 56
-0.26826406 -0.43997771 0.01093883 143 162 18
-0.29669297 -0.44655573 0.01478991 202 218 68
-0.30623692 -0.40058875 -0.02893756 208 209 79
-0.29374278 -0.41043469 -0.01354422 126 140 3
-0.33130687 -0.42249802 -0.01256794 203 205 36
-0.30396268 -0.40467879 -0.02455355 221 222 102
-0.30513695 -0.41889504 -0.00850908 210 212 87
-0.30732968 -0.41453409 -0.01927741 210 211 47
-0.29785502 -0.41176707 -0.01808079 177 183 31
-0.32190970 -0.42683601 -0.00738686 221 226 74
-0.28670907 -0.42092451 -0.00355630 202 206 49
-0.31252134 -0.44805840 0.00052177 150 161 23
-0.32013205 -0.44467348 -0.00689152 98 116 32
-0.29275900 -0.41027212 -0.00976203 121 135 0
-0.27856776 -0.42876798 0.00316308 168 181 5
-0.29740241 -0.40959916 -0.02160379 226 230 107
-0.29898751 -0.41370931 -0.00293608 220 221 19
-0.30731815 -0.39504963 -0.00948411 109 144 2
-0.27933306 -0.44118309 0.01147057 215 212 35
-0.27834636 -0.43662897 0.00872798 189 194 16
-0.29121733 -0.45040658 -0.00019848 136 185 5
-0.30470115 -0.38644162 0.00363406 164 177 69
-0.27648485 -0.43176883 0.00441482 183 193 10
-0.29555255 -0.41194263 -0.01214186 180 196 11
-0.28291675 -0.42346045 0.00399519 246 245 105
-0.28332150 -0.45311505 0.00482256 137 165 2
-0.27722636 -0.45520118 0.00972756 190 213 9
-0.29463813 -0.41529891 0.00154068 234 242 105
-0.28801876 -0.41917586 0.00382596 253 252 136
-0.29191881 -0.45742574 0.00878797 161 174 24
-0.29442412 -0.45603657 0.00950094 191 197 39
-0.27540946 -0.44549206 0.02085554 164 175 0
-0.30469593 -0.40051958 -0.01904468 157 172 11
-0.32767615 -0.42283425 -0.01225442 250 244 98
-0.27865365 -0.44186795 0.01264905 223 227 44
-0.29929045 -0.41319376 -0.00733800 186 186 56
-0.30751067 -0.42584461 -0.00353959 180 204 90
-0.30238879 -0.42961746 0.00287726 175 202 63
-0.30032974 -0.40075827 -0.02054809 205 218 24
-0.30410743 -0.42126846 -0.00404375 206 216 33
-0.30218059 -0.42662752 0.00047846 226 232 62
-0.32623485 -0.43387231 -0.00409436 191 201 66
-0.32286713 -0.43514571 -0.00466857 171 188 12
-0.29753181 -0.40709168 -0.02125062 209 214 70
-0.29187787 -0.40887693 -0.01475154 123 139 7
-0.29307169 -0.41258436 0.00134217 255 255 156
-0.30649254 -0.41599059 -0.01548799 209 219 8
-0.30138132 -0.41454944 -0.01154808 191 204 10
-0.27672711 -0.46621865 0.00188096 155 176 45
-0.33409131 -0.42671219 -0.00785103 232 242 67
-0.27446342 -0.43676317 0.00624413 204 212 13
-0.28665355 -0.42363611 0.00531467 223 231 84
-0.30485484 -0.41381630 -0.01606786 152 161 0
-0.31486174 -0.42486799 -0.00976982 207 211 36
-0.31242272 -0.42860228 -0.00452494 218 229 37
-0.29773244 -0.41110098 -0.02034062 223 225 100
-0.27932811 -0.45740551 0.00550667 149 179 6
-0.27677155 -0.43998897 0.01145729 223 221 76
-0.29883751 -0.42306235 0.00140959 234 244 95
-0.30021966 -0.42049649 -0.00074327 197 210 32
-0.31142211 -0.43296906 0.00154683 218 223 71
-0.31904119 -0.36437848 -0.00003289 201 205 20
-0.31463808 -0.36883190 0.00040964 186 203 26
-0.31670195 -0.36687884 -0.00002419 179 194 7
-0.31512967 -0.42480138 -0.00804465 223 233 50
-0.31340846 -0.42695859 -0.00496729 224 231 53
-0.31913832 -0.44019228 -0.00763418 194 204 53
-0.31656542 -0.44027594 0.00286379 210 221 91
-0.29215303 -0.43792811 0.01185052 200 218 44
-0.29237947 -0.43748814 0.01145969 202 220 46
-0.29220524 -0.43804508 0.01194067 204 223 54
-0.28565350 -0.44559363 0.02097796 174 196 26
-0.29096967 -0.44603896 0.01892761 174 196 85
-0.27920446 -0.43144044 0.00596916 236 235 65
-0.31014523 -0.44775006 0.00302621 237 232 86
-0.30270073 -0.45077929 -0.00573075 80 109 3
-0.31824455 -0.44456381 -0.00959524 158 181 13
-0.30320376 -0.39353353 -0.02154986 170 190 31
-0.29238975 -0.42139873 0.00383296 253 253 163
-0.28491360 -0.41033247 -0.00044839 195 207 61
-0.28554079 -0.40753439 -0.00406620 197 206 39
-0.27925709 -0.43970653 0.01147879 195 205 10
-0.30965146 -0.39285108 -0.00378627 117 138 21
-0.30865905 -0.41436994 -0.02107833 201 204 25
-0.31176105 -0.41692922 -0.01982475 193 207 24
-0.32002351 -0.42510143 -0.00970922 230 228 91
-0.32151532 -0.42450315 -0.01067138 203 212 21
-0.31513333 -0.42039186 -0.01646794 156 185 7
-0.30995464 -0.42114922 -0.01118550 161 181 21
-0.33049893 -0.41922677 -0.02030781 228 224 65
-0.31171572 -0.43156773 -0.00110623 216 225 36
-0.29133490 -0.42538092 0.00492499 241 236 106
-0.29813665 -0.41836533 -0.00342715 225 225 113
-0.30198723 -0.42519626 -0.00063502 207 218 17
-0.30147880 -0.42477417 -0.00038913 207 217 7
-0.29232925 -0.42319858 0.00433909 240 235 107
-0.32515043 -0.42328545 -0.01088463 213 211 40
-0.26456967 -0.44046256 0.01478164 173 183 26
-0.28405991 -0.41487762 -0.00302583 211 223 65
-0.26817328 -0.43989378 0.01208471 179 198 18
-0.30370483 -0.39199314 -0.01635998 127 155 8
-0.30326504 -0.39272192 -0.02096184 135 160 6
-0.33472857 -0.43395904 -0.00727110 203 229 16
-0.33824864 -0.42845875 -0.00953468 194 216 20
-0.29491603 -0.45251971 -0.00483985 177 190 14
-0.31279516 -0.39749727 -0.00679475 148 161 19
-0.31097433 -0.35579020 0.01244200 207 215 33
-0.30932719 -0.41033173 -0.02822938 217 220 81
-0.31855756 -0.43379515 -0.00063181 253 250 137
-0.30331382 -0.39798081 -0.02293835 195 207 21
-0.30455366 -0.39664152 -0.02621931 191 200 45
-0.29729941 -0.43441382 0.00693673 182 200 2
-0.29646227 -0.43260917 0.00657776 181 192 0
-0.30445853 -0.43320301 0.00125802 113 147 1
-0.30439514 -0.43903258 -0.00242346 183 197 14
-0.30543467 -0.43433556 -0.00051740 164 189 1
-0.32877707 -0.42518523 -0.00908921 243 240 97
-0.29697943 -0.41236007 -0.01134190 135 151 1
-0.28200185 -0.46382254 0.00167575 81 108 3
-0.31380656 -0.40480512 -0.04192040 199 205 69
-0.31436583 -0.40486103 -0.04280204 187 195 58
-0.30398801 -0.45247436 0.00220683 205 198 65
-0.28575867 -0.44863224 0.00618581 159 190 0
-0.28754672 -0.44943854 0.00361045 137 175 2
-0.30751491 -0.39953214 -0.01495091 149 162 12
-0.29211879 -0.45749658 0.00803030 166 180 31
-0.31390709 -0.40665922 -0.01838150 200 206 44
-0.30910453 -0.43289140 0.00233440 222 232 81
-0.26889566 -0.47480828 0.01099826 131 154 14
-0.27789995 -0.47151035 0.00975169 106 137 0
-0.30579841 -0.45178589 0.00074388 169 178 51
-0.29121470 -0.40841821 -0.01295857 199 222 10
-0.29164627 -0.40778005 -0.01069472 198 223 17
-0.29820660 -0.41161177 -0.00521899 187 203 6
-0.29596096 -0.40938988 -0.00515273 199 212 18
-0.32980597 -0.43972579 -0.00681173 130 149 34
-0.30424869 -0.38966227 -0.01081860 128 153 7
-0.29298106 -0.41793185 -0.00434361 221 224 85
-0.27887884 -0.46355101 0.00010989 139 159 2
-0.30366859 -0.36530483 0.01424950 187 207 74
-0.30312037 -0.36020106 0.01783217 227 237 102
-0.30689073 -0.36906585 0.01157726 145 172 0
-0.29661247 -0.45735854 0.00078387 129 149 16
-0.29202223 -0.46016955 0.00216283 141 168 25
-0.29556948 -0.43030655 0.00582907 214 216 55
-0.31751674 -0.40253514 -0.01454177 161 171 22
-0.31683138 -0.44321054 -0.00886496 167 181 10
-0.31640524 -0.44399026 -0.00901003 150 167 0
-0.33239326 -0.42034605 -0.01843068 184 189 24
-0.31145102 -0.40291959 -0.01419275 155 165 17
-0.30739558 -0.40586931 -0.02049957 189 196 38
-0.31038669 -0.40251005 -0.03561017 216 223 85
-0.30964857 -0.40370262 -0.03344836 233 234 115
-0.30234975 -0.38557479 -0.00361875 165 186 29
-0.30567175 -0.44587108 0.00882353 223 230 100
-0.28354728 -0.44287646 0.01068026 193 199 3
-0.28363028 -0.44556487 0.01061745 206 221 6
-0.30641615 -0.44232416 -0.00478664 202 208 36
-0.27142215 -0.44278952 0.01558076 216 217 54
-0.26961085 -0.44375676 0.01924684 208 212 66
-0.29712188 -0.41408959 -0.00541749 189 194 52
-0.33724573 -0.42948550 -0.00560972 205 217 91
-0.30842566 -0.37700588 0.00626820 144 177 0
-0.29102081 -0.45625338 -0.00336336 104 124 1
-0.30986407 -0.42344204 -0.00897594 143 173 0
-0.30726707 -0.42293376 -0.00816025 178 194 9
-0.32776663 -0.44078523 -0.00765047 167 189 44
-0.32379064 -0.44304600 -0.00561867 138 163 33
-0.31155241 -0.42835620 -0.00267849 225 233 70
-0.30003825 -0.42670518 0.00166753 221 229 20
-0.30434859 -0.38869202 0.00011497 132 157 27
-0.30394211 -0.38817602 0.00010738 132 158 31
-0.28295571 -0.44648007 0.02280978 215 222 28
-0.28969109 -0.40463722 -0.00478904 186 213 24
-0.26689771 -0.44263008 0.03083995 209 210 30
-0.27108017 -0.44667971 0.02477591 239 236 81
-0.28924680 -0.42174283 0.00220946 206 208 62
-0.26573381 -0.43981850 0.02347552 194 199 21
-0.27239162 -0.45050344 0.03138665 209 219 34
-0.27460197 -0.45203221 0.03142112 221 231 72
-0.29380509 -0.42110929 0.00243098 232 228 92
-0.32458174 -0.42498103 -0.00893315 215 214 44
-0.30972144 -0.41188458 -0.01837607 199 210 18
-0.31027719 -0.42193648 -0.00936701 173 194 67
-0.30896735 -0.41703364 -0.01604102 177 198 0
-0.32181716 -0.41546711 -0.02660187 222 224 29
-0.26469252 -0.44044745 0.01523200 193 202 35
-0.32559165 -0.44160736 -0.00327120 163 181 37
-0.31068435 -0.43846703 0.00537553 244 248 128
-0.28901294 -0.40895227 -0.00623238 177 186 35
-0.29225838 -0.45759094 -0.00141816 104 133 27
-0.26884356 -0.44229746 0.02417687 220 221 67
-0.29058373 -0.41396183 -0.00403426 221 217 91
-0.32271338 -0.42392573 -0.01155546 206 212 28
-0.32058373 -0.42169321 -0.01444823 240 239 89
-0.31983531 -0.41835937 -0.02016937 238 239 60
-0.31943321 -0.41980684 -0.01749286 244 244 58
-0.27952865 -0.45944446 0.00314330 153 180 15
-0.27524629 -0.46408555 0.00308487 136 159 9
-0.29565153 -0.42108133 0.00154519 233 230 99
-0.33295149 -0.42366871 -0.01175501 211 215 43
-0.26932690 -0.46841344 0.00979308 133 156 6
-0.32016766 -0.44350716 -0.00082631 218 227 72
-0.31788352 -0.40901908 -0.02082968 176 187 0
-0.33327469 -0.42067084 -0.02004108 204 205 49
-0.32497209 -0.41601303 -0.02551356 216 217 51
-0.32703891 -0.41773912 -0.02338156 206 205 63
-0.31749359 -0.41141286 -0.03527208 123 139 4
-0.31930366 -0.40904185 -0.04326664 116 138 4
-0.31851384 -0.41065088 -0.03862081 117 137 4
-0.29201505 -0.45368540 -0.00338804 162 177 0
-0.31683370 -0.43187994 -0.00290747 226 235 68
-0.28451461 -0.44593680 0.01040739 194 211 0
-0.29583004 -0.44162866 0.00521585 138 167 1
-0.29193255 -0.44434634 0.00547774 168 191 0
-0.31077856 -0.36446810 0.00686143 164 181 7
-0.31029522 -0.36372623 0.00820388 162 179 2
-0.31941280 -0.44029349 0.00125914 254 251 134
-0.28581461 -0.40798920 -0.00180192 154 164 39
-0.30854297 -0.35942852 0.01321898 187 203 19
-0.30866581 -0.36048567 0.01260685 173 192 6
-0.32795197 -0.43033844 -0.00484670 223 222 106
-0.30718288 -0.40894619 -0.02174368 230 237 72
-0.32704973 -0.41552860 -0.02931260 184 189 27
-0.30859408 -0.36892608 0.00975185 179 206 7
-0.30946559 -0.37478650 0.00588149 142 171 1
-0.32282352 -0.41235116 -0.03481187 181 192 2
-0.32266703 -0.41025355 -0.04123320 138 166 4
-0.30677685 -0.36173311 0.01468094 181 203 16
-0.30647877 -0.45219111 -0.00262473 167 171 25
-0.30993330 -0.44325539 -0.00655127 184 195 5
-0.30791786 -0.44493106 -0.00646490 191 203 19
-0.32140413 -0.41417217 -0.03011840 182 200 2
-0.32594958 -0.41821072 -0.01967068 195 200 22
-0.30443028 -0.45079663 0.00587696 186 190 44
-0.28496927 -0.46313873 0.00706755 172 182 7
-0.28788963 -0.45988956 0.00893934 127 148 0
-0.32995328 -0.41241574 -0.03693803 225 225 103
-0.32472810 -0.42151988 -0.01484842 212 214 25
-0.27468294 -0.46648678 0.00185766 171 183 49
-0.32565838 -0.35674381 0.00713664 214 217 38
-0.31362134 -0.39554971 -0.00517546 148 163 34
-0.27761668 -0.47187483 0.00992757 128 162 16
-0.27538010 -0.47383037 0.01085480 107 139 4
-0.30528721 -0.39057171 -0.00240590 128 153 26
-0.27026919 -0.44288379 0.01600578 210 223 12
-0.26610491 -0.44364831 0.01840163 187 205 0
-0.26326796 -0.44143304 0.01751727 192 205 0
-0.29254240 -0.41763824 -0.00428664 224 225 98
-0.29528600 -0.43994063 0.01312249 178 204 79
-0.29862970 -0.43668291 0.00943200 181 205 93
-0.28018770 -0.43314353 0.00666576 218 220 33
-0.30618724 -0.40722346 -0.02682811 221 223 126
-0.29721364 -0.44611663 0.01440149 201 218 77
-0.30091774 -0.44199052 0.01128484 214 234 113
-0.30593389 -0.41781220 -0.01005969 224 227 26
-0.33444929 -0.43479714 -0.00656354 199 225 32
-0.31059122 -0.38977507 0.00086609 171 195 23
-0.28256091 -0.41602117 -0.00268478 186 191 73
-0.28282207 -0.46364036 0.01323445 180 184 12
-0.28820211 -0.45924190 0.01048900 181 190 9
-0.30629015 -0.43105340 0.00229814 179 204 76
-0.30357212 -0.43627542 0.00695646 192 218 93
-0.30059460 -0.37340811 0.01020191 180 204 94
-0.32548171 -0.43264896 -0.00265111 249 249 137
-0.30286708 -0.37801027 0.00854215 188 211 69
-0.31211743 -0.41873094 -0.01480681 157 184 27
-0.31404868 -0.41540775 -0.02011917 145 175 2
-0.28859919 -0.42999870 0.00619648 252 243 116
-0.31150681 -0.39824414 -0.00866679 136 147 6
-0.31810844 -0.40560925 -0.01898146 196 200 53
-0.30227035 -0.43707561 0.00075831 191 212 19
-0.30170053 -0.43965861 -0.00082879 203 218 37
-0.31428328 -0.38226175 -0.00139826 143 167 0
-0.30729526 -0.37972307 0.00687332 148 182 0
-0.31545335 -0.41054809 -0.02055119 195 202 8
-0.32693887 -0.35289171 0.01242279 183 192 25
-0.31118190 -0.38435301 0.00180636 131 160 0
-0.30945078 -0.38010040 0.00442791 140 173 4
-0.32124361 -0.36020789 0.00469689 230 225 45
-0.32621422 -0.36177158 0.00094081 217 214 39
-0.31558785 -0.35368970 0.01306360 215 214 36
-0.31389025 -0.35304660 0.01399056 210 209 31
-0.33797410 -0.42587525 -0.00962394 183 200 46
-0.31051499 -0.41313288 -0.02460243 183 193 8
-0.31320471 -0.40960371 -0.03233522 207 212 48
-0.29321876 -0.45366627 0.01586674 194 199 34
-0.29625344 -0.45387617 0.01188312 171 184 19
-0.27543953 -0.44426844 0.01377544 217 224 48
-0.26927888 -0.47303072 0.00947262 156 174 28
-0.33038050 -0.35338429 0.01253312 190 195 17
-0.33184642 -0.35342070 0.01410804 197 203 33
-0.30285722 -0.44783789 0.01051380 242 244 109
-0.30578017 -0.44687867 0.00809995 206 219 77
-0.26517466 -0.44359076 0.03247440 161 172 18
-0.25375402 -0.47032517 0.02263649 204 212 65
-0.25604048 -0.49235338 0.04087808 232 241 70
-0.21299465 -0.50609034 0.04077999 162 184 24
-0.21183969 -0.51004523 0.04005235 215 222 46
-0.19961885 -0.51587015 0.01954890 107 128 1
-0.23222497 -0.50296485 0.03982504 183 208 52
-0.26459324 -0.46791968 0.03770106 218 234 84
-0.26318517 -0.47695589 0.03850304 186 214 103
-0.19838122 -0.51342583 0.01679834 159 176 10
-0.25501001 -0.49752057 0.04256893 206 219 41
-0.20661257 -0.51195174 0.03899909 152 173 16
-0.23666634 -0.48612922 0.03318085 202 213 15
-0.27000657 -0.46910390 0.03531915 210 236 135
-0.26795676 -0.49204293 0.02703980 80 109 3
-0.27339163 -0.45506892 0.03277384 228 233 71
-0.20838656 -0.53458643 -0.00466450 122 153 13
-0.26103327 -0.44354439 0.02174581 193 211 5
-0.24450940 -0.50098395 0.04007063 183 213 0
-0.23739132 -0.50366497 0.03721829 134 173 2
-0.19956109 -0.51195186 0.03146069 141 156 0
-0.24440463 -0.47444373 0.02569699 202 214 46
-0.24079421 -0.51229823 0.03416799 225 237 7
-0.24745177 -0.49205303 0.04046001 193 217 107
-0.17882591 -0.55301136 -0.01484928 84 111 44
-0.19762605 -0.50863791 0.02201137 152 158 60
-0.26527119 -0.49115300 0.02496738 83 123 1
-0.26792097 -0.48234132 0.01769407 78 117 0
-0.24012665 -0.50686598 0.03803761 178 210 2
-0.27646834 -0.47287452 0.01673270 152 167 14
-0.18482031 -0.54716498 -0.01539555 52 86 0
-0.26652572 -0.44903332 0.01921761 193 209 41
-0.24773662 -0.49640843 0.03913718 168 201 6
-0.20183374 -0.51787508 0.02481413 104 127 0
-0.26050186 -0.49105275 0.02555879 191 208 6
-0.17118131 -0.55958456 -0.02956367 101 124 56
-0.20719825 -0.50366473 0.04069946 141 162 0
-0.26832396 -0.47398150 0.03605464 196 227 90
-0.23598635 -0.48743284 0.03533126 177 188 10
-0.24682678 -0.47535670 0.02968799 166 181 28
-0.24638318 -0.47898310 0.03482998 197 205 32
-0.25321746 -0.46414721 0.03378808 135 141 9
-0.19853359 -0.50659353 0.02749427 155 163 80
-0.23269293 -0.51476127 0.03072381 154 187 8
-0.22491398 -0.49041030 0.03183738 103 120 8
-0.20172289 -0.50708789 0.03795217 107 134 21
-0.18753557 -0.55573922 -0.02319152 50 84 0
-0.20704645 -0.50759655 0.04184692 156 179 13
-0.26313958 -0.45660189 0.03601002 231 232 68
-0.26263100 -0.44996241 0.03401827 187 196 41
-0.22072245 -0.49192834 0.03156446 96 111 18
-0.25264907 -0.45729005 0.02250583 224 232 110
-0.25730604 -0.48353302 0.04034979 171 203 80
-0.20052595 -0.50473905 0.02186168 131 137 39
-0.19157253 -0.54916918 -0.01649649 47 89 0
-0.20759736 -0.50075758 0.02357254 110 117 39
-0.19391483 -0.54442531 -0.01458228 79 115 0
-0.24997488 -0.46519142 0.02846044 111 121 24
-0.16931523 -0.56082243 -0.03010524 110 134 48
-0.25221589 -0.49630770 0.04084489 229 236 44
-0.27011728 -0.46218425 0.01164630 173 198 0
-0.26975548 -0.46249574 0.01183779 175 200 0
-0.22118612 -0.50361609 0.04042963 232 245 52
-0.24091095 -0.47878304 0.02580788 147 170 4
-0.19720906 -0.52739149 -0.00228722 74 107 0
-0.25075442 -0.49010623 0.03581663 143 183 0
-0.23502229 -0.49318188 0.03673232 176 192 0
-0.19291274 -0.53585738 -0.00704617 72 102 0
-0.16610394 -0.56538093 -0.02957692 99 124 43
-0.20420961 -0.50311697 0.02120569 124 132 21
-0.23577501 -0.48477408 0.03164188 176 199 3
-0.21858159 -0.49489391 0.03546146 162 189 12
-0.23061644 -0.49720013 0.03979206 167 196 54
-0.25198212 -0.47119385 0.02695024 145 160 7
-0.22771254 -0.52139890 0.02210246 177 196 8
-0.20113738 -0.50328994 0.02604224 122 134 36
-0.20546891 -0.52833104 -0.00470624 127 166 0
-0.20765866 -0.50116068 0.02201666 147 151 38
-0.17978604 -0.55490571 -0.02248332 61 97 0
-0.24765362 -0.47047943 0.02822838 157 164 34
-0.18083720 -0.55529737 -0.02802473 81 106 2
-0.26123729 -0.45887598 0.01690187 224 237 9
-0.25877240 -0.44883752 0.03129878 161 171 49
-0.27134737 -0.48261151 0.02000594 77 111 1
-0.25367928 -0.45434001 0.02818774 138 150 38
-0.25425625 -0.49607652 0.03052041 208 219 5
-0.23891397 -0.48474309 0.02926869 187 198 16
-0.25499260 -0.46290043 0.01826610 238 248 12
-0.22465840 -0.49228543 0.03473142 177 199 10
-0.24746539 -0.47393408 0.03474869 116 143 12
-0.24330465 -0.46994230 0.02247536 171 171 81
-0.18733984 -0.55343485 -0.02522083 44 82 0
-0.27910805 -0.44877464 0.01190959 223 231 8
-0.27360970 -0.44977215 0.01459470 220 230 11
-0.18789753 -0.54831612 -0.02041943 81 123 11
-0.20155048 -0.50290024 0.03307024 129 136 40
-0.19766456 -0.51145017 0.02310233 171 177 9
-0.21656834 -0.49384293 0.02747375 138 137 83
-0.19942626 -0.51896685 0.01635568 111 139 3
-0.26565543 -0.48357615 0.01937041 86 115 0
-0.26506063 -0.45063832 0.03515217 186 200 53
-0.27749786 -0.45282635 0.01101664 179 205 0
-0.27180052 -0.45617828 0.01261371 212 223 5
-0.25967792 -0.46787363 0.01648576 166 187 0
-0.19972906 -0.51755118 0.01096701 177 180 37
-0.25449336 -0.49789953 0.03155141 186 200 0
-0.23945561 -0.48736522 0.03690200 186 200 1
-0.26384935 -0.47189060 0.01595878 229 242 31
-0.25246412 -0.50684607 0.03831059 187 205 0
-0.20448332 -0.52618158 -0.00080089 92 135 0
-0.21846740 -0.49438530 0.03494260 107 125 0
-0.25047767 -0.50305742 0.04472334 239 236 33
-0.26473498 -0.49527502 0.02775647 81 115 3
-0.22517048 -0.49291921 0.02709081 130 147 17
-0.22123279 -0.49978629 0.03955648 224 227 58
-0.22475030 -0.50178200 0.04046271 215 224 33
-0.21000345 -0.50268120 0.04039481 176 197 30
-0.25134826 -0.49547622 0.03447420 183 213 3
-0.18240900 -0.54838645 -0.01269930 109 143 31
-0.19852155 -0.51927370 0.00904420 126 145 4
-0.17252454 -0.55948049 -0.03407855 20 49 0
-0.24316277 -0.49071285 0.04026336 182 205 75
-0.21523979 -0.50593239 0.04037322 217 234 57
-0.22256067 -0.52160251 0.01622138 129 166 8
-0.22114351 -0.52371287 0.01123495 98 130 3
-0.26551476 -0.45690337 0.01543160 159 184 0
-0.24917924 -0.48211092 0.03821582 168 192 16
-0.23830134 -0.51344752 0.03315410 216 234 2
-0.23230435 -0.48759928 0.03228512 176 200 2
-0.21315753 -0.50606489 0.02249528 195 199 14
-0.20237842 -0.51299644 0.01674471 177 186 19
-0.22230597 -0.51593405 0.02065982 101 133 8
-0.21943523 -0.51766741 0.01911158 97 133 9
-0.20374931 -0.50784945 0.01842679 151 165 20
-0.25632876 -0.47552672 0.02577410 198 216 10
-0.17105946 -0.56076908 -0.03620196 23 52 0
-0.23992635 -0.49648872 0.04086889 180 200 66
-0.22743131 -0.49179122 0.02996287 117 140 0
-0.22643071 -0.50681299 0.02516700 155 181 22
-0.24677111 -0.48531982 0.03900567 158 185 0
-0.20720667 -0.51967758 0.01270071 141 170 2
-0.19521102 -0.53252518 -0.00850106 84 117 13
-0.20946877 -0.50173575 0.02057065 126 146 21
-0.25705704 -0.47988099 0.02788018 135 167 0
-0.23592050 -0.49566782 0.03707416 189 212 16
-0.25327450 -0.48708171 0.04033357 167 197 67
-0.22656326 -0.48965260 0.02749291 120 133 27
-0.24293929 -0.47471356 0.02213194 138 142 31
-0.24450451 -0.48353320 0.03739490 186 196 13
-0.21081285 -0.52759409 0.00145033 63 111 1
-0.21941665 -0.49689263 0.02495923 135 155 22
-0.20558965 -0.51371586 0.01753004 168 175 17
-0.23700210 -0.50463897 0.03638992 122 166 0
-0.22557360 -0.50013894 0.04001417 237 241 60
-0.22961439 -0.49659282 0.03952652 219 226 68
-0.18172774 -0.55124778 -0.00981142 119 144 63
-0.23637551 -0.49982706 0.04010045 182 202 55
-0.21486947 -0.49782541 0.02363966 79 91 0
-0.21950082 -0.51919252 0.01801646 81 122 0
-0.21303269 -0.51731688 0.01680690 106 133 0
-0.25101879 -0.46902612 0.02330576 154 167 51
-0.22458042 -0.50468260 0.02417409 97 125 14
-0.21250419 -0.49634689 0.02979331 128 118 93
-0.20367292 -0.51495600 0.03247201 158 173 8
-0.22937977 -0.48676631 0.02709634 157 164 60
-0.26238683 -0.45379570 0.01943297 213 225 29
-0.25871283 -0.47593939 0.01973662 203 219 0
-0.23163699 -0.51614594 0.02913705 159 191 2
-0.22584954 -0.50718534 0.03896781 171 190 39
-0.26428720 -0.46164557 0.03686560 202 208 46
-0.23816782 -0.49670961 0.03898451 168 195 4
-0.23782127 -0.49686807 0.03895558 175 202 9
-0.25365633 -0.46100697 0.03187916 178 185 45
-0.25459579 -0.45291406 0.02332239 213 227 72
-0.26307055 -0.47265881 0.01636607 231 231 35
-0.21010800 -0.51033312 0.02070705 102 119 0
-0.26418194 -0.44109520 0.03083488 185 200 37
-0.24636102 -0.48897475 0.04050089 204 231 76
-0.21883649 -0.49870789 0.03864892 139 168 24
-0.26061419 -0.45107213 0.02110413 220 227 51
-0.24379283 -0.48213014 0.03279926 169 181 21
-0.19975714 -0.51593012 0.02183482 100 122 0
-0.18843779 -0.55418956 -0.02108771 71 102 8
-0.25876990 -0.48103678 0.02516743 160 198 1
-0.26220471 -0.44060564 0.01861107 194 207 32
-0.26380715 -0.45961332 0.01479509 213 228 5
-0.18091761 -0.55050313 -0.01429570 91 123 26
-0.21395966 -0.52194810 0.01223835 103 131 10
-0.21710311 -0.52836347 0.00371054 156 188 25
-0.22707304 -0.50937480 0.02674554 136 161 15
-0.24324471 -0.48953065 0.03983151 189 217 80
-0.17285576 -0.56043595 -0.02210899 121 149 62
-0.21869206 -0.51071793 0.02198766 169 190 9
-0.21892455 -0.50033730 0.02398371 152 168 20
-0.19848026 -0.52844125 -0.00546940 90 128 6
-0.22638445 -0.51458466 0.02485875 145 175 19
-0.21780492 -0.50669599 0.02243411 148 163 12
-0.25716048 -0.48043457 0.04002581 187 213 116
-0.16329852 -0.56615204 -0.03748753 128 147 68
-0.25209963 -0.47707072 0.03173146 185 195 10
-0.26095864 -0.48489133 0.02217270 191 210 7
-0.19488877 -0.53723609 -0.01325157 46 82 0
-0.25942165 -0.46413875 0.03615346 195 203 29
-0.26243556 -0.50269115 0.03298581 112 145 4
-0.21052654 -0.52459359 0.00569793 101 137 11
-0.22149314 -0.49111065 0.02826960 102 115 43
-0.22950861 -0.49239171 0.03157895 198 213 6
-0.24755093 -0.48374954 0.03752375 179 199 3
-0.20579040 -0.50067908 0.02805315 147 154 51
-0.25222099 -0.48648185 0.03282756 141 178 3
-0.22828598 -0.50013232 0.02502416 176 190 33
-0.20903490 -0.52547902 0.00310506 88 126 17
-0.26275414 -0.50555110 0.03540490 105 135 1
-0.22205193 -0.51917607 0.01948964 124 162 0
-0.23012960 -0.49560934 0.02989927 117 148 0
-0.19708416 -0.50753355 0.03116280 122 136 59
-0.20228355 -0.52076304 0.00878597 145 171 18
-0.25286856 -0.49353558 0.04047449 174 194 17
-0.21003713 -0.49797675 0.02865078 109 106 63
-0.26143685 -0.48278180 0.02053718 218 228 7
-0.25998199 -0.47816435 0.01961699 222 226 9
-0.16257982 -0.56624013 -0.03667774 128 147 68
-0.25359258 -0.46189553 0.02033838 229 240 0
-0.26100844 -0.49931872 0.03058259 213 230 14
-0.26445302 -0.46727344 0.03775786 208 231 81
-0.25655648 -0.47340578 0.02140916 211 235 27
-0.22540839 -0.51223499 0.02432890 115 150 8
-0.24071777 -0.47706336 0.01987045 163 170 64
-0.27232632 -0.47639668 0.01352535 110 141 3
-0.26870498 -0.45182806 0.03516069 215 225 100
-0.27080515 -0.45257619 0.03404085 226 230 83
-0.25326487 -0.47021285 0.03566661 206 209 30
-0.25971073 -0.45751786 0.03455406 213 214 58
-0.27432930 -0.47630924 0.01547523 73 107 0
-0.23031031 -0.49085295 0.03596760 197 214 14
-0.25668246 -0.45665342 0.02051522 206 211 23
-0.25041845 -0.46574637 0.03075753 167 170 31
-0.20387867 -0.51166171 0.03772693 177 197 11
-0.25109541 -0.45556819 0.02484020 189 191 128
-0.24016677 -0.48013681 0.02689609 129 154 0
-0.25414917 -0.46451846 0.01959421 211 221 0
-0.24402869 -0.47974148 0.02726739 197 205 32
-0.25459293 -0.47238445 0.03689063 208 210 21
-0.23871903 -0.48706904 0.03624353 203 215 19
-0.24281122 -0.48952511 0.03958954 167 190 0
-0.19500829 -0.53803456 -0.01393386 48 86 0
-0.25634453 -0.44867453 0.02915323 179 183 44
-0.24941835 -0.50840151 0.03795044 183 203 7
-0.24304479 -0.48225456 0.03154732 211 216 51
-0.24727735 -0.47263375 0.03194816 154 166 28
-0.25795886 -0.46093768 0.03405344 200 205 41
-0.24220367 -0.48378289 0.03409071 159 176 0
-0.24927206 -0.50133824 0.03870174 192 211 8
-0.24572669 -0.46831259 0.02383893 172 177 57
-0.26106086 -0.44231546 0.02861572 184 196 2
-0.25173712 -0.47950119 0.03822611 154 190 20
-0.26085338 -0.44262823 0.02245450 184 201 0
-0.16137725 -0.18111524 -0.04500876 88 112 14
-0.15611497 -0.18606828 -0.04764042 86 118 0
-0.15746430 -0.18423636 -0.02581658 108 144 38
-0.15644474 -0.18272960 -0.02804462 105 135 21
-0.14959407 -0.17513141 -0.04251473 92 106 83
-0.14887300 -0.17593074 -0.04123529 68 78 67
-0.17291889 -0.19374362 -0.01719295 114 142 39
-0.16210824 -0.17937520 -0.03263922 97 127 27
-0.14484598 -0.17854567 -0.03900801 52 50 90
-0.14333695 -0.17657019 -0.04293850 51 57 93
-0.14339623 -0.17644003 -0.04310815 59 68 101
-0.17560104 -0.19939910 -0.02261424 147 176 0
-0.16063526 -0.18431847 -0.02547669 89 120 1
-0.16583575 -0.18779963 -0.02268695 81 107 8
-0.15589768 -0.19189930 -0.04746892 142 176 29
-0.16593468 -0.18373410 -0.03762070 137 148 54
-0.16029505 -0.18889274 -0.04228106 113 139 4
-0.16347402 -0.17900686 -0.03428582 70 93 5
-0.15613952 -0.17737763 -0.03655764 71 96 31
-0.15810826 -0.17797585 -0.03537161 72 101 11
-0.18633787 -0.20288999 -0.00701035 93 112 57
-0.13852717 -0.17643854 -0.09190710 108 103 83
-0.13890192 -0.17665981 -0.09139450 119 113 91
-0.16446048 -0.18741056 -0.03340211 137 156 4
-0.16145247 -0.19986710 -0.02562470 171 200 20
-0.18484500 -0.20388916 -0.00431720 133 147 52
-0.17761877 -0.20009190 -0.00988942 118 138 23
-0.15622172 -0.17479916 -0.04221685 140 144 34
-0.15892084 -0.17598246 -0.04037334 121 138 26
-0.15845400 -0.19055867 -0.03655440 95 123 10
-0.19420621 -0.20828368 0.00300018 110 120 21
-0.18508466 -0.20975682 0.00190128 120 137 41
-0.15480435 -0.18056650 -0.05191252 108 130 4
-0.15198638 -0.18102618 -0.07588866 38 67 0
-0.15174535 -0.18172844 -0.07555193 87 118 24
-0.15330337 -0.17855538 -0.06364039 53 80 0
-0.15939166 -0.17519520 -0.05021629 120 133 15
-0.14968206 -0.18201943 -0.08473366 46 73 0
-0.15037340 -0.18412961 -0.06640735 75 99 0
-0.15075138 -0.18351460 -0.07492969 34 65 0
-0.15249315 -0.17899798 -0.07736690 91 111 40
-0.15076943 -0.17970657 -0.08503672 85 102 47
-0.15606195 -0.17601129 -0.06375993 83 106 15
-0.14847304 -0.18643354 -0.07174350 58 86 0
-0.19988059 -0.20799790 0.00194235 82 89 19
-0.18742020 -0.21413739 0.00521693 152 170 71
-0.18351431 -0.21370532 0.00414037 119 131 69
-0.17533679 -0.20408672 -0.00534138 103 121 61
-0.18949889 -0.21498924 -0.00930257 215 230 23
-0.18449385 -0.21971528 0.00675830 141 154 72
-0.18227881 -0.21800084 0.00580627 137 147 78
-0.19402318 -0.21000630 0.00482555 129 148 43
-0.16011189 -0.20122059 -0.02768830 101 138 7
-0.18273553 -0.22059706 -0.00522959 140 175 0
-0.15921116 -0.19764468 -0.03199626 114 149 7
-0.14866281 -0.17796697 -0.08591837 91 83 62
-0.15005757 -0.17704208 -0.08322785 105 88 78
-0.14480017 -0.17369513 -0.08502302 110 96 83
-0.14840557 -0.17235778 -0.07591793 61 54 36
-0.14658292 -0.17213599 -0.07806545 72 62 53
-0.15248635 -0.17357662 -0.07389225 105 89 76
-0.15308230 -0.17207818 -0.06486300 177 161 138
-0.15334924 -0.17283863 -0.06798348 113 94 79
-0.15388721 -0.17173816 -0.05967619 117 106 60
-0.15066773 -0.17024854 -0.06187120 153 136 120
-0.15705356 -0.17340620 -0.04821671 97 96 42
-0.15103310 -0.17102890 -0.05677306 146 116 92
-0.14569825 -0.18757948 -0.08969423 91 104 14
-0.19263707 -0.21593800 -0.00768700 149 169 0
-0.15228406 -0.19837786 -0.04951325 87 117 17
-0.14579579 -0.19261737 -0.06351008 60 87 0
-0.15347248 -0.19578980 -0.05042413 54 88 0
-0.15272209 -0.19532420 -0.05220166 78 110 13
-0.13871771 -0.18413180 -0.09479278 65 87 22
-0.14888301 -0.19070975 -0.06401426 131 159 14
-0.15001486 -0.19000080 -0.06153373 76 104 2
-0.16790894 -0.21665141 -0.01709136 122 154 0
-0.14724866 -0.18790601 -0.07222339 108 142 19
-0.16658966 -0.18554366 -0.03585498 173 178 96
-0.15519018 -0.19682062 -0.04602551 82 107 6
-0.15816478 -0.19144544 -0.03524408 71 98 0
-0.15813641 -0.19667740 -0.03664819 78 111 0
-0.18454140 -0.20065649 -0.01107963 78 96 14
-0.15463994 -0.18732919 -0.05064289 99 128 2
-0.15285599 -0.18797554 -0.05508440 71 98 0
-0.14403290 -0.19190197 -0.06505850 152 174 74
-0.17991339 -0.20914388 -0.01428767 131 156 0
-0.17638685 -0.20550874 -0.01651489 110 145 0
-0.18283606 -0.21151076 -0.01257170 113 150 0
-0.17240146 -0.19532047 -0.02351240 206 232 23
-0.18126875 -0.19917046 -0.01973787 159 165 39
-0.16596918 -0.18673790 -0.03358389 190 203 28
-0.19589916 -0.21161807 -0.01303248 130 155 0
-0.18122098 -0.19771516 -0.01668121 159 161 34
-0.17560086 -0.19475277 -0.01935371 206 210 99
-0.19112979 -0.21691829 -0.00498869 142 166 0
-0.19410840 -0.20483434 -0.00651661 183 196 82
-0.17948574 -0.20446047 -0.02037185 141 172 8
-0.19687581 -0.20593126 -0.00624570 173 178 52
-0.18551128 -0.20502137 -0.02041618 137 162 0
-0.14960033 -0.17311998 -0.04796589 91 79 81
-0.15081760 -0.17328309 -0.04643892 89 88 94
-0.15263972 -0.17314883 -0.04573552 152 143 104
-0.19250289 -0.20454317 -0.01155906 141 148 42
-0.19138396 -0.20569909 -0.01576225 225 231 107
-0.18961111 -0.20327184 -0.01444875 124 128 41
-0.19968031 -0.20700708 -0.00506453 175 191 32
-0.17519793 -0.19569275 -0.02118921 104 120 0
-0.16894911 -0.19745196 -0.02243848 233 247 4
-0.17452542 -0.20159841 -0.01916897 218 236 12
-0.16848268 -0.18879978 -0.03038847 169 199 7
-0.17012036 -0.19234744 -0.02565540 126 150 0
-0.16995488 -0.21001838 -0.01662549 86 129 0
-0.17275414 -0.21629748 -0.01156214 96 127 10
-0.14313141 -0.17715274 -0.08952935 66 56 44
-0.13784847 -0.18018571 -0.09407205 90 104 53
-0.15242474 -0.18101522 -0.05462219 93 120 23
-0.19073769 -0.21959990 -0.00385484 157 188 0
-0.17775592 -0.21186948 -0.01170069 206 236 40
-0.17862299 -0.21579050 -0.00784602 118 154 0
-0.16654712 -0.18510841 -0.02775679 122 139 43
-0.13957173 -0.18765466 -0.04360272 96 117 76
-0.14202589 -0.17750764 -0.04488223 50 53 86
-0.14432292 -0.18067443 -0.03680008 212 210 171
-0.14195518 -0.17916052 -0.04384844 38 35 62
-0.14061730 -0.17271465 -0.07995966 143 122 103
-0.13658909 -0.17546797 -0.07388438 157 109 99
-0.13618010 -0.17576019 -0.07310031 144 94 85
-0.14408621 -0.17168429 -0.06749868 135 109 94
-0.14292155 -0.17246439 -0.06626777 158 107 88
-0.14310484 -0.17314513 -0.05771785 210 134 110
-0.14768851 -0.16983949 -0.06478768 98 71 54
-0.14167781 -0.17325026 -0.06555648 203 135 112
-0.14260986 -0.17359653 -0.05592816 211 126 105
-0.14072020 -0.19104064 -0.08988182 75 93 9
-0.14569232 -0.18833633 -0.08135814 141 157 22
-0.16963679 -0.21432000 -0.01624067 103 143 10
-0.18273304 -0.20920180 -0.01593886 204 226 19
-0.18579835 -0.20686571 -0.02129203 209 230 39
-0.14302592 -0.19167632 -0.06491127 112 133 40
-0.14842792 -0.20006102 -0.04953953 109 127 105
-0.14802797 -0.18795803 -0.06993254 93 127 32
-0.14733529 -0.18841085 -0.07121193 67 102 0
-0.15205953 -0.18373263 -0.05852090 71 100 0
-0.16929959 -0.19327819 -0.02547807 200 223 19
-0.17283733 -0.20758680 -0.01491494 171 196 16
-0.17124455 -0.20744896 -0.01533149 187 210 16
-0.16198617 -0.19177140 -0.02881071 135 167 0
-0.19230916 -0.21172282 -0.01704539 225 242 42
-0.19541526 -0.20740929 -0.00957108 194 209 30
-0.19483083 -0.20821659 -0.01271262 126 141 0
-0.14274736 -0.18713042 -0.09300489 62 83 8
-0.16174081 -0.20773336 -0.00912512 224 234 137
-0.16360384 -0.21112536 -0.00613632 225 225 155
-0.25249079 -0.30042058 0.00043002 207 222 7
-0.27827936 -0.34160727 -0.03214640 113 138 8
-0.21506047 -0.25597078 0.00858647 176 196 10
-0.27827537 -0.33396819 -0.01597743 166 194 110
-0.23877381 -0.29852781 0.00752760 173 198 44
-0.16809851 -0.23140763 0.00578380 139 142 63
-0.16978633 -0.23326936 0.00436534 172 182 51
-0.25317594 -0.31328538 -0.00131762 239 252 15
-0.21727709 -0.27474102 0.00727874 102 97 57
-0.29043323 -0.35885891 -0.04443656 100 124 10
-0.22853561 -0.30591762 0.00384273 178 167 77
-0.22222570 -0.26513118 0.01008816 207 221 22
-0.26157823 -0.33528197 -0.02060232 94 110 0
-0.26096007 -0.32585976 -0.00581087 230 244 63
-0.25444293 -0.30922955 0.00745512 184 209 82
-0.25986436 -0.31376961 0.00115939 171 202 82
-0.16248447 -0.22881068 -0.01530111 148 162 7
-0.24097803 -0.31765315 0.00916467 179 194 53
-0.29552993 -0.35877699 -0.04356670 95 123 10
-0.15832196 -0.21552052 -0.03401212 85 99 22
-0.21262500 -0.26711830 0.00852368 208 220 24
-0.19315019 -0.24725413 0.01142719 193 202 0
-0.18975370 -0.24371703 0.01225277 205 215 7
-0.29213917 -0.35320625 -0.05780158 166 177 23
-0.18544105 -0.23807441 0.01148938 228 228 6
-0.21329489 -0.25859228 0.00909034 198 210 2
-0.21142484 -0.25689456 0.00990578 191 211 2
-0.15456301 -0.18812449 -0.02290390 120 115 112
-0.15769142 -0.18638474 -0.02339273 89 88 84
-0.15803009 -0.18578199 -0.02381347 109 115 89
-0.16833280 -0.22423507 -0.01023616 113 137 0
-0.16002831 -0.21275310 -0.03405907 146 175 25
-0.26324081 -0.33491367 -0.00888726 140 166 4
-0.16315465 -0.22165278 -0.02413081 141 168 13
-0.16163813 -0.21719700 -0.02501136 143 164 9
-0.26296464 -0.33534661 -0.02005666 146 164 26
-0.19534412 -0.25629422 0.01372133 245 242 17
-0.18837170 -0.22814658 -0.00267954 159 191 18
-0.25016674 -0.31340417 0.00615926 204 226 56
-0.25153100 -0.32740566 -0.00753833 235 255 80
-0.17181949 -0.19874252 -0.01124512 132 149 71
-0.26876819 -0.32676858 -0.00801269 165 200 70
-0.20250170 -0.27371281 0.01914930 160 196 74
-0.24714625 -0.30999374 -0.00248330 219 231 27
-0.13076468 -0.18609241 -0.09627426 87 104 0
-0.24677801 -0.31606188 0.00619202 130 156 0
-0.24647644 -0.28360963 0.00119712 174 196 10
-0.24843369 -0.27983367 0.00288604 139 177 4
-0.19642453 -0.24909239 0.01106491 239 243 8
-0.19757211 -0.24617629 0.00948732 231 244 16
-0.18173739 -0.24304223 0.01364930 229 225 16
-0.25623822 -0.30339330 0.00279102 142 162 0
-0.28422937 -0.34744373 -0.03225356 81 108 1
-0.21287195 -0.27766570 0.00746517 114 112 64
-0.25300607 -0.33369330 -0.00830059 169 185 16
-0.20602793 -0.28097790 0.01277140 171 159 51
-0.20461297 -0.26233611 0.01152495 190 202 0
-0.24227960 -0.30389395 0.00782917 213 229 68
-0.25049359 -0.30403203 -0.00121490 235 245 26
-0.17297667 -0.22873743 -0.00290360 134 152 0
-0.28997654 -0.34837496 -0.05257850 206 207 51
-0.20093451 -0.25706616 0.01227137 212 213 15
-0.21058205 -0.27274242 0.00825325 96 87 30
-0.12836589 -0.17421670 -0.09465177 63 79 76
-0.12717803 -0.17467055 -0.09263714 56 66 65
-0.29024914 -0.35941637 -0.04964366 99 122 16
-0.15603887 -0.20488113 -0.04351776 123 151 41
-0.15691550 -0.20394042 -0.04063994 117 148 18
-0.26602271 -0.31383055 -0.00040635 160 188 67
-0.21069647 -0.27974573 0.02409371 210 217 52
-0.21581182 -0.28254962 0.02165748 200 217 63
-0.21784268 -0.28232515 0.02069302 187 206 39
-0.22497134 -0.29542768 0.00612208 152 161 10
-0.22156285 -0.29159790 0.00839719 158 166 28
-0.23112926 -0.29536647 0.00600869 227 237 80
-0.22394325 -0.28332967 0.01500080 221 232 76
-0.22473443 -0.28402680 0.01416512 221 225 78
-0.22245857 -0.28751951 0.01240378 197 210 70
-0.22563022 -0.28289875 0.01485185 171 189 29
-0.13733286 -0.19033317 -0.08385219 80 102 20
-0.13615964 -0.18919165 -0.09379127 79 98 0
-0.13614489 -0.18685953 -0.09450068 75 96 1
-0.13246559 -0.18085632 -0.09902164 109 124 67
-0.27493298 -0.34152243 -0.02609660 105 131 0
-0.20931688 -0.28450006 0.02085348 225 228 111
-0.23908800 -0.31380340 0.01075976 181 197 13
-0.28168467 -0.35158113 -0.04688227 157 171 26
-0.13170475 -0.18511930 -0.08302078 130 117 82
-0.15929987 -0.22394840 -0.00517702 160 155 113
-0.15537186 -0.21782322 -0.01090033 197 192 170
-0.16139056 -0.22488143 -0.00201447 148 155 111
-0.16476278 -0.19716984 -0.01279276 123 112 126
-0.16483156 -0.19553909 -0.01455110 99 87 91
-0.23255976 -0.30048999 0.00398566 139 157 0
-0.28864065 -0.35220248 -0.05470109 198 207 54
-0.23628685 -0.30166274 0.00594292 220 234 77
-0.24933906 -0.32330179 -0.00497913 166 185 15
-0.24342792 -0.32440230 -0.00297389 238 255 86
-0.23712987 -0.30543125 0.00667214 170 186 35
-0.13353136 -0.18638253 -0.08181602 150 149 59
-0.24664082 -0.30143613 0.00869521 138 172 23
-0.16092068 -0.21737652 -0.03196670 112 142 10
-0.16284809 -0.22457238 -0.02208601 158 176 16
-0.15782206 -0.22326165 -0.02656419 120 130 70
-0.16095462 -0.22266547 -0.02705370 76 93 0
-0.25401172 -0.28954989 -0.00126824 136 163 0
-0.18165337 -0.23369604 0.00454968 169 194 4
-0.25595650 -0.29505023 0.00043744 138 165 0
-0.16104101 -0.20361909 -0.03000030 72 107 5
-0.18219092 -0.24261928 0.01227589 237 246 9
-0.18214197 -0.24418873 0.01249067 214 221 21
-0.22381765 -0.27348894 0.00936615 179 191 0
-0.21196590 -0.27480635 0.02289619 206 238 43
-0.25429657 -0.29603356 -0.00033668 169 197 0
-0.26557949 -0.32099941 -0.00493579 162 197 71
-0.29322517 -0.35264522 -0.03683652 113 134 43
-0.21181136 -0.27095902 0.01985852 210 237 44
-0.20500757 -0.27271289 0.02045862 200 236 50
-0.22144049 -0.26776400 0.00966946 204 209 0
-0.18846104 -0.23435365 0.00304382 188 209 28
-0.24435249 -0.28718761 0.00015238 150 174 0
-0.24753903 -0.32541129 -0.00542847 237 253 24
-0.13948381 -0.19107325 -0.08505574 91 110 28
-0.15697569 -0.19397151 -0.01694493 153 155 108
-0.20676868 -0.24647291 0.00924152 113 145 2
-0.16211307 -0.21790938 -0.02163631 164 185 32
-0.23183903 -0.28966042 0.00935100 165 187 42
-0.23839155 -0.29136348 0.01096770 196 213 55
-0.28837046 -0.35223234 -0.03505824 98 129 0
-0.30424404 -0.35863414 -0.05161171 131 156 26
-0.23687144 -0.28566110 0.00152992 139 156 2
-0.28735015 -0.35075602 -0.03792477 76 99 0
-0.23650409 -0.27439740 0.00903682 137 171 24
-0.20556194 -0.27233464 0.00996446 93 91 32
-0.24027586 -0.29664212 0.00063628 181 191 0
-0.24674308 -0.31943765 0.00184311 189 212 18
-0.15381306 -0.22015239 -0.02434910 93 113 28
-0.15524711 -0.22073698 -0.02604361 130 147 79
-0.15526739 -0.22487527 -0.02047010 114 128 49
-0.23724516 -0.28460407 0.00199448 143 164 1
-0.24926037 -0.32980365 -0.00882078 209 226 52
-0.21181558 -0.26375389 0.00926097 195 199 0
-0.21230686 -0.26514199 0.00866027 194 201 1
-0.22402650 -0.28090620 0.00517090 167 178 0
-0.14692336 -0.20848972 -0.03494405 52 73 34
-0.14968689 -0.21562567 -0.02648783 20 38 40
-0.14684309 -0.20743136 -0.03660464 93 106 80
-0.23036771 -0.28485861 0.00414005 160 178 0
-0.16370739 -0.23006065 -0.00338334 226 221 101
-0.15694880 -0.22692631 -0.01293224 126 135 52
-0.15514885 -0.22580847 -0.01639743 151 172 69
-0.15889327 -0.22859710 -0.01194283 137 140 61
-0.15556748 -0.22627574 -0.01741701 151 171 72
-0.16597144 -0.23127426 -0.00072063 180 181 41
-0.16711566 -0.23156869 0.00128210 164 165 25
-0.16749065 -0.23385613 -0.00267513 181 191 6
-0.24594308 -0.29325101 -0.00025314 232 230 8
-0.28123501 -0.34627387 -0.02727599 89 117 0
-0.14572005 -0.20472290 -0.03031325 84 104 128
-0.14522794 -0.20467941 -0.03526550 77 91 58
-0.28719437 -0.35465866 -0.03981228 102 129 0
-0.22828607 -0.27254105 0.01074076 190 207 7
-0.14951409 -0.21224621 -0.02141828 77 80 87
-0.15008599 -0.21249183 -0.02034047 71 65 77
-0.15269749 -0.21823470 -0.01515568 60 57 68
-0.15437339 -0.20182934 -0.04647769 129 163 42
-0.17354701 -0.20411374 -0.00518079 169 168 186
-0.28140175 -0.34327200 -0.03373618 93 116 0
-0.24435596 -0.30001289 0.00010790 166 185 0
-0.25334060 -0.33171538 -0.00710267 199 219 42
-0.15689772 -0.20096216 -0.01551897 205 213 92
-0.18035693 -0.22615145 -0.00193580 180 202 15
-0.18497694 -0.22330254 -0.00453122 114 149 3
-0.19928128 -0.26836157 0.01298677 214 224 14
-0.15133211 -0.20999056 -0.03740033 156 159 78
-0.14974672 -0.20551132 -0.04229652 172 169 90
-0.26822534 -0.33579633 -0.01515830 135 159 3
-0.23251839 -0.29183495 0.00415159 199 202 9
-0.15766717 -0.21226358 -0.01042465 142 160 122
-0.15839255 -0.21183725 -0.01016095 142 160 122
-0.25107363 -0.31761438 0.00101138 182 209 42
-0.25255167 -0.32577837 -0.00763647 224 243 65
-0.23070145 -0.27888447 0.00662068 162 177 0
-0.18565309 -0.25464696 0.01649763 216 223 58
-0.18982761 -0.25366181 0.01916816 211 212 46
-0.16276371 -0.22399929 -0.00133795 135 147 83
-0.15676892 -0.21478429 -0.00973463 86 104 90
-0.22555909 -0.28263602 0.00506361 187 202 0
-0.16127631 -0.20091733 -0.01067918 223 224 166
-0.16061197 -0.20463473 -0.01108805 166 173 77
-0.22850919 -0.29664564 0.00319421 164 164 6
-0.30086502 -0.36241111 -0.05438946 96 124 11
-0.29931664 -0.36271143 -0.05746990 103 134 4
-0.26283088 -0.32171616 -0.00377335 169 200 62
-0.28255028 -0.34491700 -0.04099954 138 158 7
-0.16357651 -0.18995920 -0.01971595 126 143 75
-0.29097730 -0.35916054 -0.05243133 108 132 10
-0.29146233 -0.35839346 -0.05366009 113 136 6
-0.13989507 -0.18199083 -0.04765303 165 181 82
-0.13915813 -0.18664730 -0.04549617 113 138 96
-0.13964170 -0.17539866 -0.05580016 206 120 105
-0.13533504 -0.17672658 -0.07127745 160 91 76
-0.13645862 -0.17839679 -0.06505170 188 109 94
-0.13840444 -0.18206838 -0.05342453 112 109 92
-0.13688876 -0.18656886 -0.05447393 136 150 163
-0.13478111 -0.18529235 -0.06403138 123 98 93
-0.13499606 -0.18536519 -0.06311959 147 122 125
-0.13510965 -0.18037058 -0.06816096 162 94 85
-0.28776619 -0.35560215 -0.03935821 102 129 0
-0.16517963 -0.22641356 0.00113878 98 124 63
-0.16930461 -0.22383730 0.00222645 183 186 141
-0.13647334 -0.17269690 -0.08465464 105 90 83
-0.13829155 -0.17192429 -0.08761656 77 83 71
-0.13240318 -0.17365617 -0.08154045 161 128 121
-0.12815227 -0.17467372 -0.08766558 140 120 109
-0.13139124 -0.17690235 -0.07849088 126 91 87
-0.12604313 -0.17610320 -0.08931717 138 124 123
-0.18826319 -0.24781835 0.01306749 236 242 20
-0.25628889 -0.28495243 -0.00252660 147 185 1
-0.30191442 -0.35875106 -0.04783762 160 181 78
-0.23873347 -0.31838462 0.00830762 189 195 37
-0.23942620 -0.29342401 0.00009775 216 217 25
-0.24321084 -0.30581683 -0.00049737 200 212 14
-0.24772729 -0.30923787 0.00926398 160 188 26
-0.20320401 -0.25556111 0.01204983 217 234 8
-0.15786770 -0.20383061 -0.03774477 70 107 0
-0.15758158 -0.20334603 -0.03848246 71 108 0
-0.21325266 -0.26940790 0.00847616 180 189 10
-0.24121135 -0.31845295 0.00581619 164 169 23
