0.06238314 -0.15195706 0.15092602 184 203 77
0.05264678 -0.15224935 0.15239541 118 142 28
0.04921417 -0.15116510 0.15171245 132 161 21
0.05142503 -0.15401451 0.15241233 171 197 46
0.04921260 -0.15080927 0.15166919 130 156 21
0.04978194 -0.15260319 0.15197755 125 150 20
0.03326900 -0.15151288 0.14991936 144 160 89
0.03161318 -0.15070248 0.15093279 138 151 61
0.03294760 -0.15028746 0.14881361 123 135 49
0.04519550 -0.14687504 0.14763683 76 98 16
0.04357684 -0.14646998 0.14650571 84 107 19
0.04677337 -0.14485013 0.14605539 110 134 24
0.04525032 -0.14677452 0.14754842 76 98 16
0.03995241 -0.15254299 0.14952685 109 131 30
0.03569715 -0.15183328 0.14921886 115 133 23
0.04041197 -0.15219414 0.14930739 95 117 19
0.03676122 -0.15307844 0.14993005 95 110 19
0.03534748 -0.15213892 0.14940973 126 144 34
0.07309370 -0.14593865 0.14524721 81 107 6
0.07119817 -0.14403780 0.14613041 91 118 11
0.06651953 -0.15808818 0.14948708 158 195 38
0.06775000 -0.15850094 0.14925709 115 150 0
0.04686773 -0.12318473 0.12679295 148 179 26
0.04477640 -0.12375712 0.12834592 171 194 54
0.05204673 -0.13838583 0.14034711 122 141 25
0.05398348 -0.13837057 0.14116916 59 86 9
0.04850283 -0.14300457 0.14418909 106 132 31
0.04946749 -0.14261708 0.14381491 66 91 10
0.07551560 -0.15932220 0.13610765 61 97 9
0.07454550 -0.15782216 0.13847511 43 85 1
0.03445224 -0.15159518 0.14891811 142 159 57
0.03466322 -0.14728250 0.14525446 116 135 20
0.03612072 -0.15050353 0.14826520 102 120 21
0.04810075 -0.13190989 0.13415776 103 126 18
0.04857153 -0.13009752 0.13288099 79 106 11
0.04774148 -0.14191948 0.14288914 122 147 27
0.04764521 -0.14277406 0.14388719 130 153 37
0.04799625 -0.14173934 0.14265417 128 153 33
0.05444435 -0.14658560 0.14969051 129 160 33
0.05751605 -0.14647564 0.14987519 110 139 23
0.04303255 -0.14495352 0.14492811 74 96 13
0.04275902 -0.14475124 0.14466326 70 91 14
0.04551516 -0.14429086 0.14510179 80 100 11
0.04469655 -0.14122880 0.14211635 119 145 22
0.04508943 -0.14192399 0.14285795 106 130 20
0.03398401 -0.14325188 0.14345625 91 108 14
0.03446561 -0.14258815 0.14302176 86 104 5
0.04628111 -0.13821785 0.13906088 94 115 14
0.04729035 -0.13802524 0.13884304 74 92 6
0.04613832 -0.13933679 0.14008665 98 120 19
0.07548424 -0.14804453 0.12286366 131 157 32
0.07279860 -0.14766040 0.12909721 109 134 14
0.07371093 -0.14910379 0.12713739 68 90 8
0.05236312 -0.14225690 0.14419137 82 106 18
0.05592719 -0.13600919 0.14011014 81 106 14
0.05321924 -0.14074436 0.14319780 63 84 15
0.05455955 -0.13515863 0.13847747 111 129 21
0.05069218 -0.13871436 0.13997376 63 85 13
0.05457332 -0.13533977 0.13867255 103 124 23
0.04334375 -0.12793288 0.13162787 153 178 50
0.04485943 -0.12839037 0.13271140 92 121 11
0.04222459 -0.12818630 0.13151522 184 205 74
0.07349596 -0.14344382 0.12477849 111 137 14
0.07248457 -0.14545836 0.12847672 74 103 10
0.07297501 -0.14415783 0.12645125 83 112 4
0.07227883 -0.14321716 0.12732761 114 136 10
0.07339744 -0.14603125 0.12685379 87 114 9
0.07217009 -0.14687821 0.13019575 92 112 1
0.07676838 -0.14617263 0.11944492 96 121 1
0.07392668 -0.14626010 0.12583880 85 115 3
0.04075834 -0.13332921 0.13662216 124 145 24
0.04637493 -0.12809004 0.13283290 131 154 37
0.04479912 -0.13080591 0.13466588 91 113 12
0.04150676 -0.13326991 0.13651195 116 140 20
0.04562512 -0.12929608 0.13365179 121 145 31
0.03695665 -0.13638468 0.13936335 108 130 19
0.03677199 -0.13792443 0.14010786 128 149 44
0.03605955 -0.13636665 0.13986520 121 143 19
0.06019070 -0.15112704 0.15159778 159 183 35
0.06064650 -0.14798956 0.15049940 140 168 31
0.06051758 -0.14804834 0.15053499 140 168 31
0.04193590 -0.14137928 0.14165051 76 100 16
0.04163586 -0.14131704 0.14158563 82 107 16
0.04313720 -0.13922222 0.13999340 78 101 21
0.03841846 -0.14205052 0.14200594 97 118 17
0.03541925 -0.13554516 0.13909139 142 160 42
0.03420284 -0.13577853 0.13910028 75 102 0
0.03652360 -0.13431859 0.13617136 146 170 46
0.03423949 -0.13547195 0.13824040 81 103 0
0.05083204 -0.12106556 0.12904458 165 187 52
0.03509941 -0.14509943 0.14370850 96 117 12
0.03636049 -0.14351948 0.14283171 101 121 24
0.03698181 -0.14271878 0.14238387 80 99 18
0.05130933 -0.12467269 0.13073446 113 136 4
0.04930140 -0.12612569 0.13158871 112 133 14
0.04518775 -0.12746115 0.13168357 91 120 10
0.04396949 -0.12712437 0.13078745 149 174 44
0.04672566 -0.12641419 0.13084117 112 138 11
0.05386629 -0.12536919 0.13011223 180 189 72
0.05525594 -0.12591401 0.12952118 139 158 33
0.05583476 -0.12521051 0.12902245 141 157 58
0.05268393 -0.13037740 0.13162595 142 161 45
0.05044341 -0.14514349 0.14753385 100 126 16
0.05222236 -0.14460154 0.14742871 78 102 16
0.05190248 -0.14489838 0.14767417 75 99 13
0.04773237 -0.12279087 0.12956692 131 158 17
0.04766774 -0.12446285 0.13069589 156 179 45
0.04132534 -0.13966551 0.14029324 87 113 12
0.04199934 -0.13730101 0.13894388 88 112 18
0.03954599 -0.13547407 0.13803293 142 162 41
0.07474159 -0.15938877 0.14033197 55 76 1
0.07513818 -0.15890965 0.14036816 68 101 10
0.04163779 -0.12752126 0.13082607 153 175 28
0.04770825 -0.12277465 0.12881258 112 139 6
0.04929202 -0.13592879 0.13686372 137 156 49
0.04572439 -0.13779004 0.13870724 116 138 27
0.06315250 -0.15404914 0.15024498 156 187 8
0.06175838 -0.15600009 0.15054153 145 184 5
0.05700195 -0.15410703 0.15235569 174 196 49
0.03906805 -0.13080826 0.13190731 134 162 15
0.03839418 -0.13162102 0.13232034 143 168 22
0.03849322 -0.13118094 0.13173071 156 182 29
0.05153730 -0.14870681 0.15137528 82 108 11
0.05236790 -0.14822657 0.15101446 87 113 14
0.04445435 -0.15340514 0.15081406 158 179 40
0.04194218 -0.14933060 0.14801100 78 97 18
0.04175796 -0.14815253 0.14749148 73 97 19
0.04301451 -0.15151399 0.14936610 108 135 38
0.04224690 -0.15159497 0.14898306 93 117 21
0.05039793 -0.13210991 0.13341667 138 156 56
0.05245956 -0.14314224 0.14534685 62 85 7
0.05193918 -0.14309371 0.14512050 77 100 12
0.03110919 -0.15276459 0.15458590 146 161 56
0.03438447 -0.15580514 0.15517177 112 126 38
0.03363755 -0.15326451 0.15205564 102 113 44
0.03168243 -0.15221041 0.15293448 108 120 44
0.05079971 -0.12693860 0.13157921 124 142 32
0.05115360 -0.12745994 0.13160287 142 160 52
0.05590946 -0.13358843 0.13698785 103 121 22
0.05570136 -0.13285068 0.13567677 138 155 40
0.05517451 -0.13332392 0.13609378 137 154 39
0.05497359 -0.13116808 0.13252403 72 96 10
0.04864805 -0.13352184 0.13513681 76 99 9
0.07718214 -0.15642278 0.13013458 89 108 27
0.07752983 -0.15581369 0.12755935 134 152 42
0.04626959 -0.12913902 0.13346924 134 158 38
0.04643350 -0.13321804 0.13564533 142 162 41
0.05191271 -0.11966316 0.12601601 173 199 66
0.05109260 -0.12076171 0.12821132 168 191 61
-0.07198960 -0.14789750 0.22999278 99 125 24
0.07639167 -0.15791290 0.14480154 148 171 89
0.07737960 -0.15811954 0.14241500 64 112 10
0.07782475 -0.15733823 0.14445378 59 103 8
0.07657935 -0.15665264 0.14143898 42 81 0
0.07141791 -0.14895248 0.14838898 239 252 146
0.06960119 -0.14657842 0.14897935 167 190 76
0.07077740 -0.15014754 0.14955205 189 203 90
0.06928487 -0.14103594 0.14275752 102 135 2
0.07049964 -0.14293267 0.14185299 63 93 0
0.07138581 -0.14616078 0.13473457 83 108 4
0.07260376 -0.14509402 0.14422177 116 145 35
0.07248757 -0.14603356 0.14038323 91 120 4
0.07168248 -0.14481525 0.14084710 76 103 6
0.07039641 -0.14248946 0.14291732 70 97 2
0.06990010 -0.14331853 0.13767041 85 111 12
0.07536551 -0.15353069 0.13149926 95 117 16
0.07358879 -0.15139246 0.13386941 115 137 10
0.07421071 -0.15238710 0.13373934 107 127 12
0.07408869 -0.15167823 0.13230500 119 139 14
0.07308546 -0.14990507 0.13203542 63 86 4
0.07483450 -0.15317814 0.13302182 73 95 10
0.07523976 -0.15331633 0.13148789 80 104 6
0.09133783 -0.14742686 0.09895500 129 143 45
0.09287014 -0.14573003 0.09185368 156 167 88
0.08883163 -0.14729020 0.10184682 186 198 114
0.09075942 -0.14668378 0.09749097 173 183 96
0.08942652 -0.14662914 0.09908295 156 170 75
0.09214661 -0.14586979 0.09322535 181 193 109
0.08945485 -0.14670436 0.09927097 167 180 90
0.09025618 -0.14767374 0.10111930 152 169 73
0.07690980 -0.15474607 0.14432549 74 110 4
0.07475346 -0.15118253 0.14183889 120 151 13
0.07621202 -0.15500477 0.14198935 83 120 7
0.07626843 -0.15421912 0.14300774 92 127 7
0.07508227 -0.15308233 0.14074670 62 98 0
0.07466993 -0.14882596 0.14414912 94 124 10
0.07265419 -0.14847955 0.13510266 72 99 4
0.07423817 -0.14925301 0.14186728 75 107 8
0.07416275 -0.14775507 0.14340810 62 93 0
0.07413142 -0.14772752 0.14328992 62 93 0
0.07252379 -0.14757293 0.13562050 111 131 8
0.07411323 -0.15156130 0.13831280 115 146 8
0.07403263 -0.14743835 0.14317517 78 109 5
0.07413765 -0.15050414 0.13978021 102 132 8
0.08050389 -0.13808572 0.09754600 106 130 20
0.06915548 -0.14120813 0.13529076 105 130 3
0.06824752 -0.13931739 0.14044683 71 98 3
0.06728739 -0.13651554 0.13695252 89 117 6
0.06859986 -0.14024150 0.14056852 75 103 0
0.06827003 -0.13927722 0.13934851 82 110 0
0.06944747 -0.14187345 0.13427147 107 134 3
0.06854995 -0.14004594 0.13983072 69 96 0
0.08512472 -0.14137721 0.09298685 95 118 10
0.08539930 -0.14346565 0.09648169 112 133 14
0.08490004 -0.14265768 0.09606749 91 115 5
0.08683938 -0.14272495 0.09157342 108 133 15
-0.00498220 -0.14706668 0.18952873 66 101 0
-0.00431368 -0.14958747 0.19039312 69 104 0
-0.04276124 -0.14874542 0.21226235 116 147 18
0.07159650 -0.14684902 0.13150163 97 115 5
0.06729288 -0.13615514 0.13582049 82 111 5
0.07112343 -0.14339821 0.13035151 91 117 7
0.06867194 -0.13763146 0.13304366 115 139 19
0.07149596 -0.14554192 0.13084748 71 96 4
0.07160459 -0.14711483 0.13166897 101 120 5
0.07006140 -0.13985166 0.13076918 70 95 0
0.07074608 -0.14247057 0.13073733 112 138 3
0.00198110 -0.14428914 0.18223737 81 105 17
-0.00027339 -0.14431240 0.18343359 104 135 6
0.00112175 -0.14492258 0.18294056 79 104 10
0.02867204 -0.15241405 0.15916321 133 150 56
0.02866419 -0.15231985 0.15893270 122 139 45
0.03377215 -0.15623425 0.15680739 97 102 35
-0.00786435 -0.15584095 0.20292263 97 123 0
0.03278271 -0.14714642 0.14596219 124 143 51
0.03117979 -0.14759548 0.14769793 100 121 26
0.06426237 -0.14773349 0.15011464 151 175 37
0.06310344 -0.14863306 0.15047947 135 159 19
0.06321280 -0.15015560 0.15093148 188 208 83
0.06429833 -0.14691755 0.14986485 112 136 26
-0.02198064 -0.15529698 0.19911954 124 155 15
0.08020888 -0.13772866 0.08546172 81 104 16
0.08310381 -0.13897687 0.09141778 77 101 7
0.08566424 -0.13834876 0.07708786 59 77 19
0.08368705 -0.13869305 0.08656113 79 100 9
0.08105473 -0.13834733 0.09007546 93 118 16
0.08418372 -0.13829273 0.08063050 84 106 21
0.07985833 -0.13795869 0.08905334 75 98 7
-0.03626037 -0.12414991 0.20535657 83 125 13
-0.03787306 -0.12447936 0.20580640 88 127 21
-0.03977316 -0.12300654 0.20672230 168 197 45
0.05727734 -0.14007229 0.14455123 78 103 20
0.06006536 -0.13959630 0.14498542 76 102 13
0.05856403 -0.13904756 0.14396997 92 119 12
0.05672880 -0.13619454 0.14060992 117 138 33
0.05706564 -0.14107271 0.14545448 79 105 16
0.06067380 -0.13752599 0.14317095 114 136 28
0.05911436 -0.13684183 0.14200534 80 104 18
0.05967163 -0.13787065 0.14318340 111 136 19
0.05855886 -0.14539196 0.14906977 102 126 14
0.05981517 -0.14111994 0.14618905 116 135 19
0.05502518 -0.14398025 0.14746001 76 100 16
0.05494906 -0.14392431 0.14740688 76 100 16
0.06165702 -0.14252134 0.14750952 103 130 25
0.03211586 -0.14077610 0.14383432 98 115 19
0.03305415 -0.14305396 0.14390731 110 127 31
0.03225814 -0.14485468 0.14525454 165 175 79
0.05560917 -0.15723793 0.15345860 128 153 9
0.05740400 -0.15728153 0.15254472 105 136 7
0.05254183 -0.11878312 0.12809689 146 174 53
0.05420214 -0.11673197 0.12804925 126 153 38
0.05392645 -0.15593792 0.15406553 149 172 30
0.04818085 -0.15647392 0.15287292 153 173 26
0.04731990 -0.15633377 0.15256318 136 156 22
0.05200670 -0.15523766 0.15314440 148 171 28
-0.05687539 -0.14707571 0.21630797 131 161 27
-0.05964861 -0.14731602 0.21765360 149 181 44
0.07304730 -0.13552080 0.09918289 79 97 39
0.07805451 -0.13718395 0.09443961 77 101 7
0.07408535 -0.13588610 0.09713871 75 93 31
0.07362045 -0.13573398 0.09746055 72 90 28
0.07410661 -0.13587552 0.09803081 77 96 32
0.07306651 -0.13553476 0.09877264 77 95 37
0.08188774 -0.13842629 0.06387926 73 94 29
0.08457442 -0.13886243 0.06084887 64 82 30
0.08474767 -0.13865462 0.06612439 65 84 28
0.08272976 -0.13827962 0.06950010 72 93 28
0.08298390 -0.13857301 0.06336698 74 92 30
0.08197878 -0.13832763 0.06640687 71 93 28
0.08130621 -0.13826229 0.06614882 71 93 29
0.08315361 -0.13838837 0.06809583 70 90 27
0.08433844 -0.13842079 0.07046748 66 86 25
0.08579924 -0.13844374 0.07378650 59 78 22
0.08568805 -0.13842341 0.07396469 60 79 23
-0.00132750 -0.15396394 0.22347037 115 155 23
0.03479115 -0.13343827 0.18424466 113 151 48
0.03695388 -0.13637978 0.18282445 94 136 8
0.03463699 -0.13392633 0.18506940 126 165 56
0.07350151 -0.15288794 0.14949407 189 219 119
0.07304730 -0.15298776 0.14960045 182 212 114
0.07172924 -0.15307420 0.14986210 181 213 128
-0.00221538 -0.15502439 0.21577382 100 134 22
-0.00312716 -0.15697250 0.21447761 56 87 19
-0.00279378 -0.15488915 0.21134931 79 113 19
-0.00300303 -0.15631618 0.21362649 51 84 13
-0.00581592 -0.15779053 0.20724303 114 140 41
-0.00687912 -0.15614952 0.20423895 103 129 32
0.08639087 -0.14039795 0.08559972 85 108 18
0.08493070 -0.13885546 0.08358885 69 91 9
0.08595324 -0.14055803 0.08842929 93 113 16
0.08662263 -0.14060937 0.08573457 81 104 14
0.08764257 -0.14174494 0.08745980 78 102 14
0.08587631 -0.13856044 0.07775546 59 77 17
0.04443829 -0.12709102 0.13435310 57 86 0
-0.01290682 -0.16014366 0.22092324 97 130 17
-0.01120335 -0.15946768 0.21936892 108 139 1
0.09311274 -0.14286917 0.08322559 92 115 9
0.09062728 -0.14179048 0.08322745 97 119 21
0.09018499 -0.14294174 0.08705162 123 144 43
0.09198641 -0.14252560 0.08363993 114 137 20
0.09317500 -0.14348367 0.08489793 107 128 25
0.08820819 -0.15053926 0.11716768 176 193 65
0.08752725 -0.15227604 0.11842883 146 166 41
-0.02462058 -0.15305780 0.19656380 138 172 13
0.08616409 -0.15476890 0.12161123 127 156 28
0.08981010 -0.12256943 0.07700345 86 105 23
0.09137231 -0.11993806 0.08118708 78 96 0
0.08906182 -0.12283077 0.07715485 56 77 0
0.08840144 -0.12383477 0.07562007 64 83 4
0.08887882 -0.12361526 0.07563735 61 80 0
0.03871663 -0.12874003 0.13149597 147 173 63
0.03929339 -0.12748373 0.13148388 127 159 36
0.07542118 -0.15137815 0.12447213 144 159 40
0.07348695 -0.14969802 0.12941024 44 71 0
0.07391688 -0.15005167 0.12824629 72 96 12
0.07505485 -0.15206775 0.12878361 134 149 44
-0.02967008 -0.13940534 0.19623826 95 135 13
-0.03387433 -0.14407836 0.19882762 74 110 10
-0.03304308 -0.14161862 0.19842850 117 146 54
-0.02946093 -0.13905533 0.19611809 95 135 13
-0.02901068 -0.13799001 0.19588228 118 157 14
-0.03177809 -0.14259279 0.19747452 90 123 19
-0.03422885 -0.14587235 0.19894312 103 137 17
0.07761525 -0.15788575 0.13077007 101 119 35
0.07977905 -0.15725860 0.12953866 136 161 44
0.08600864 -0.15656766 0.12243986 148 180 35
0.07027624 -0.15645099 0.14810821 123 164 10
0.06901022 -0.15672405 0.14854261 115 154 0
0.06933776 -0.15725574 0.14847368 125 165 7
0.06964053 -0.14849557 0.14888728 195 214 89
0.06934575 -0.15161511 0.14886762 144 164 13
0.07083955 -0.14945804 0.14869812 204 221 109
0.06699732 -0.14952582 0.14952481 212 231 106
0.06605957 -0.15343653 0.14931022 169 199 23
0.06263284 -0.15671451 0.15027863 114 148 1
0.06618722 -0.15547782 0.14932685 154 190 2
0.06587598 -0.15448178 0.14936829 164 199 8
0.07284839 -0.15386216 0.14756650 104 130 29
0.07136510 -0.15275662 0.14833556 167 195 23
0.08251688 -0.15564804 0.12628776 117 145 26
0.08197930 -0.15549195 0.12600966 94 121 8
0.02881984 -0.14944638 0.15624976 109 138 0
0.02928906 -0.14491712 0.16028774 48 81 0
0.02874295 -0.14855990 0.15757625 100 130 6
0.03014462 -0.14454027 0.15802905 53 87 1
0.03006112 -0.14661255 0.15576470 63 89 0
0.07567147 -0.15158263 0.12398756 155 169 48
0.07724322 -0.15471959 0.12606698 139 158 43
0.09110301 -0.13789259 0.11748258 88 104 29
0.09398826 -0.13693318 0.11383707 74 93 11
0.09198319 -0.13805942 0.11576726 83 100 20
0.09166596 -0.13623805 0.11869753 89 107 23
0.09502856 -0.13873950 0.11160269 81 102 11
0.09295415 -0.14138706 0.11190464 81 100 18
0.09552360 -0.13874958 0.11128581 83 104 11
0.09102886 -0.14358179 0.11332669 71 96 4
0.09021986 -0.14482129 0.11420821 134 157 25
0.09433322 -0.14390863 0.11087392 70 88 6
0.08907239 -0.14361477 0.11487340 86 108 10
0.09046263 -0.14227974 0.11348265 109 135 26
0.08166096 -0.14502303 0.11773623 136 166 34
0.08712239 -0.14722642 0.11636733 132 155 21
0.08824749 -0.14684671 0.11613517 130 153 23
0.08415219 -0.14546055 0.11714574 112 138 13
0.07893187 -0.14875673 0.11923517 113 135 8
0.07967070 -0.15061989 0.11982533 184 203 75
0.08206825 -0.14844981 0.11813951 170 194 46
0.08282994 -0.15091884 0.11908861 168 189 72
0.08199608 -0.14720847 0.11756656 133 156 24
0.08360673 -0.14748541 0.11720307 118 145 6
0.07822669 -0.14741662 0.11882779 154 182 37
-0.01211804 -0.15537950 0.20184292 79 103 0
0.08873192 -0.15043253 0.11597641 120 143 13
0.09029707 -0.14902778 0.11463872 167 187 64
0.09328236 -0.15031460 0.11188294 119 144 26
0.09153001 -0.14960951 0.11349799 118 149 19
-0.01148756 -0.14959621 0.19324720 77 113 0
-0.01134443 -0.15021828 0.19348161 96 132 10
-0.01026987 -0.15732384 0.20510370 66 93 0
-0.03028076 -0.14863241 0.19816607 136 168 22
-0.02910572 -0.14968473 0.19833654 90 121 2
-0.02793488 -0.14996442 0.19778793 80 106 0
0.00432663 -0.14644092 0.20901981 91 121 35
0.00423130 -0.14636905 0.20949669 93 124 30
0.00432081 -0.14616641 0.21007678 116 150 37
0.00436713 -0.14598851 0.21065490 125 160 32
0.08342246 -0.15553501 0.12416849 155 183 38
0.10055447 -0.14342768 0.10429516 120 137 43
0.09729241 -0.14322534 0.10800225 112 132 37
0.09990951 -0.14507402 0.10509386 97 117 28
0.09946035 -0.14669289 0.10566849 94 117 27
0.09184106 -0.14723642 0.11324836 116 141 14
0.09625409 -0.14638446 0.10921100 114 136 36
0.09578280 -0.14546566 0.10963698 89 124 8
0.09546781 -0.14697263 0.10993258 104 128 30
0.09132193 -0.14859709 0.11372977 146 166 43
-0.02246912 -0.15945394 0.20989764 146 164 54
-0.02384130 -0.15763961 0.20847088 171 188 48
-0.02200541 -0.15950713 0.20961347 154 175 58
0.08808863 -0.14239515 0.08813719 76 99 9
0.09152085 -0.14403270 0.08853579 102 125 8
0.09245276 -0.14511822 0.09057061 137 146 65
0.08826721 -0.14342840 0.09100785 105 130 10
0.09157343 -0.14463182 0.09026748 127 145 37
0.04072545 -0.13870013 0.17564547 90 129 4
0.03904563 -0.14018446 0.17610294 161 186 32
0.04216367 -0.13677733 0.17608672 133 178 27
0.04077074 -0.13943879 0.17463829 148 178 20
-0.03843528 -0.15566412 0.21536763 151 174 31
-0.03856906 -0.15552406 0.21458022 171 194 41
0.08139767 -0.13784307 0.07930795 66 85 19
0.07859478 -0.13745840 0.08409026 71 94 12
0.07969560 -0.13755795 0.08432194 76 100 12
0.07908843 -0.13754302 0.08255710 75 97 22
0.08050495 -0.13779430 0.07781149 68 88 25
0.08304896 -0.13804545 0.07748361 69 89 20
0.07894062 -0.13748708 0.08426943 74 98 12
0.08350316 -0.13808182 0.07777146 78 98 27
0.08449856 -0.13823491 0.07539804 64 85 20
-0.00976261 -0.16045406 0.22126339 116 155 0
0.08087156 -0.13834725 0.09061295 89 114 12
0.07967235 -0.13774773 0.09741697 94 116 15
0.07955457 -0.13778414 0.09325026 72 96 2
0.08028229 -0.13803519 0.09484264 88 115 12
0.07876177 -0.13739783 0.09723873 81 104 13
0.03464741 -0.12546147 0.18085192 78 111 4
0.03241180 -0.12582861 0.18523102 96 135 20
0.03711236 -0.12522089 0.17638133 94 128 15
0.03397793 -0.12600985 0.18311851 109 147 26
0.08797983 -0.14075679 0.08265650 58 80 15
0.08801305 -0.14024764 0.08085360 61 81 18
0.08798660 -0.14179747 0.08626691 67 88 9
0.08801850 -0.14115061 0.08398669 61 82 13
0.08766465 -0.14090444 0.08348455 59 82 10
0.04179110 -0.12832740 0.15587679 78 110 0
0.04040264 -0.12845035 0.15903026 66 97 3
0.03995987 -0.12830697 0.16049759 51 84 5
0.04068872 -0.12933356 0.15608284 60 91 0
0.04063087 -0.12992400 0.15473399 37 70 0
-0.07729952 -0.14688979 0.23463424 122 131 26
-0.07680631 -0.14598097 0.23318902 127 139 39
0.03337531 -0.15129407 0.16257076 121 165 44
0.03206188 -0.15115333 0.16266300 115 154 37
0.03367883 -0.15302613 0.16093494 100 144 33
0.00373479 -0.14446205 0.21651118 71 107 17
0.00652251 -0.14302178 0.21570006 150 180 34
0.00595719 -0.14303164 0.21661602 141 173 28
0.00503561 -0.14322460 0.21763819 127 160 21
0.00243097 -0.14550561 0.21590549 120 157 25
0.09005290 -0.13944815 0.06526840 54 71 26
0.09096693 -0.13965096 0.06375450 56 74 26
0.08925422 -0.13909638 0.07059372 61 77 30
0.08694781 -0.13878617 0.06979286 59 77 27
0.08884442 -0.13919124 0.06701272 62 80 32
0.08885097 -0.13905668 0.07012014 65 81 34
0.08617912 -0.13887420 0.06513702 58 76 26
0.08602477 -0.13859876 0.07092293 57 81 23
0.08745883 -0.13923033 0.06136252 59 77 29
0.08645049 -0.13904138 0.06223511 58 76 28
0.08676530 -0.13866155 0.07202375 61 80 25
0.08742741 -0.15430950 0.11865968 120 151 14
0.08048321 -0.15522304 0.12464636 117 144 29
0.07974615 -0.15531535 0.12520406 142 167 40
0.07827702 -0.15529042 0.12599221 166 189 72
0.00628907 -0.14462733 0.18352588 77 103 32
0.00217247 -0.14862059 0.19009560 68 95 28
0.00345199 -0.14799771 0.18960676 63 89 24
0.00613763 -0.14437778 0.18277167 76 102 31
0.08283506 -0.15573645 0.12514296 144 169 25
0.08114422 -0.15634081 0.12714137 150 175 45
0.08146659 -0.13975631 0.09977324 88 113 12
-0.01783089 -0.15502286 0.19810708 64 106 0
-0.01382836 -0.15383977 0.19791676 98 134 0
-0.00254419 -0.15284872 0.20826717 93 128 24
-0.00355268 -0.15659226 0.21155290 65 99 13
-0.00440480 -0.15834297 0.21146445 66 97 4
-0.00395387 -0.15817757 0.21305490 95 130 30
0.07894007 -0.13802299 0.06138997 64 84 33
0.08318254 -0.13879743 0.05723300 78 91 35
0.08196351 -0.13860679 0.05651158 82 95 41
0.07960273 -0.13805501 0.06608585 64 85 29
0.08020531 -0.13830380 0.05715432 85 95 45
0.08486817 -0.13909605 0.05612788 68 79 36
0.06729055 -0.15164940 0.15008681 148 175 78
0.07020592 -0.15317851 0.15013829 173 201 126
0.06758102 -0.15331417 0.15047593 163 191 116
-0.02067567 -0.15989296 0.20956887 83 110 0
-0.02233348 -0.15682954 0.20627536 95 126 0
0.00856856 -0.14337888 0.17733765 90 113 35
0.00895081 -0.14319672 0.17431508 140 150 90
0.00871348 -0.14333658 0.17717551 88 110 35
0.01158585 -0.14258499 0.17715167 106 132 59
0.00558806 -0.14414032 0.18077785 80 103 23
0.00576716 -0.14411724 0.18101108 71 95 17
-0.01437908 -0.15813303 0.20606060 115 148 0
-0.01072350 -0.15747947 0.20528524 63 93 0
-0.06165130 -0.14705515 0.21906851 156 185 45
0.08052608 -0.15228897 0.11833947 92 113 12
0.08128058 -0.15256730 0.11840687 117 138 33
0.08003929 -0.15330246 0.12111462 118 140 31
0.04489676 -0.14628388 0.16473675 95 127 28
0.04718023 -0.14446345 0.16556902 135 170 24
0.04332950 -0.14479175 0.16750282 136 168 45
0.04583162 -0.14558861 0.16501659 99 133 20
0.04536164 -0.14357831 0.16774853 140 168 32
0.04207904 -0.14489980 0.16812903 134 167 54
0.04186542 -0.14262804 0.17102389 94 132 13
0.07880042 -0.13770840 0.05121093 88 96 45
0.08118670 -0.13826317 0.05263406 83 96 43
0.08274492 -0.13859898 0.05326754 79 92 38
0.09591961 -0.14375059 0.08826309 81 100 19
0.09498732 -0.14501016 0.08990198 92 110 28
0.09915822 -0.14095880 0.08893602 79 103 27
0.09682228 -0.14414503 0.09316415 129 149 50
0.09949888 -0.14067970 0.08906538 90 114 38
0.09992533 -0.14002579 0.08800312 89 113 37
-0.00040411 -0.15211895 0.22454704 133 168 48
-0.00036862 -0.15222035 0.22273681 88 126 7
-0.06038490 -0.14816642 0.21904118 133 170 41
0.03157283 -0.13571271 0.16720942 53 88 6
0.03476198 -0.13384318 0.16417359 60 95 5
0.03407460 -0.13454077 0.16446222 78 112 2
0.03604635 -0.13399257 0.16183101 60 93 2
0.03517339 -0.13231291 0.16538201 38 69 1
-0.02227928 -0.15577717 0.20249529 125 156 16
0.03896131 -0.12688212 0.16709463 67 98 5
0.03875978 -0.12746653 0.16621959 54 84 0
0.04107967 -0.12477035 0.16766974 39 75 1
0.04222815 -0.12591946 0.16307454 70 102 5
0.04133555 -0.12582402 0.16493972 50 83 2
0.03731655 -0.12811689 0.16751418 31 63 0
0.04186301 -0.12599935 0.16358314 71 103 6
0.09490135 -0.14148623 0.07903555 98 113 44
0.09315985 -0.14138022 0.07926008 80 98 22
0.09510728 -0.14134808 0.07863601 97 112 43
0.09404881 -0.14257553 0.08197044 93 112 22
0.09621712 -0.14066632 0.07663804 99 115 44
0.09606521 -0.14023192 0.07560522 104 120 49
0.08285150 -0.15330756 0.11930724 131 154 48
0.08749995 -0.15255076 0.11609442 86 111 10
0.08514898 -0.15408231 0.12008763 70 98 0
0.08622610 -0.15245524 0.11635038 127 149 48
0.07768512 -0.15733597 0.12987944 67 88 9
0.07707454 -0.15736748 0.12998492 60 82 10
0.07848293 -0.15427059 0.12399689 135 157 33
0.08170820 -0.15309104 0.12138432 125 143 31
0.08287411 -0.15368453 0.12229214 153 175 41
0.08080925 -0.15361464 0.12251829 135 156 29
0.08502387 -0.15351193 0.12187988 94 116 5
0.08538745 -0.15223028 0.12034371 159 178 53
0.08680005 -0.15167096 0.11987673 158 170 58
0.07016090 -0.11390094 0.12204690 94 119 17
0.07387123 -0.11265159 0.12210367 103 121 9
0.07206099 -0.11385313 0.12149038 77 104 11
0.00805546 -0.14274216 0.21329230 154 184 34
0.01048521 -0.14084715 0.21276644 96 133 17
0.00788572 -0.14139937 0.21667965 109 140 11
0.00989070 -0.14120685 0.21313129 104 139 23
0.04442726 -0.12602748 0.15598193 47 82 2
0.03907390 -0.12788527 0.16428258 36 66 2
0.04489350 -0.12569033 0.15610537 54 83 1
0.04557703 -0.12480986 0.15815021 78 106 3
0.04332317 -0.12625349 0.15845236 51 85 0
0.03600373 -0.13597196 0.16006552 52 86 2
0.03653025 -0.13616982 0.15644178 49 87 4
0.03689150 -0.13590823 0.15506834 64 100 4
0.03620355 -0.13729911 0.15518381 67 100 11
-0.07594979 -0.13209389 0.23279503 196 237 13
-0.07682076 -0.12822355 0.23143744 137 180 0
-0.05691748 -0.14011405 0.21250357 86 125 0
-0.05776091 -0.13985737 0.21286072 93 122 16
-0.05731786 -0.13817503 0.21181004 142 180 32
-0.14185224 -0.11034706 0.04042587 110 138 64
-0.14126985 -0.10972836 0.04129168 77 104 49
-0.12044576 -0.12639408 0.09061867 74 110 12
-0.12107433 -0.12854536 0.09170335 50 80 18
-0.12368298 -0.12894362 0.08849660 58 93 27
-0.12096854 -0.12706727 0.09051226 51 84 13
-0.12112162 -0.12569530 0.08906314 83 123 11
-0.12030546 -0.12835762 0.09258492 55 84 28
-0.12259474 -0.13187174 0.09114580 58 89 21
-0.12398629 -0.13207279 0.08962367 51 87 0
-0.12555490 -0.13559911 0.08935629 44 87 0
-0.12964135 -0.13674843 0.04420149 85 114 22
-0.12632032 -0.13872507 0.04491152 51 83 0
-0.12886627 -0.13676491 0.04327410 66 95 5
-0.12603860 -0.13574155 0.03722840 48 80 4
-0.12832832 -0.13669884 0.04244000 49 77 0
-0.10914567 -0.12654389 0.10370778 57 81 3
-0.11133890 -0.12886631 0.10151307 75 104 20
-0.11003530 -0.12653819 0.10300899 62 89 10
-0.11472819 -0.12752324 0.09911772 106 136 24
-0.10778902 -0.11853754 0.08347107 69 100 0
-0.10777311 -0.11806692 0.08366536 77 105 2
-0.10934728 -0.11797104 0.08077014 87 112 10
-0.10764631 -0.11764881 0.08404760 92 120 17
-0.10888801 -0.12053402 0.08072770 95 123 38
-0.10287375 -0.11665819 0.11723567 64 96 46
-0.10267263 -0.11785290 0.11791584 54 84 24
-0.12891065 -0.14372011 0.04544833 111 128 48
-0.14258330 -0.11197832 0.04714604 48 77 10
-0.14058575 -0.11115197 0.05199535 59 90 22
-0.14083858 -0.11535648 0.04159289 76 110 23
-0.14095898 -0.11676529 0.03692288 50 81 11
-0.14090516 -0.11686405 0.03838744 57 89 14
-0.10806904 -0.11547220 0.08878426 29 64 0
-0.10847308 -0.11588648 0.08730111 29 64 0
-0.10343602 -0.11681786 0.11680094 59 92 37
-0.13549946 -0.13173139 0.04187955 31 62 0
-0.13190404 -0.13553433 0.04508479 65 94 12
-0.13453336 -0.13274503 0.04198215 66 98 1
-0.13177961 -0.13561706 0.04069012 57 88 12
-0.13271940 -0.13456351 0.03436276 35 64 0
-0.13525444 -0.13198318 0.04141747 32 62 0
-0.10718746 -0.12325242 0.08566526 46 78 5
-0.10695724 -0.12000076 0.08673082 66 96 0
-0.10719819 -0.12171284 0.08470385 70 106 0
-0.10690632 -0.12194833 0.08840442 101 138 6
-0.10684839 -0.11967729 0.08788920 79 113 3
-0.12241415 -0.12308636 0.08394540 33 68 4
-0.12679705 -0.12489990 0.07888529 56 90 6
-0.12486660 -0.12439507 0.08185133 91 129 26
-0.12436507 -0.12197932 0.07689133 55 95 6
-0.14034431 -0.11011832 0.04781133 29 56 1
-0.13148183 -0.13693319 0.05645363 57 84 3
-0.13215995 -0.13586919 0.05575502 46 75 9
-0.13039684 -0.13706018 0.05855431 41 69 0
-0.13255021 -0.13748774 0.05396106 62 92 22
-0.12523714 -0.11992004 0.07133760 33 70 0
-0.12237304 -0.11836233 0.07178395 49 88 5
-0.12509654 -0.11918336 0.07004195 75 110 16
-0.12399016 -0.11948839 0.07202395 68 108 12
-0.14260033 -0.11397501 0.04455274 47 83 11
-0.14122579 -0.11618262 0.04397549 59 92 13
-0.14168097 -0.11638315 0.04624077 59 87 10
-0.14228986 -0.11517894 0.04853036 72 104 21
-0.14144938 -0.11693489 0.04797399 62 89 18
-0.13070706 -0.12702669 0.01631722 18 51 6
-0.12938917 -0.12886670 0.01965350 20 54 0
-0.12955266 -0.12690878 0.01684963 11 45 0
-0.13680096 -0.11493582 0.05020808 24 57 0
-0.13683283 -0.11712769 0.05184126 20 51 0
-0.13621281 -0.11352994 0.05078373 20 53 0
-0.13830140 -0.11649277 0.04714284 15 45 0
-0.14113958 -0.11441964 0.03691243 60 95 3
-0.14129199 -0.11184331 0.03845753 44 81 4
-0.14105870 -0.11598450 0.03579891 46 78 3
-0.14289913 -0.11256635 0.04360935 47 82 18
-0.12623221 -0.13097672 0.01693154 141 145 122
-0.12606329 -0.13296758 0.02731704 56 88 15
-0.12581192 -0.13273862 0.02148759 158 160 139
-0.12696089 -0.12938525 0.01879046 35 59 7
-0.12673873 -0.13060433 0.02311776 46 72 7
-0.12583441 -0.13251843 0.02040413 149 153 130
-0.12602149 -0.13368772 0.03140394 52 83 7
-0.12638964 -0.13153160 0.02332643 66 90 28
-0.12490085 -0.13345526 0.01779793 127 129 116
-0.12377539 -0.13616410 0.03118449 141 155 104
-0.12359916 -0.13603686 0.02873041 116 114 117
-0.12466159 -0.13494213 0.02816144 148 154 142
-0.12520242 -0.13378042 0.02288390 127 125 110
-0.12529834 -0.13366286 0.02267809 126 124 109
-0.12355256 -0.13552135 0.02410508 117 117 127
-0.13980272 -0.11819973 0.05041254 70 98 21
-0.14037725 -0.11775932 0.04966342 75 104 22
-0.14017227 -0.11798962 0.04964680 77 106 24
-0.14059179 -0.11742674 0.05003606 67 96 16
-0.12814644 -0.13823842 0.02892821 71 78 36
-0.12414151 -0.14137287 0.02927361 129 122 103
-0.10367065 -0.11506715 0.11327847 41 73 32
-0.10318507 -0.11814261 0.11362244 39 72 25
-0.12355553 -0.14279972 0.03885553 107 113 69
-0.13648716 -0.13091274 0.03638561 44 78 2
-0.13741197 -0.13009949 0.03354667 39 72 3
-0.13552044 -0.13173236 0.04073813 39 70 0
-0.13543980 -0.13191411 0.03594298 34 66 0
-0.13416018 -0.13315292 0.03470406 72 105 14
-0.13160551 -0.12966906 0.07464315 29 66 0
-0.12962475 -0.12817639 0.07707828 37 74 0
-0.13208693 -0.12984498 0.07390535 25 61 0
-0.13362613 -0.12790902 0.06959556 34 69 1
-0.13314414 -0.12841226 0.07086473 36 73 3
-0.13837339 -0.12004660 0.04756675 8 39 0
-0.13849618 -0.11718692 0.04657444 31 62 3
-0.13850278 -0.11780280 0.04666730 46 78 11
-0.13873722 -0.12112504 0.04644113 33 65 0
-0.13777693 -0.12671646 0.04383578 30 62 0
-0.13765873 -0.12735604 0.04296514 29 61 0
-0.13892846 -0.12482300 0.04139489 35 67 0
-0.13960433 -0.12359989 0.04024370 21 56 0
-0.13987005 -0.12411804 0.03727550 14 51 0
-0.13787280 -0.12763375 0.04092570 36 68 5
-0.13763677 -0.12668821 0.04478435 36 68 1
-0.10894921 -0.12363879 0.09466805 104 143 14
-0.10858819 -0.12287686 0.09265795 112 150 11
-0.10808183 -0.12756683 0.09871525 48 74 9
-0.10783064 -0.12728755 0.09770335 83 112 19
-0.11081126 -0.12128010 0.09534215 79 116 3
-0.13967061 -0.12504551 0.03563042 63 98 6
-0.13822027 -0.12787709 0.03685044 25 55 1
-0.13970608 -0.12488668 0.03605175 29 64 0
-0.13709977 -0.12933557 0.04146443 12 44 0
-0.13908692 -0.12649179 0.03457696 54 87 0
-0.10775829 -0.11680258 0.10610373 82 114 38
-0.10965297 -0.11982259 0.10510377 100 129 10
-0.10736988 -0.11787408 0.10709228 56 85 27
-0.13263753 -0.13879371 0.08420279 28 66 0
-0.13322529 -0.13956311 0.08487812 47 87 1
-0.13143952 -0.14181222 0.09065799 86 130 17
-0.13270044 -0.13875686 0.08407151 28 66 0
-0.10092848 -0.12895276 0.10896630 41 66 1
-0.10376529 -0.12552376 0.10849459 103 125 24
-0.10359230 -0.12841108 0.10749857 42 67 2
-0.12347792 -0.14152336 0.02878766 141 122 142
-0.10835253 -0.12239493 0.10570384 35 64 0
-0.10473730 -0.12384773 0.10813623 22 58 0
-0.10630201 -0.12651244 0.10660967 51 79 4
-0.10763676 -0.12280934 0.10616718 35 62 0
-0.13237825 -0.13417852 0.07452431 18 55 1
-0.13231739 -0.13411282 0.07465536 18 55 1
-0.13110800 -0.13293077 0.07739085 27 64 0
-0.12488931 -0.11519480 0.06425789 50 84 10
-0.11987694 -0.11537839 0.06451391 80 114 19
-0.12327275 -0.11540816 0.06485034 42 75 4
-0.12487711 -0.11541712 0.06499240 44 80 16
-0.12179753 -0.11596946 0.06660362 48 83 15
-0.12213296 -0.11612794 0.06715132 47 84 15
-0.13700773 -0.12669446 0.04796681 30 59 0
-0.13712770 -0.12794682 0.04476842 45 73 14
-0.13735533 -0.12636931 0.04691309 42 68 3
-0.13590100 -0.12919006 0.04828810 23 51 0
-0.13843282 -0.12361510 0.04727447 20 50 0
-0.09937067 -0.12003224 0.12061293 72 92 43
-0.10001203 -0.11993486 0.12069618 69 87 35
-0.09412817 -0.12132217 0.11930902 78 103 48
-0.09625424 -0.12007242 0.12075483 58 78 25
-0.11243246 -0.11402272 0.09687996 42 77 21
-0.11302111 -0.11497740 0.09593999 52 88 26
-0.11119495 -0.11215555 0.09716681 59 92 5
-0.11408823 -0.11667575 0.09462612 24 57 0
-0.11471912 -0.11770391 0.09355822 36 72 0
-0.12818870 -0.12780978 0.07947174 30 66 4
-0.12765434 -0.13024956 0.08244470 41 74 5
-0.12836584 -0.12820876 0.07945742 30 67 0
-0.12495643 -0.12905854 0.08659148 50 86 16
-0.12874882 -0.12680747 0.07760598 28 65 0
-0.10278873 -0.13414004 0.10584642 82 113 45
-0.10401566 -0.13380370 0.10537875 85 115 51
-0.10316593 -0.13352641 0.10579783 90 120 58
-0.11068991 -0.11695796 0.10221497 57 88 10
-0.10754583 -0.11546592 0.10562208 96 128 27
-0.11168327 -0.11978497 0.10251232 94 121 4
-0.11002482 -0.11346789 0.10108433 112 146 51
-0.10909426 -0.11621153 0.10395040 66 98 31
-0.10768290 -0.11462460 0.10494493 114 147 42
-0.13362086 -0.12024558 0.06496046 37 72 4
-0.13076724 -0.11967403 0.06553346 85 125 11
-0.12984315 -0.11924707 0.06530175 45 82 2
-0.13366896 -0.12016635 0.06479748 32 68 0
-0.13174030 -0.11535662 0.05683749 52 90 0
-0.13282982 -0.11500167 0.05550536 32 69 0
-0.13390599 -0.11517882 0.05447073 27 59 0
-0.13318692 -0.11346207 0.05431037 16 55 0
-0.13430969 -0.11300926 0.05289121 20 52 2
-0.12001434 -0.12214704 0.08763930 39 81 0
-0.11878759 -0.12116095 0.08715781 59 103 8
-0.11746358 -0.12023727 0.08850976 25 66 0
-0.11821484 -0.12053584 0.08473998 22 60 0
-0.12010968 -0.12203452 0.08515837 61 102 8
-0.11455481 -0.13200752 0.09952658 55 83 22
-0.11315829 -0.13617636 0.10107562 75 107 34
-0.11603390 -0.13826893 0.10008197 84 116 7
-0.11563125 -0.13784355 0.10019387 106 142 32
-0.11598209 -0.13764426 0.09997914 117 152 36
-0.11493757 -0.13732021 0.10042975 113 154 26
-0.11614643 -0.13012509 0.09835120 56 88 25
-0.13147181 -0.13226961 0.02401242 30 61 1
-0.13134319 -0.13280700 0.02648876 46 78 5
-0.10019542 -0.12255593 0.11691742 81 103 41
-0.10189620 -0.11989105 0.11864907 69 94 36
-0.10280361 -0.12039116 0.11684598 83 114 46
-0.13085486 -0.13557315 0.03919613 49 77 0
-0.13049953 -0.13615654 0.04227668 56 83 2
-0.12996957 -0.13588044 0.04087635 67 93 4
-0.12690796 -0.13486199 0.03580220 44 71 0
-0.13063039 -0.13593729 0.04111917 48 77 0
-0.10269110 -0.11705603 0.11611963 67 101 50
-0.10406860 -0.13902584 0.10433526 81 110 20
-0.10326117 -0.13837197 0.10481542 106 139 48
-0.10453345 -0.13901930 0.10413539 83 113 23
-0.10374960 -0.13828328 0.10462177 99 132 41
-0.10474416 -0.13758376 0.10433120 91 123 38
-0.14119022 -0.12405747 0.02783397 16 53 0
-0.14170994 -0.12186174 0.02777471 30 72 0
-0.14139704 -0.12345681 0.02728242 25 65 3
-0.10259034 -0.12224407 0.11390797 100 124 26
-0.10253102 -0.12169734 0.11501838 61 90 10
-0.11132134 -0.12133376 0.10264700 56 86 0
-0.11339812 -0.12437429 0.10058779 69 100 7
-0.10991256 -0.12476632 0.10340846 97 125 14
-0.11317585 -0.12315232 0.10091185 106 137 20
-0.11346739 -0.11568727 0.09576996 42 79 12
-0.11209062 -0.11727537 0.09996802 52 80 6
-0.11177828 -0.11475904 0.09894586 47 82 14
-0.11421534 -0.11935240 0.09659733 80 112 15
-0.11363731 -0.11743842 0.09658840 37 69 2
-0.09866646 -0.11878338 0.11701450 20 53 0
-0.09936359 -0.11853869 0.11672556 23 56 1
-0.12735221 -0.13034867 0.02461144 77 108 15
-0.12650959 -0.13318302 0.03079202 52 79 10
-0.12694588 -0.13111888 0.02648074 66 94 19
-0.13404377 -0.13396515 0.04737723 61 89 4
-0.13485214 -0.13244219 0.04398123 62 90 3
-0.13204952 -0.13575946 0.04681801 58 86 11
-0.13403083 -0.13330291 0.04430531 81 111 15
-0.12230202 -0.14622657 0.10047401 152 191 82
-0.11901641 -0.14700817 0.10068128 134 173 67
-0.12296253 -0.14742982 0.10068043 95 134 53
-0.12384450 -0.14652315 0.10049771 99 140 46
-0.11826700 -0.14097676 0.09959612 103 138 10
-0.09947196 -0.13112617 0.10902908 58 83 28
-0.10189007 -0.13307132 0.10673748 84 113 59
-0.10021199 -0.13110141 0.10857414 58 81 27
-0.11241607 -0.11687301 0.07884223 14 54 4
-0.11300161 -0.11682802 0.08222611 0 38 0
-0.11256498 -0.11683796 0.07990344 13 53 3
-0.10953989 -0.12065479 0.10528073 74 98 0
-0.10848232 -0.12144990 0.10642189 122 144 33
-0.14001426 -0.11349662 0.03693140 18 58 0
-0.14066692 -0.11197639 0.03581218 45 77 14
-0.13928668 -0.11518577 0.03994077 40 77 10
-0.13981667 -0.11395212 0.03875807 13 49 1
-0.13920623 -0.11537626 0.03909844 38 77 10
-0.12315288 -0.14074606 0.02889908 149 125 157
-0.12360644 -0.13908520 0.02691022 152 138 135
-0.12377429 -0.14039212 0.02737329 155 138 156
-0.12525888 -0.14120530 0.03363317 18 9 0
-0.11913170 -0.11900833 0.07774290 56 96 7
-0.11815373 -0.11925651 0.07966646 68 110 10
-0.11905701 -0.11873198 0.07725942 33 71 0
-0.12006266 -0.11997648 0.07848287 65 107 7
-0.12222447 -0.11512213 0.06258851 67 104 1
-0.12507281 -0.11447524 0.06099891 60 95 3
-0.12673020 -0.11409803 0.06007384 59 93 7
-0.10562736 -0.12437194 0.10751776 68 89 10
-0.10722335 -0.12453058 0.10600882 108 135 18
-0.13991939 -0.11353762 0.04207428 25 60 6
-0.14005882 -0.11282612 0.04264813 36 69 22
-0.13971084 -0.11377790 0.04321535 24 59 3
-0.11734638 -0.12259625 0.09263061 53 91 4
-0.11714705 -0.12361338 0.09358811 60 94 20
-0.11671140 -0.12320342 0.09402689 73 106 27
-0.11645818 -0.12239838 0.09392592 76 111 17
-0.11734600 -0.12671277 0.09521703 105 139 16
-0.11686073 -0.12423049 0.09443337 49 81 6
-0.11620910 -0.11971577 0.09263891 37 75 0
-0.11762169 -0.11929157 0.06635837 109 143 20
-0.11710197 -0.11898378 0.06664281 111 146 20
-0.11901835 -0.11949530 0.06543723 103 138 12
-0.11720543 -0.12145996 0.06719356 30 58 0
-0.12606558 -0.13386072 0.08755738 60 100 3
-0.12864979 -0.13175312 0.08168394 72 108 8
-0.12528558 -0.13011701 0.08676817 57 94 17
-0.12993705 -0.13207002 0.07955771 72 111 18
-0.12566021 -0.13028833 0.08619564 52 88 14
-0.12577651 -0.13911898 0.02258626 62 66 15
-0.13725480 -0.13087633 0.02786047 22 57 0
-0.13767278 -0.12992199 0.03220041 36 68 1
-0.13711211 -0.13090238 0.02944466 31 63 0
-0.10473331 -0.11435234 0.10917891 38 72 22
-0.10412318 -0.11438347 0.11399665 52 83 39
-0.12814192 -0.14295541 0.09523589 62 104 2
-0.12244768 -0.14214081 0.09860890 121 165 16
-0.12650749 -0.14409527 0.09748521 96 142 10
-0.12328095 -0.14223132 0.09808856 133 177 30
-0.12597889 -0.14406504 0.09784065 108 154 22
-0.12248632 -0.14165702 0.09812966 100 143 10
-0.12808768 -0.14367799 0.09594917 86 128 16
-0.10580560 -0.11933007 0.11281806 67 99 23
-0.10195552 -0.13041814 0.10631455 29 58 4
-0.10509979 -0.12895058 0.10465790 34 65 0
-0.10605890 -0.12924333 0.10150699 28 56 0
-0.11521854 -0.11853580 0.09232054 60 99 8
-0.11478002 -0.11727726 0.08607876 9 47 0
-0.11472333 -0.11773752 0.09059136 23 58 2
-0.11475094 -0.11717744 0.08552512 12 50 0
-0.13476464 -0.13169713 0.06618398 42 77 0
-0.13552020 -0.13139792 0.06444557 38 71 0
-0.13415721 -0.13138571 0.06765259 42 77 0
-0.13727860 -0.12042712 0.05131673 23 50 5
-0.13689089 -0.12469351 0.05085661 41 72 2
-0.13729177 -0.12137171 0.05096212 46 76 2
-0.13599075 -0.12435689 0.05326857 35 67 0
-0.13700299 -0.12473004 0.05055805 47 79 4
-0.10752925 -0.12973323 0.09832281 40 70 0
-0.10713309 -0.12949605 0.09509481 53 83 0
-0.10713411 -0.13053080 0.09543070 82 114 13
-0.10710704 -0.12933156 0.09483530 70 102 3
-0.10719325 -0.12976499 0.09565882 42 71 0
-0.10102171 -0.12575322 0.10988554 51 80 0
-0.10186429 -0.12498394 0.10991194 26 55 1
-0.10329216 -0.12734078 0.10794633 51 79 5
-0.10110994 -0.12855604 0.10830476 24 53 0
-0.12077668 -0.13583696 0.09485853 52 90 0
-0.12228725 -0.13445160 0.09262059 46 84 0
-0.12079310 -0.13404469 0.09415261 70 106 10
-0.12258793 -0.13647151 0.09305556 89 129 15
-0.13241118 -0.13713107 0.08100692 49 82 0
-0.13318560 -0.13641804 0.07463748 34 72 0
-0.13278797 -0.13647670 0.07707716 33 71 0
-0.13343517 -0.13691311 0.07454325 23 58 0
-0.13082153 -0.13281648 0.07846878 28 66 0
-0.13533102 -0.13058402 0.02162686 23 55 0
-0.13552859 -0.13077256 0.02220265 21 53 0
-0.12475914 -0.14118728 0.03236081 28 12 0
-0.11540803 -0.14277591 0.10018528 103 135 50
-0.11349414 -0.14528318 0.10082830 71 105 8
-0.11619027 -0.14322788 0.10019617 136 173 59
-0.13049875 -0.13907872 0.05087874 72 99 22
-0.12814686 -0.13925269 0.04846609 74 103 21
-0.12947591 -0.13813725 0.04738764 50 76 2
-0.11916256 -0.12941347 0.09459402 65 100 34
-0.12021782 -0.13085729 0.09374516 63 96 27
-0.12235666 -0.12954523 0.09060496 55 90 24
-0.12140648 -0.13121074 0.09236264 59 93 19
-0.12381119 -0.13692908 0.09187254 83 123 8
-0.12686197 -0.14034027 0.09343035 56 97 0
-0.12475370 -0.13729234 0.09155638 76 118 10
-0.12580895 -0.14071101 0.09468032 65 109 0
-0.12128782 -0.14015369 0.09756553 151 182 29
-0.12093408 -0.14012672 0.09781047 136 165 21
-0.12800501 -0.14086489 0.09314400 100 154 6
-0.12631068 -0.12188337 0.07401939 54 92 7
-0.12559472 -0.12240721 0.07549136 41 78 1
-0.12892021 -0.12182525 0.07128307 41 75 0
-0.12833616 -0.12280258 0.07326487 61 98 5
-0.10867358 -0.11644375 0.08362987 121 147 60
-0.11160011 -0.11640003 0.08289748 15 52 9
-0.10982725 -0.11306915 0.10101522 69 102 11
-0.10811573 -0.11772487 0.10569177 36 67 8
-0.10952458 -0.11533125 0.10254383 44 80 6
-0.11010358 -0.12076706 0.10438050 77 109 2
-0.10666859 -0.11427699 0.10604499 44 80 6
-0.11044317 -0.11654574 0.10184459 33 64 4
-0.10842289 -0.11736611 0.10508497 37 67 13
-0.13943103 -0.11976622 0.04221469 18 51 0
-0.13976081 -0.11964435 0.03987645 18 52 2
-0.13910355 -0.12202079 0.04453615 55 95 9
-0.13988051 -0.12335751 0.03902686 29 65 3
-0.13952056 -0.11720470 0.04158052 15 48 0
-0.13942018 -0.11814943 0.04229203 38 73 5
-0.10520229 -0.12184091 0.11053223 120 145 43
-0.10476405 -0.12264434 0.11025874 90 116 19
-0.11319859 -0.11599296 0.08653006 9 47 0
-0.14034118 -0.12261108 0.03416279 56 97 5
-0.13981608 -0.11910462 0.03051511 42 88 16
-0.14017770 -0.12167598 0.03325569 37 79 3
-0.13993749 -0.11903355 0.03007117 42 88 16
-0.13837574 -0.11104970 0.04788817 12 48 0
-0.14074945 -0.11522771 0.05337980 74 104 42
-0.13878077 -0.11550394 0.05653561 74 105 29
-0.14114751 -0.11439335 0.05244092 57 86 32
-0.11031026 -0.14365692 0.10167625 85 118 13
-0.11580954 -0.14063221 0.10001071 163 193 43
-0.10918010 -0.14253095 0.10197371 79 105 16
-0.11298031 -0.14475703 0.10093347 141 179 42
-0.14225665 -0.11117920 0.04560828 60 88 29
-0.14212325 -0.11166151 0.04801547 51 77 14
-0.13170707 -0.11284893 0.05692440 51 86 4
-0.13091603 -0.11304358 0.05715825 33 67 0
-0.13413864 -0.11245487 0.05292346 25 59 8
-0.10144450 -0.12215074 0.11277389 24 57 2
-0.10247444 -0.11956114 0.11484541 39 71 22
-0.09987919 -0.12177347 0.11469051 33 64 4
-0.13333328 -0.13222980 0.02429094 35 67 0
-0.13280460 -0.13223983 0.02400398 24 55 0
-0.13301492 -0.13348940 0.02934486 31 59 0
-0.12564760 -0.13578111 0.03681437 50 81 1
-0.12505071 -0.13811716 0.04175041 48 78 4
-0.12424956 -0.13845342 0.04151074 37 64 0
-0.12427651 -0.13869533 0.04213981 37 64 0
-0.12514469 -0.13563502 0.03578799 43 74 0
-0.11340765 -0.13896951 0.10092423 84 111 6
-0.10965391 -0.13684110 0.10244821 76 110 26
-0.11452308 -0.13929537 0.10051457 87 116 0
-0.11174332 -0.13998453 0.10132397 138 163 43
-0.11553799 -0.13898668 0.10022709 80 112 3
-0.12258782 -0.13853617 0.03808546 172 184 134
-0.12220354 -0.13820484 0.03409042 139 138 120
-0.12246715 -0.13793975 0.03409601 139 138 120
-0.12244070 -0.13776645 0.03298511 143 137 121
-0.10878256 -0.13285996 0.10332382 75 105 43
-0.10783823 -0.13007984 0.10407697 58 87 23
-0.11378594 -0.12925206 0.09965120 56 86 26
-0.11063597 -0.13147579 0.10196420 77 104 49
-0.11009590 -0.13399051 0.10232380 77 108 38
-0.11422408 -0.11764944 0.07450865 40 74 0
-0.11669923 -0.12065008 0.07023188 101 137 27
-0.11822022 -0.11860229 0.07136420 47 84 7
-0.11422025 -0.11961439 0.07261212 68 96 11
-0.11389711 -0.11945493 0.07294603 82 109 32
-0.12860560 -0.13933590 0.09039167 81 117 0
-0.12845327 -0.13853653 0.08941807 130 169 16
-0.12971829 -0.13848464 0.08761726 120 155 11
-0.12700903 -0.13740773 0.08971846 48 90 4
-0.12869427 -0.14052494 0.09202785 71 123 0
-0.10247703 -0.12405375 0.11172734 56 77 8
-0.10279369 -0.12227596 0.11358262 104 128 30
-0.10686936 -0.12742718 0.10544943 50 79 0
-0.10778769 -0.12722103 0.10243176 55 85 0
-0.10969624 -0.12245019 0.10458683 42 72 0
-0.10016491 -0.12523259 0.11341251 57 78 9
-0.10260204 -0.12462898 0.11082999 48 70 0
-0.09978784 -0.12826398 0.11046340 71 98 17
-0.10017314 -0.12643151 0.11203495 87 113 24
-0.13927847 -0.11543012 0.04305257 30 69 2
-0.13957177 -0.11889353 0.03821344 27 62 4
-0.13980216 -0.12083167 0.03609144 3 38 0
-0.13980119 -0.12100948 0.03570125 9 46 0
-0.13943550 -0.11676520 0.04157608 9 43 0
-0.13020833 -0.13400277 0.03180024 49 80 4
-0.12874083 -0.13371512 0.03086917 62 92 4
-0.13067158 -0.13394891 0.03156578 55 88 7
-0.14008057 -0.12703344 0.02333868 65 98 7
-0.13707770 -0.13034539 0.02352800 42 75 6
-0.13882375 -0.12801634 0.02245473 42 74 7
-0.13739876 -0.12910309 0.02138657 11 39 0
-0.10378407 -0.13046423 0.10312462 60 86 25
-0.10494531 -0.13064127 0.10141630 74 109 7
-0.10287265 -0.13245995 0.10228880 51 86 0
-0.13817407 -0.12913667 0.03211014 21 55 0
-0.14032161 -0.12552087 0.03054648 64 100 13
-0.14019120 -0.12696050 0.02738234 50 83 2
-0.14021343 -0.12653632 0.02839924 53 89 1
-0.13796154 -0.12932435 0.03271944 23 58 0
-0.13605987 -0.13665134 0.06534204 31 63 0
-0.13462338 -0.13755684 0.07065614 23 58 0
-0.13636017 -0.13781512 0.06503632 44 76 11
-0.13467835 -0.13762352 0.07051311 23 58 0
-0.13569732 -0.13751733 0.06706261 37 73 3
-0.11851337 -0.11816625 0.07635409 22 63 0
-0.11282868 -0.11712653 0.07750755 23 63 0
-0.11885391 -0.11821219 0.07622819 27 66 0
-0.11669824 -0.11806793 0.07753400 29 68 1
-0.11838877 -0.11852755 0.07771347 32 69 2
-0.11849624 -0.11763088 0.06668085 102 140 27
-0.12005066 -0.11789494 0.06979094 40 79 14
-0.11804189 -0.11836325 0.06719334 69 105 0
-0.11761048 -0.11863303 0.06693259 59 91 0
-0.11249013 -0.11886374 0.07465580 69 95 21
-0.11261047 -0.11968185 0.07415836 90 119 26
-0.11053593 -0.12135736 0.07740323 59 89 0
-0.11060062 -0.12166614 0.07718007 47 74 0
-0.11326442 -0.12221117 0.07210255 57 91 17
-0.11398877 -0.12272563 0.07059810 56 94 9
-0.11032514 -0.11956455 0.07839615 103 137 42
-0.11509901 -0.12002248 0.09504545 57 86 2
-0.11538324 -0.12509100 0.09775523 67 96 4
-0.11512723 -0.12072911 0.09544902 54 84 0
-0.11554054 -0.12346128 0.09632146 64 96 11
-0.11486135 -0.12268806 0.09734613 102 136 24
-0.11433711 -0.12411007 0.09947240 66 100 6
-0.12370896 -0.12558420 0.08510406 56 92 5
-0.12745892 -0.12661538 0.07988790 31 65 5
-0.12310012 -0.12621742 0.08678233 48 83 3
-0.12419111 -0.12630562 0.08504485 38 71 2
-0.12400657 -0.12464699 0.08363187 90 128 25
-0.11992077 -0.12582852 0.06647727 59 83 33
-0.12269799 -0.12809809 0.06515374 61 89 14
-0.12080241 -0.13011532 0.06694923 93 126 21
-0.11603092 -0.12382886 0.06862600 29 59 0
-0.12286714 -0.12804379 0.06502497 66 94 20
-0.12004758 -0.12977640 0.06737848 101 134 30
-0.12129892 -0.13131540 0.06691131 39 67 0
-0.12970926 -0.11774165 0.05959671 76 116 1
-0.13018717 -0.11464613 0.05803900 94 129 37
-0.13454914 -0.11891185 0.05549033 16 49 0
-0.13262883 -0.11901011 0.05732147 28 56 0
-0.12900950 -0.11425672 0.05900062 50 84 0
-0.13281408 -0.11900206 0.05714534 28 56 0
