0.06154488 0.00311723 -0.30337366 29 84 61
0.06379353 0.00685771 -0.30088934 28 86 62
0.06320536 0.00185150 -0.30831420 29 83 60
0.06536777 0.00681949 -0.30361912 27 87 62
0.06981222 0.01223827 -0.30202970 24 87 60
-0.02570534 -0.08381245 -0.26556283 0 76 55
-0.02847541 -0.08491562 -0.26518920 3 75 55
-0.02797806 -0.07859328 -0.26444283 3 134 100
-0.02604741 -0.07808121 -0.26473737 0 134 101
-0.02578017 -0.08126223 -0.26521006 5 87 64
-0.03009653 -0.08269681 -0.26459008 0 114 83
0.06800518 0.01822871 -0.27074811 13 194 153
0.06518424 0.01968799 -0.27225962 14 123 92
0.07028776 0.02294666 -0.27621302 19 120 88
0.06531284 0.01888956 -0.27136087 16 154 118
0.06638474 0.02262525 -0.27565071 23 118 88
0.07097331 0.02360207 -0.27699089 24 125 93
0.06473814 0.01879949 -0.27122962 18 158 121
0.06580622 0.02034955 -0.27304122 17 113 85
0.06817829 0.02359726 -0.27684373 19 129 94
0.06901322 0.02241582 -0.27554655 20 116 88
0.06396735 0.01920804 -0.27165377 17 132 101
-0.04739984 -0.16290163 -0.31731173 33 88 65
-0.04693253 -0.15495485 -0.31773958 25 85 60
-0.04718847 -0.16148376 -0.31793067 32 87 64
-0.04811514 -0.16152710 -0.31401068 28 83 60
-0.04728026 -0.15475599 -0.31622657 23 85 60
-0.04703270 -0.15806222 -0.31792226 27 85 61
-0.04716612 -0.15214761 -0.31620064 22 84 59
-0.04729896 -0.16174495 -0.31751329 32 87 64
-0.04848123 -0.15941347 -0.31204557 25 85 60
-0.04756272 -0.15771955 -0.31560838 25 85 60
-0.04689977 -0.15085632 -0.31707740 24 86 63
-0.04793601 -0.16148612 -0.31476206 28 83 60
0.05735531 0.00148231 -0.29623815 28 73 50
0.05935579 0.00481100 -0.29645905 26 74 52
0.05816063 0.00434185 -0.29533610 25 73 51
0.05984876 0.00423460 -0.29742435 25 73 49
0.05549183 -0.00371110 -0.29739708 26 69 49
0.06028995 0.00518792 -0.29733011 27 75 51
0.05661472 -0.00012588 -0.29640147 27 72 49
0.05909553 0.00479503 -0.29615831 26 74 52
0.05332553 0.00571684 -0.28865865 24 69 48
0.05782704 0.00256313 -0.29609728 28 72 49
0.05472683 -0.00276829 -0.29586762 26 69 49
0.05336695 0.00210974 -0.29106054 25 70 49
0.05837436 0.00365936 -0.29603672 27 72 49
-0.06102941 -0.13567947 -0.26539823 2 131 100
-0.05661186 -0.12452972 -0.26324490 0 149 112
-0.05940347 -0.13388632 -0.26365259 0 146 110
-0.06006363 -0.13652779 -0.26357213 6 150 115
-0.06213168 -0.13505712 -0.26733980 2 105 78
-0.05885338 -0.12825342 -0.26513517 6 145 112
-0.06064285 -0.13430464 -0.26537448 3 134 103
-0.05726658 -0.12601432 -0.26363331 5 149 116
-0.06168773 -0.13464674 -0.26683047 1 108 80
-0.06010495 -0.13309325 -0.26505193 0 138 104
0.06492446 0.02202104 -0.27848476 30 43 36
0.06359514 0.02141076 -0.27645066 31 114 86
0.06755495 0.02406958 -0.27849284 24 44 35
0.06600592 0.02255096 -0.27997991 54 46 43
0.06296653 0.02102956 -0.27593124 26 115 85
0.06992701 0.02541387 -0.28090292 55 46 39
0.06424976 0.02107339 -0.28049970 41 46 39
0.06819846 0.02397547 -0.28133842 54 47 41
0.06576802 0.02244504 -0.27960011 53 49 46
0.06907024 0.02447996 -0.28217429 53 48 44
0.06505375 0.02163183 -0.28082550 54 44 42
0.03861544 -0.05435147 -0.31557739 23 74 57
0.04222971 -0.05168643 -0.31664515 24 73 54
0.04015996 -0.05358551 -0.31679687 23 74 55
-0.03699240 -0.08348873 -0.26358283 3 138 105
-0.03637438 -0.08842158 -0.26406854 8 135 105
-0.04068798 -0.09529895 -0.26376072 11 141 107
-0.03722162 -0.08974780 -0.26400626 7 138 106
-0.03858657 -0.09159618 -0.26388440 9 140 106
-0.03604477 -0.08221798 -0.26366836 5 136 104
0.01347418 -0.05020005 -0.29350936 15 91 63
0.02475733 -0.04059833 -0.29025856 16 63 43
0.00629218 -0.05016274 -0.29065442 25 90 68
0.02215126 -0.04221333 -0.29052675 18 71 53
0.01766862 -0.04836090 -0.29368648 14 93 64
0.01383225 -0.05486735 -0.29738784 18 97 68
0.01861727 -0.04886889 -0.29446644 21 97 69
0.00985937 -0.05100606 -0.29273292 26 94 69
0.01977463 -0.05156031 -0.29707700 19 92 63
0.01794703 -0.05455408 -0.29875553 18 98 71
0.01217530 -0.04693722 -0.29038554 13 87 60
0.02272920 -0.04115467 -0.28990629 19 68 49
0.00631587 -0.05115541 -0.29145867 27 92 70
0.01767125 -0.05484857 -0.29888287 18 98 71
0.02086342 -0.04226539 -0.29006186 17 72 53
0.01624438 -0.05243573 -0.29638940 17 95 69
0.01438844 -0.04711918 -0.29140183 11 90 61
0.01800697 -0.04996924 -0.29510754 18 97 68
0.01530079 -0.04517285 -0.29020208 13 81 58
0.01438080 -0.04852520 -0.29252476 13 92 63
0.01124247 -0.05089256 -0.29318607 17 90 63
0.01725980 -0.05663945 -0.30015519 16 99 71
0.01798586 -0.04282309 -0.28937656 17 75 53
0.02086687 -0.04271197 -0.29042083 15 72 53
0.02112249 -0.05190764 -0.29788533 23 92 61
0.00978641 -0.04857667 -0.29075876 22 86 62
0.01645068 -0.04432077 -0.28997204 14 76 53
0.02057002 -0.04827615 -0.29475990 14 84 58
0.01976296 -0.05380529 -0.29887021 24 98 71
0.00778033 -0.05116284 -0.29204068 30 100 76
0.01943309 -0.05632754 -0.30076030 18 96 70
0.02208137 -0.04409501 -0.29200611 16 71 50
0.02288012 -0.04197041 -0.29061893 19 72 54
0.02069516 -0.05086023 -0.29687849 22 93 61
0.01317939 -0.05198165 -0.29482013 15 91 63
0.02062499 -0.05351798 -0.29897922 24 94 66
-0.02234392 -0.06995095 -0.26429039 12 146 113
-0.01815704 -0.06385053 -0.26455390 3 154 121
-0.01988956 -0.06804923 -0.26430118 3 149 112
-0.01815632 -0.06674802 -0.26430520 0 149 114
-0.01503827 -0.06415774 -0.26433387 1 145 112
-0.02151620 -0.06956374 -0.26427221 0 151 112
-0.01769082 -0.06086139 -0.26478148 8 174 136
-0.01959982 -0.06467446 -0.26457280 12 160 128
-0.01313520 -0.06056593 -0.26452395 15 125 96
-0.01584936 -0.06040947 -0.26470593 0 161 124
0.05190163 -0.02213225 -0.30229932 28 71 52
0.05223017 -0.01121033 -0.29723257 26 71 50
0.04902465 -0.01547903 -0.29449838 27 68 50
0.05097650 -0.02179406 -0.30070946 29 70 52
0.05114802 -0.02023728 -0.30017829 28 69 51
0.05109254 -0.01545124 -0.29765242 26 71 51
0.05307556 -0.01674267 -0.30134925 25 72 52
0.04635780 -0.02117994 -0.29331988 29 68 50
0.04615473 -0.02313642 -0.29400656 29 68 50
0.05243281 -0.02135793 -0.30271825 26 71 51
0.05163272 -0.02321092 -0.30243742 27 70 51
0.04949000 -0.02227912 -0.29867935 29 70 52
0.04388488 -0.02355166 -0.29074070 29 68 50
0.05319540 -0.01361954 -0.29994008 27 71 54
0.04869623 -0.01656592 -0.29454952 29 70 52
0.04981348 -0.01929038 -0.29765072 26 67 49
0.05245939 -0.01949636 -0.30180958 28 71 52
0.05222907 -0.01902309 -0.30121535 28 71 52
0.04823975 -0.01684812 -0.29399404 28 67 49
0.04812995 -0.02053985 -0.29570860 29 68 50
0.05178124 -0.02184379 -0.30196777 28 71 52
0.09058752 0.00929212 -0.31336799 124 124 114
-0.01483660 -0.07576520 -0.26555303 2 110 78
-0.01554490 -0.07691132 -0.26525953 3 106 76
-0.02388756 -0.08367264 -0.26541042 0 91 64
-0.01905362 -0.08007772 -0.26515019 8 76 55
-0.02243634 -0.08283885 -0.26520088 0 78 56
0.00210479 -0.04463072 -0.27022198 8 119 87
-0.00034068 -0.04723572 -0.26848644 12 157 124
-0.00259545 -0.04746830 -0.26960582 7 127 99
-0.00001969 -0.04759473 -0.26783550 11 166 134
0.00131824 -0.04638303 -0.26851735 15 164 132
-0.00471914 -0.05068840 -0.26689780 6 174 138
0.05867583 0.01570245 -0.28261957 24 72 48
0.05719984 0.01436398 -0.28169757 28 66 41
0.05724183 0.01485138 -0.28057438 27 65 40
0.05529079 0.01163415 -0.28305972 21 69 45
0.05388665 0.00935599 -0.28475308 28 67 46
0.05301285 0.00941274 -0.28203508 26 61 41
0.05977082 0.01661225 -0.28351632 25 74 53
0.05783162 0.01404358 -0.28437743 25 70 47
0.05585549 0.01373162 -0.27935687 21 56 32
0.05636147 0.01336594 -0.28178215 27 66 45
0.06029680 0.00932298 -0.29286346 28 77 55
0.06041812 0.00804734 -0.29447576 28 77 55
0.06054279 0.00692208 -0.29591861 27 76 54
0.05967629 0.01042064 -0.29087207 26 75 53
0.05976522 0.00904825 -0.29255795 26 75 53
0.05732445 0.00637152 -0.29278654 27 72 51
0.05885317 0.00646130 -0.29447222 26 74 52
0.07541578 0.01853009 -0.29678959 57 48 41
0.07924800 0.02419578 -0.29042685 109 92 85
0.08215624 0.02252852 -0.29485953 94 107 90
0.08570740 0.02528409 -0.29283533 0 128 76
0.07305032 0.01630756 -0.29873863 33 36 27
0.08466282 0.02414297 -0.29394382 0 130 78
0.08315681 0.02261923 -0.29535347 60 114 88
0.07671466 0.01842254 -0.29778048 113 102 96
0.08427915 0.02454192 -0.29308122 4 128 78
0.07385917 0.01799080 -0.29663914 41 37 28
0.07937282 0.02453308 -0.28998250 108 91 84
0.07734112 0.02201032 -0.29260927 108 87 84
0.07340226 0.01775293 -0.29671851 41 37 28
0.07292492 0.02535981 -0.28460896 76 62 59
0.07678236 0.02066671 -0.29434022 125 107 103
0.07792521 0.02578834 -0.28711590 94 81 73
0.07497334 0.02393684 -0.28811705 88 74 71
0.07968126 0.02153875 -0.29482570 123 99 95
0.08487429 0.02444818 -0.29360425 0 129 76
0.07192361 0.01534150 -0.29952332 53 80 65
0.07411874 0.01657560 -0.29900035 41 41 31
0.07867860 0.02132120 -0.29452732 120 95 91
0.07604726 0.02079844 -0.29366943 107 92 87
0.07338245 0.02143513 -0.29099074 74 63 57
0.07541348 0.02030448 -0.29403406 71 60 54
0.06814784 0.01367152 -0.29780594 23 87 61
0.06626046 0.01582295 -0.29307809 31 89 65
0.06341858 0.01492071 -0.29049763 25 85 59
0.06179008 0.01469523 -0.28869948 28 82 58
0.06591922 0.01373590 -0.29493648 26 88 63
0.06457672 0.01390754 -0.29306236 24 87 60
0.06514498 0.01436439 -0.29327542 25 89 63
0.06199383 0.01291309 -0.29090822 25 81 56
0.06543759 0.01553419 -0.29236105 28 90 65
0.06015256 0.01802520 -0.27893937 22 75 55
0.06002611 0.01751347 -0.28087190 23 72 50
0.05883747 0.01636189 -0.28108755 29 68 47
0.05729005 0.01582223 -0.27666062 27 113 88
0.05780565 0.01577741 -0.27923781 15 65 40
0.05973650 0.01841472 -0.27512610 23 113 85
0.05746929 0.01605348 -0.27634546 25 113 88
0.05779625 0.01614244 -0.27740383 31 114 86
-0.03237688 -0.12131390 -0.24652469 46 9 0
-0.03447510 -0.11768918 -0.24686292 39 25 25
-0.03108885 -0.12351988 -0.24631913 72 22 13
-0.02873488 -0.12071853 -0.24668315 86 33 17
-0.03289217 -0.12154255 -0.24648663 33 3 0
0.05106378 -0.00282531 -0.29105255 24 69 48
0.05028321 0.00063916 -0.28782922 22 61 42
0.05056551 -0.00084907 -0.28913954 24 65 47
0.05104060 0.00127588 -0.28849971 24 65 47
0.05050750 -0.00680272 -0.29271695 24 69 49
0.05085701 -0.00214880 -0.29034695 26 69 50
0.04731353 -0.00490105 -0.28707069 23 58 38
0.05169225 -0.00762516 -0.29488328 24 69 48
0.05280036 -0.00747599 -0.29634508 24 69 48
0.05167998 0.00069206 -0.28975484 25 68 49
0.05289046 -0.00602970 -0.29558259 24 69 48
0.05002274 -0.00643758 -0.29181299 24 69 48
0.04724064 -0.00323149 -0.28594249 25 56 38
0.04604952 -0.00547237 -0.28564978 22 57 37
0.04938808 -0.00669489 -0.29108140 24 69 48
-0.03599205 -0.14224872 -0.24702270 45 16 12
-0.03318738 -0.14022937 -0.24494191 83 27 14
-0.03296269 -0.14388412 -0.24565411 78 24 12
-0.03665310 -0.13997865 -0.24688075 33 12 9
-0.03369059 -0.13856213 -0.24484786 86 32 20
-0.03419754 -0.13911675 -0.24526763 85 33 22
-0.03464575 -0.14508967 -0.24690133 61 13 3
0.04621184 -0.03317080 -0.30135894 22 71 52
0.04647164 -0.03392446 -0.30231112 19 70 51
0.04954168 -0.03003815 -0.30408838 24 73 54
0.04318655 -0.03388350 -0.29729897 21 70 51
0.04440079 -0.03823340 -0.30236211 21 70 48
0.04545017 -0.02912225 -0.29720527 25 66 48
0.05014195 -0.02882458 -0.30409986 28 75 57
0.04605361 -0.03492743 -0.30242002 19 70 51
0.04428420 -0.02562398 -0.29284605 26 65 47
0.04425638 -0.03241247 -0.29783180 22 67 47
0.04983557 -0.02458324 -0.30049384 31 70 52
0.04391606 -0.02877993 -0.29462525 25 64 46
0.04734622 -0.02472873 -0.29682651 26 68 48
0.04774267 -0.02655285 -0.29877877 28 65 48
0.04330738 -0.02729776 -0.29260442 26 65 47
0.04459027 -0.02771463 -0.29485866 25 64 46
0.04661343 -0.03090442 -0.30028930 22 65 48
0.04696976 -0.03292903 -0.30232924 21 72 53
0.04577041 -0.02528044 -0.29484543 27 66 48
0.04506981 -0.03064575 -0.29775682 22 65 46
0.05056556 -0.02625968 -0.30284253 25 70 50
0.04521023 -0.03663474 -0.30240560 21 70 51
-0.01263230 -0.05202821 -0.27596542 14 82 59
-0.00932322 -0.04962017 -0.27675161 15 70 51
-0.01021251 -0.05047080 -0.27486151 19 115 87
-0.00731148 -0.04861419 -0.27345118 17 112 88
-0.00356907 -0.04587277 -0.27448902 18 114 87
-0.00906186 -0.04946098 -0.27655789 15 70 51
-0.00218988 -0.04477886 -0.27556139 39 122 96
-0.00935620 -0.05024752 -0.27176607 13 109 82
-0.00280994 -0.08145401 -0.24857792 91 38 24
-0.00336079 -0.08110095 -0.24872023 77 33 22
-0.00960895 -0.05995994 -0.26437941 84 127 99
-0.00864752 -0.05692617 -0.26510069 11 157 120
-0.00993725 -0.05515512 -0.26560113 26 176 139
-0.00826803 -0.05759909 -0.26491526 13 149 113
-0.01267639 -0.05734059 -0.26516935 36 175 144
-0.00779080 -0.05495869 -0.26555842 15 171 131
-0.00902664 -0.05893152 -0.26461291 70 131 100
-0.02597124 -0.09065319 -0.26839417 2 98 71
-0.02885273 -0.08883410 -0.26701176 0 70 50
-0.02577215 -0.08754180 -0.26709083 0 87 63
-0.02762865 -0.08936875 -0.26749611 0 84 61
-0.02558075 -0.09275587 -0.26938361 3 97 71
-0.02640190 -0.09358702 -0.26957285 0 99 73
-0.03069124 -0.09250954 -0.26821956 0 75 54
-0.02659040 -0.09484930 -0.27007931 12 102 77
0.08885466 0.01159403 -0.30991569 147 132 125
0.07929213 0.01654297 -0.30095467 127 106 101
0.07775817 0.01472403 -0.30249977 82 79 70
0.08567624 0.01779343 -0.30173817 97 118 99
0.07614324 0.01558027 -0.30096307 60 63 52
0.08114666 0.02103879 -0.29646486 121 100 95
0.08642298 0.01769845 -0.30210522 103 124 107
0.08965830 0.01146381 -0.31034264 148 138 129
0.07803699 0.01749666 -0.29943132 121 108 100
0.08800199 0.01908946 -0.30106419 21 95 62
0.07945912 0.01739226 -0.30004302 127 102 98
0.08268506 0.01206462 -0.30724183 116 101 94
0.08014170 0.01415387 -0.30397609 122 107 100
0.08622751 0.02058744 -0.29873967 28 119 78
0.07833632 0.01561378 -0.30168435 120 105 98
0.07369951 0.01540260 -0.30031958 38 41 32
0.07152095 0.01398015 -0.30118886 41 85 62
0.08526693 0.02231454 -0.29643548 12 122 77
0.07686047 0.01609792 -0.30062056 66 63 54
0.08328146 0.01144415 -0.30815667 121 102 96
0.09005035 0.01025910 -0.31185362 126 122 113
0.08839385 0.01391303 -0.30710891 141 128 122
0.08581682 0.01923069 -0.30014619 85 129 102
0.08132517 0.01943782 -0.29835421 122 98 94
0.08620467 0.01661713 -0.30326396 112 120 105
0.08661651 0.01172822 -0.30898738 137 116 111
0.07515533 0.01632186 -0.29977441 39 39 31
0.08392347 0.01685500 -0.30220240 124 105 99
0.08486217 0.02081748 -0.29800424 76 126 99
0.07610848 0.01546140 -0.30108675 60 63 52
-0.01481053 -0.08317099 -0.24838398 65 65 67
-0.00996942 -0.08207753 -0.24919951 68 54 54
-0.00919142 -0.07845364 -0.24879836 83 80 87
-0.01177607 -0.08078483 -0.24863265 89 84 88
0.05163560 -0.03921335 -0.31544852 25 72 54
0.05110615 -0.03685202 -0.31243959 23 70 52
0.05311863 -0.03803179 -0.31693754 24 73 54
0.04535323 -0.04148778 -0.30671000 22 64 44
0.04892478 -0.04153807 -0.31287360 21 68 50
0.04417557 -0.04056849 -0.30387416 21 66 45
0.05181953 -0.03728039 -0.31404307 23 72 53
0.04686031 -0.04162263 -0.30941197 24 67 50
0.05097355 -0.04245537 -0.31720006 23 72 53
0.05010606 -0.03908294 -0.31271201 22 71 52
0.04959555 -0.04163656 -0.31411043 22 71 52
0.05070911 -0.04322287 -0.31743020 22 71 52
0.05120880 -0.03724177 -0.31296235 23 70 52
0.05139713 -0.04176407 -0.31731039 23 72 53
-0.06058420 -0.11964915 -0.28085244 18 70 48
-0.06062178 -0.11903594 -0.27874121 22 71 50
-0.05834792 -0.11259425 -0.28217617 20 67 49
-0.06105389 -0.12061878 -0.27911246 23 71 49
-0.05926196 -0.11379096 -0.27681965 17 64 44
-0.06187808 -0.12363880 -0.27982339 19 68 46
-0.05841653 -0.11234774 -0.28081390 22 67 47
-0.05961838 -0.11570467 -0.27886182 20 67 47
-0.05904804 -0.11392640 -0.27925947 24 69 49
-0.05923254 -0.11454676 -0.27925962 21 68 48
-0.06149179 -0.12247761 -0.28021601 23 71 49
-0.06214301 -0.12482432 -0.28066492 18 67 45
-0.06073213 -0.11985985 -0.28003418 21 70 49
-0.05849398 -0.11274944 -0.28121728 23 68 48
-0.05936853 -0.11456567 -0.27800837 17 64 44
0.04811117 -0.04637770 -0.31673321 21 66 46
0.04762074 -0.04573999 -0.31519386 22 65 48
0.04120769 -0.05168777 -0.31519416 20 71 54
0.04421531 -0.04808340 -0.31404579 20 64 47
0.04740804 -0.04713397 -0.31687999 20 65 44
0.04756812 -0.04437717 -0.31320494 24 67 50
0.03991453 -0.05048053 -0.31180346 20 69 50
0.04543999 -0.04817220 -0.31577116 23 68 48
0.04789103 -0.04660928 -0.31677184 21 66 46
0.04359752 -0.04809181 -0.31325039 21 65 48
0.03891577 -0.05327867 -0.31444085 22 75 57
0.03969937 -0.05163906 -0.31315464 21 70 51
0.04338507 -0.04418930 -0.30747432 21 58 40
0.04447654 -0.04914084 -0.31587702 21 68 48
0.04599460 -0.04819998 -0.31653503 21 66 46
-0.03174758 -0.10046065 -0.27142605 8 135 105
-0.02903924 -0.09504601 -0.26965714 22 112 86
-0.02938935 -0.09547183 -0.26976785 27 120 93
-0.02782626 -0.09536637 -0.27004623 9 93 69
-0.02701656 -0.09749079 -0.27112809 21 89 68
-0.03158453 -0.09757406 -0.27021775 13 131 99
0.05028879 0.00458679 -0.28140017 23 52 34
0.05198490 0.00850454 -0.27905300 20 58 35
0.05031142 0.00523743 -0.27886337 18 49 31
0.05023941 0.00615271 -0.27443403 22 107 78
0.04872693 0.00317250 -0.27437735 26 105 76
0.04721450 0.00014658 -0.27451262 20 109 81
0.04847100 0.00200997 -0.27712408 49 117 92
0.04898433 0.00272166 -0.27839845 21 52 34
0.05270303 0.01022476 -0.27780190 18 74 47
0.05179108 0.00680027 -0.28458285 24 63 44
0.05172642 0.00630124 -0.28613657 23 66 46
0.04846604 0.00235494 -0.27563843 13 108 76
0.05229177 0.00973390 -0.27644870 25 110 79
-0.03697236 -0.12848265 -0.25830907 4 6 1
-0.03517026 -0.12443741 -0.25985390 3 3 3
-0.03703740 -0.12614644 -0.25652769 6 8 5
-0.03580277 -0.12155282 -0.25631931 7 8 12
-0.03591373 -0.12777475 -0.26037645 0 7 1
-0.03744738 -0.13123535 -0.25907421 5 5 3
-0.03735327 -0.12662771 -0.25609857 6 8 5
-0.03698619 -0.13017654 -0.25945318 5 5 3
-0.03790573 -0.12740448 -0.25530288 7 9 6
-0.03876087 -0.12851003 -0.25400388 13 13 13
-0.03532515 -0.12094644 -0.25705254 6 7 11
-0.03775824 -0.13021497 -0.25761327 1 7 3
-0.04421211 -0.09254060 -0.28911021 28 77 58
-0.04919048 -0.10193654 -0.28904492 23 71 55
-0.04894184 -0.10365258 -0.29048699 20 71 54
-0.04562467 -0.09948329 -0.29190743 24 73 54
-0.04334436 -0.09200406 -0.28984660 31 80 61
-0.04797313 -0.10649405 -0.29357424 17 70 52
-0.03682851 -0.08942509 -0.29633081 46 90 73
-0.04807750 -0.09298540 -0.28454915 29 76 58
-0.04704555 -0.10266355 -0.29221705 21 72 55
-0.04696840 -0.10464864 -0.29362091 19 70 53
-0.04937062 -0.10157069 -0.28857785 22 70 54
-0.04240759 -0.08994037 -0.28966421 38 81 64
-0.04937785 -0.10246085 -0.28915486 23 71 55
-0.04201912 -0.09743377 -0.29508564 29 76 58
-0.03308025 -0.08460118 -0.29786158 46 93 75
-0.04392762 -0.09689796 -0.29233631 26 73 55
-0.04658321 -0.09374540 -0.28692597 31 78 60
-0.04898338 -0.10357241 -0.29038203 21 69 53
-0.03729710 -0.08895467 -0.29543266 43 87 70
-0.04628968 -0.09324387 -0.28696436 31 78 60
-0.04113790 -0.09076087 -0.29179883 38 82 65
-0.04919393 -0.10566831 -0.29149759 21 72 55
-0.04397831 -0.09320010 -0.28983799 29 78 59
-0.03946545 -0.09430701 -0.29623374 35 82 64
-0.04859042 -0.09333918 -0.28413799 27 74 56
-0.04694271 -0.09881083 -0.28980958 24 73 54
-0.04878319 -0.10195171 -0.28956637 23 71 55
-0.04577136 -0.09335886 -0.28769094 29 78 59
-0.04748185 -0.09628030 -0.28746647 26 75 56
-0.04857003 -0.10538554 -0.29209486 20 71 54
-0.04585896 -0.09286503 -0.28725579 30 77 59
-0.04549840 -0.09856673 -0.29146251 25 74 55
-0.04465463 -0.09949712 -0.29313463 29 78 59
-0.04814634 -0.09394970 -0.28509760 27 74 56
-0.03470818 -0.12633789 -0.26527336 0 23 15
-0.03404834 -0.12183796 -0.26169428 3 3 3
-0.03627226 -0.13179937 -0.26375049 2 1 0
-0.03303493 -0.11712699 -0.26042721 1 1 1
-0.03567608 -0.13003479 -0.26494068 0 4 0
-0.03463623 -0.12534617 -0.26391980 0 2 1
-0.03431034 -0.12402286 -0.26388079 0 1 0
-0.03562238 -0.12969592 -0.26470205 0 5 0
-0.03438594 -0.12348668 -0.26226890 1 2 4
-0.03363939 -0.11935981 -0.26007354 0 3 2
-0.03359343 -0.12123596 -0.26403365 0 2 1
0.02189718 -0.07016435 -0.24296981 136 67 52
0.02144371 -0.06878908 -0.23318835 143 70 53
0.02188654 -0.06872965 -0.23426244 141 68 51
0.02187552 -0.06850111 -0.23284519 139 67 52
0.02672933 -0.06767566 -0.24356565 133 65 52
0.02706615 -0.06740022 -0.24299079 134 65 50
0.01896784 -0.07136419 -0.24074155 136 71 53
0.02589909 -0.06816712 -0.24384934 134 68 54
0.01847762 -0.07093851 -0.23658158 137 68 52
0.02271689 -0.06838744 -0.23488131 142 70 55
0.02172574 -0.07028781 -0.24316122 136 67 52
0.01916674 -0.07076228 -0.23774672 140 73 56
0.02436757 -0.06873780 -0.24234211 132 63 48
0.01422312 -0.07425826 -0.24287926 132 67 49
0.00453302 -0.07856428 -0.23716862 129 63 47
0.00412483 -0.07983096 -0.24351032 123 60 45
0.00342295 -0.07883528 -0.23516314 131 66 48
0.00360263 -0.07918511 -0.23787585 130 65 47
0.00703456 -0.07817077 -0.24300551 126 58 45
0.01054756 -0.07590617 -0.24081770 128 61 44
0.00799407 -0.07697247 -0.23889112 128 62 46
0.00426306 -0.07900160 -0.23893389 129 63 47
0.00704688 -0.07704376 -0.23620969 130 63 47
0.00334812 -0.08018777 -0.24312122 126 60 46
0.00230838 -0.07973769 -0.23697291 128 63 45
0.00386490 -0.08019525 -0.24486552 125 62 45
0.00497429 -0.07802420 -0.23534325 128 63 45
0.00413037 -0.07880525 -0.23730665 128 63 45
0.00360366 -0.07980737 -0.24165386 128 62 46
0.00810558 -0.07608657 -0.23384929 131 63 44
0.01478853 -0.07338019 -0.23936921 134 69 51
0.02010187 -0.06921558 -0.23139820 140 67 48
0.01817951 -0.07094280 -0.23563579 136 68 49
0.01390998 -0.07324756 -0.23564452 134 65 49
0.00309533 -0.07806177 -0.22938070 133 62 42
0.01302511 -0.07356469 -0.23466060 133 65 46
0.01466835 -0.07315984 -0.23761804 134 67 50
0.00644793 -0.07659619 -0.23148745 131 64 47
0.00563098 -0.07686951 -0.23045944 132 63 47
0.00793569 -0.07632440 -0.23474689 132 63 47
0.01171294 -0.07400771 -0.23303421 133 62 42
0.00761046 -0.07647896 -0.23461854 132 63 47
0.00842817 -0.07591003 -0.23383392 132 61 43
0.01329595 -0.07293165 -0.23167075 137 66 48
0.01306693 -0.07483197 -0.24258056 128 63 45
0.01683373 -0.07187141 -0.23687975 135 66 50
0.01448729 -0.07312877 -0.23682751 136 69 52
0.01292634 -0.07394267 -0.23665431 132 65 48
0.01880756 -0.06854764 -0.24555968 136 71 53
0.01899606 -0.06556343 -0.24693844 77 37 27
0.01666090 -0.06885906 -0.24573752 136 70 54
0.01753351 -0.06561105 -0.24713720 78 38 30
0.02419714 -0.06832423 -0.24484983 139 70 54
0.01475275 -0.07182941 -0.24462542 130 63 46
0.01775090 -0.07083214 -0.24464221 131 64 48
0.01969312 -0.06876462 -0.24532342 130 65 47
0.01764780 -0.06462552 -0.24758466 74 39 33
0.02114913 -0.06810962 -0.24541207 135 70 52
-0.03663569 -0.13343672 -0.24670291 35 16 12
-0.03650292 -0.13406892 -0.24656907 36 12 10
-0.03197140 -0.13445126 -0.24381745 93 40 26
-0.03708689 -0.13541210 -0.24680434 37 11 12
-0.03440101 -0.13547587 -0.24518737 54 11 5
-0.03179475 -0.13699952 -0.24349308 104 45 31
-0.03360324 -0.12745605 -0.24516425 41 8 3
-0.03181649 -0.12791300 -0.24354243 84 34 23
-0.03005082 -0.13311066 -0.24220414 91 40 23
-0.03027921 -0.13045655 -0.24226686 90 38 24
-0.03084504 -0.13103966 -0.24282099 90 39 22
-0.03093782 -0.12520987 -0.24485129 89 32 23
-0.03072728 -0.12603776 -0.24332131 87 33 21
-0.03210696 -0.12543364 -0.24606623 53 8 2
-0.02831295 -0.12318234 -0.24442692 85 32 16
-0.03838326 -0.08048534 -0.26569119 41 175 148
-0.03834582 -0.07832240 -0.26731533 10 135 105
-0.03878818 -0.07902461 -0.26721227 13 140 111
-0.03767050 -0.08059617 -0.26490319 49 178 148
-0.04103589 -0.08145463 -0.26756266 10 129 97
-0.02899378 -0.06572130 -0.26333869 17 150 119
-0.03167372 -0.06712133 -0.26383698 0 127 99
-0.02815687 -0.06409881 -0.26259306 35 173 140
-0.02750442 -0.06514468 -0.26317635 6 150 117
-0.03236501 -0.06355366 -0.26187661 61 176 145
-0.00638619 -0.07533205 -0.25723070 18 22 21
-0.00947556 -0.07647539 -0.26009896 14 52 41
-0.00974523 -0.07632615 -0.26102152 13 76 59
-0.01172530 -0.07867491 -0.25849858 11 23 21
-0.00866806 -0.07698960 -0.25715491 20 26 26
-0.01441211 -0.09023128 -0.24994829 56 32 30
-0.01600761 -0.08759079 -0.24901637 75 61 60
-0.01653610 -0.08678348 -0.24871866 86 80 82
-0.01601261 -0.08863021 -0.24918436 67 53 52
-0.01391288 -0.08666924 -0.24952404 69 51 49
-0.01204065 -0.07747288 -0.26230410 0 69 50
-0.01268685 -0.07835595 -0.26215720 0 65 47
-0.01142544 -0.07435416 -0.26411355 21 109 85
-0.01231627 -0.07714290 -0.26275933 1 65 48
-0.01382137 -0.07587375 -0.26485494 10 109 80
-0.01572945 -0.08118534 -0.26118812 7 70 53
-0.01248400 -0.07899147 -0.25946894 2 38 28
-0.01422241 -0.07989342 -0.26133826 9 72 55
-0.01246321 -0.07834547 -0.26165187 5 72 54
-0.01710816 -0.08202630 -0.26223445 7 53 42
-0.00317942 -0.07196560 -0.26019609 11 68 51
-0.00095475 -0.06995981 -0.26138824 10 88 66
-0.00401564 -0.07253911 -0.26024911 7 58 43
-0.00093434 -0.06985469 -0.26164004 10 88 66
-0.00026529 -0.06979480 -0.26048955 16 88 68
-0.00179076 -0.07129777 -0.25931776 33 60 51
-0.01715195 -0.09897581 -0.23489197 109 46 28
-0.02376880 -0.10967502 -0.23921262 105 44 25
-0.01983367 -0.10391089 -0.24001005 105 42 25
-0.02094065 -0.10638835 -0.24459864 101 40 22
-0.01934049 -0.10277580 -0.23778975 106 43 25
-0.02278628 -0.10730499 -0.23417787 105 42 24
-0.01723109 -0.09978037 -0.23874789 108 45 27
-0.01919079 -0.10282360 -0.23932172 105 42 24
-0.02079591 -0.10515805 -0.23890249 105 42 24
-0.01792313 -0.10016723 -0.23508318 109 46 28
-0.01689868 -0.09941667 -0.23950809 110 45 27
-0.02354884 -0.10882585 -0.23629418 104 43 22
-0.01674128 -0.09870397 -0.23682904 110 45 27
-0.01490126 -0.09599388 -0.23711844 117 50 33
-0.01868556 -0.10214428 -0.23976563 105 42 24
-0.02066154 -0.10521233 -0.24034156 106 43 26
-0.02005375 -0.10489527 -0.24368781 104 43 25
-0.01921592 -0.10339864 -0.24234298 104 43 25
-0.02164176 -0.10666490 -0.24023710 104 41 24
-0.02268803 -0.10784961 -0.23806924 105 44 23
-0.02046550 -0.10525572 -0.24223992 103 42 24
-0.05981633 -0.11502448 -0.27438721 12 49 32
-0.05989513 -0.11556188 -0.27291250 10 58 36
-0.06308214 -0.12985571 -0.27257118 0 25 11
-0.06153501 -0.12229186 -0.27771750 25 73 51
-0.06142313 -0.12246882 -0.27231970 0 6 0
-0.06105231 -0.12044705 -0.27521783 48 89 73
-0.06287388 -0.12916632 -0.27064329 3 32 14
-0.06264615 -0.12727833 -0.27757469 24 68 51
-0.06359967 -0.13220479 -0.27229276 10 63 43
-0.06267168 -0.12807675 -0.27212131 0 14 4
-0.05998371 -0.11589134 -0.27344343 18 57 38
-0.06261513 -0.12785643 -0.27186152 2 15 5
-0.06113902 -0.12099078 -0.27397436 42 78 66
-0.06295732 -0.12865822 -0.27766663 24 68 51
-0.06058810 -0.11868835 -0.27269104 0 9 0
-0.06304678 -0.12946978 -0.27438676 31 73 51
-0.06331706 -0.13033897 -0.27709162 20 67 47
-0.05997721 -0.11597120 -0.27257538 15 59 36
-0.06148421 -0.12248509 -0.27436715 42 79 62
-0.06009404 -0.11652312 -0.27234021 5 40 18
-0.06081258 -0.11933841 -0.27551019 34 77 58
-0.06215199 -0.12513146 -0.27707440 19 66 48
-0.03173946 -0.10975560 -0.24788238 59 54 60
-0.03357526 -0.11422585 -0.24890047 28 26 31
-0.03362368 -0.11493792 -0.25105047 23 21 24
-0.03407839 -0.11578965 -0.25038972 28 28 30
-0.03318831 -0.11506833 -0.25506333 13 11 14
-0.03336225 -0.11354396 -0.24819919 63 58 64
-0.03302768 -0.11477745 -0.25533250 13 11 14
-0.03147728 -0.10949179 -0.24907561 48 46 51
0.06907972 0.00900536 -0.30627120 38 93 70
0.06871419 0.00256242 -0.31662050 34 86 64
0.06535999 0.00457389 -0.30738887 31 87 62
0.06860173 0.00561770 -0.31121835 38 92 69
0.07069324 0.01140282 -0.30497640 33 93 67
0.06731563 0.00687071 -0.30685753 33 88 67
0.06910922 0.00226358 -0.31781331 35 87 65
0.06876989 0.01015138 -0.30378181 32 92 67
0.07164268 0.00645967 -0.31504443 37 86 65
0.06709415 0.00699984 -0.30625427 31 89 67
0.06630975 0.00565615 -0.30718741 29 88 66
0.06565813 0.00400444 -0.30887529 31 85 62
0.06682193 0.00428917 -0.31040350 29 89 64
0.07085135 0.01027691 -0.30716902 41 96 73
0.06757795 0.00103793 -0.31725308 32 86 63
0.06922778 0.00688425 -0.31014270 41 95 72
0.06570559 0.00095548 -0.31415424 30 84 61
0.06899923 0.00758251 -0.30855712 39 90 71
0.06824240 0.00428741 -0.31286407 31 86 63
0.07046422 0.00991268 -0.30712005 44 99 76
0.06422390 0.00111748 -0.31131461 29 83 60
-0.03831856 -0.14078639 -0.26163790 0 9 8
-0.03770468 -0.13716550 -0.26171088 0 9 1
-0.03946534 -0.14835227 -0.26261592 0 5 2
-0.03848258 -0.14133587 -0.26103735 0 9 8
-0.04011178 -0.15141314 -0.26149362 0 8 5
-0.03785324 -0.14241345 -0.26777005 0 68 43
-0.03780985 -0.14095731 -0.26610693 3 57 34
-0.03841493 -0.14412001 -0.26547012 4 58 35
-0.03881207 -0.14380455 -0.26172829 1 11 10
-0.03770972 -0.13865314 -0.26373684 0 2 0
-0.03952168 -0.14886476 -0.26285973 0 16 7
-0.02260325 -0.09541524 -0.26019171 1 10 9
-0.02296481 -0.09655432 -0.26000383 4 8 9
-0.02181396 -0.09469963 -0.26227173 3 12 11
-0.02152983 -0.09094028 -0.25971863 4 14 13
-0.02133387 -0.09086505 -0.26033163 6 18 16
-0.02792566 -0.09538610 -0.31798545 37 88 71
-0.02875790 -0.09610741 -0.31656709 37 88 69
-0.02809545 -0.09507131 -0.31690559 38 89 70
-0.02882957 -0.09557632 -0.31542984 38 89 70
-0.02711589 -0.09343378 -0.31722572 39 90 71
-0.02729777 -0.09438691 -0.31827700 38 89 72
-0.02636900 -0.09109585 -0.31560573 37 88 69
-0.02300183 -0.11057752 -0.24619943 99 42 25
-0.02317753 -0.11145137 -0.24783552 98 40 26
-0.02292861 -0.11117023 -0.24837537 100 43 26
-0.02406409 -0.11140241 -0.24277616 101 42 28
-0.02405802 -0.11046208 -0.24000150 103 44 26
-0.02303293 -0.11034521 -0.24533334 98 41 24
-0.02122433 -0.10695716 -0.24523787 101 39 24
-0.02199697 -0.10838239 -0.24521250 101 42 24
-0.02332311 -0.11275503 -0.25092214 101 43 29
-0.02370302 -0.11333447 -0.25054723 102 46 31
-0.02387233 -0.09563143 -0.25767359 5 9 10
-0.02481870 -0.09922527 -0.25898919 3 7 6
-0.02370144 -0.09296325 -0.25586244 11 15 16
-0.02475974 -0.09753881 -0.25776744 5 9 10
-0.02537352 -0.09948683 -0.25832236 6 7 9
-0.02575988 -0.09448896 -0.25382119 15 19 20
-0.02343354 -0.09836313 -0.26049101 3 9 9
-0.02534216 -0.09505676 -0.25491920 14 18 19
-0.02755263 -0.09644515 -0.25253233 15 16 18
0.07261762 0.01277327 -0.30362597 26 71 50
0.08236651 0.00852479 -0.31345198 76 83 75
0.07925749 0.00996205 -0.31016335 61 83 70
0.07349246 0.00967306 -0.30962479 70 109 90
0.08591306 0.00855048 -0.31406954 125 116 109
0.08029677 0.01203704 -0.30645335 101 101 91
0.07293347 0.00888992 -0.31099370 51 96 76
0.07661279 0.01178768 -0.30623096 38 56 44
0.07133802 0.01126734 -0.30621985 40 94 71
0.08247137 0.00584023 -0.31852400 37 66 48
0.07323904 0.01178219 -0.30560786 22 65 45
0.08047125 0.00593476 -0.31797054 40 71 55
0.08659372 0.00908610 -0.31318930 138 123 118
0.07169150 0.01068806 -0.30737641 52 99 79
0.07415653 0.01161506 -0.30609465 56 87 71
0.07195416 0.01249642 -0.30402243 18 67 45
0.08192078 0.00904152 -0.31239581 70 80 72
0.08612536 0.00892536 -0.31340387 137 122 117
0.07770649 0.00627446 -0.31681213 55 86 68
0.07667949 0.00543347 -0.31820205 51 89 68
0.07568286 0.00798711 -0.31320900 53 87 70
0.07634225 0.00677534 -0.31561333 55 88 71
0.07390039 0.01081110 -0.30755958 56 93 75
0.08582078 0.00785798 -0.31535548 116 113 104
0.08009666 0.00780210 -0.31438592 54 74 62
0.08141984 0.00988045 -0.31072292 70 80 71
0.07710823 0.01064861 -0.30846769 41 63 51
0.07409263 0.00701524 -0.31473947 40 87 67
0.07430191 0.01085826 -0.30754623 70 103 86
0.08031090 0.00591433 -0.31797889 40 71 55
0.07377250 0.01218215 -0.30495527 31 62 46
-0.00195681 -0.07113799 -0.25480986 20 29 28
-0.00049232 -0.06911137 -0.25240609 27 37 36
-0.00067879 -0.07087830 -0.25583911 15 24 23
-0.00118015 -0.06977062 -0.25292870 26 36 35
-0.02957898 -0.05637850 -0.27131844 39 117 93
-0.03290556 -0.06167286 -0.26970255 20 94 69
-0.03186426 -0.05919079 -0.26973605 23 101 75
-0.03380114 -0.05752258 -0.26607484 30 104 81
-0.00551500 -0.05089827 -0.28361422 30 92 71
-0.00458803 -0.05175859 -0.28734380 28 90 69
-0.01701767 -0.05775508 -0.28632638 30 92 69
-0.00317433 -0.05058632 -0.28608960 29 91 70
-0.00695579 -0.05084288 -0.28139919 26 88 67
-0.00782566 -0.05221730 -0.28399596 26 88 67
-0.01122843 -0.05481750 -0.28639606 25 89 65
-0.00637071 -0.05160078 -0.28435367 27 89 68
-0.00932972 -0.05157645 -0.28005439 22 81 61
-0.01049816 -0.05441355 -0.28631151 25 89 65
-0.01784974 -0.05782836 -0.28534132 29 93 69
-0.01231717 -0.05522048 -0.28596529 25 89 65
-0.01337625 -0.05392300 -0.28082520 24 78 62
-0.01474739 -0.05473296 -0.28112784 25 80 61
-0.00642497 -0.05086259 -0.28221327 27 89 68
-0.00186963 -0.05005401 -0.28646776 31 90 70
-0.01004652 -0.05354604 -0.28453317 23 85 64
-0.05483569 -0.10897864 -0.28624183 16 69 49
-0.05118707 -0.10882257 -0.29097325 15 68 50
-0.05047064 -0.10702793 -0.29073986 18 69 52
-0.05261862 -0.10594838 -0.28718248 16 69 49
-0.05003488 -0.09632610 -0.28426495 25 74 55
-0.05248217 -0.10879674 -0.28924027 18 69 52
-0.04964875 -0.09380493 -0.28311515 26 75 56
-0.05375477 -0.10283560 -0.28362587 24 71 51
-0.05367832 -0.10465605 -0.28492680 23 72 51
-0.05259696 -0.10391963 -0.28587428 19 68 49
-0.05354723 -0.10416365 -0.28477600 23 72 51
-0.05095727 -0.10099697 -0.28612083 22 71 52
-0.05072776 -0.10916728 -0.29180896 15 68 50
-0.05296706 -0.10963435 -0.28914979 15 68 50
-0.05039825 -0.10829833 -0.29167295 15 68 50
-0.05549857 -0.10811868 -0.28479683 14 67 47
-0.05865998 -0.15420407 -0.26344401 0 138 101
-0.05751846 -0.15486337 -0.26308706 0 141 101
-0.06005549 -0.15473616 -0.26399770 2 142 107
-0.05804045 -0.15229604 -0.26305160 0 141 101
-0.05882863 -0.15727443 -0.26377451 3 143 108
-0.05696184 -0.15170956 -0.26260826 1 140 101
-0.03128324 -0.11314759 -0.26047218 3 7 8
-0.02789115 -0.10810211 -0.26182687 1 10 9
-0.02859793 -0.11001848 -0.26511651 0 0 0
-0.02974097 -0.11127248 -0.26281774 4 10 8
-0.02829200 -0.10955399 -0.26519972 0 1 0
-0.03004873 -0.11152602 -0.26185161 1 10 9
0.00275241 -0.07088155 -0.25034413 85 87 86
0.00295743 -0.07015114 -0.25060928 38 42 43
0.00277455 -0.07001387 -0.25072801 18 22 23
-0.00982135 -0.07720000 -0.24958175 4 4 6
-0.01199474 -0.07934155 -0.25241044 23 32 29
-0.01720463 -0.08496813 -0.24884278 27 28 30
-0.01382392 -0.08138774 -0.24967381 2 8 8
-0.01419410 -0.08165956 -0.25210607 23 29 27
-0.01525132 -0.08286319 -0.25008386 7 12 15
-0.01432137 -0.08188352 -0.25020322 4 10 10
-0.00814609 -0.07534850 -0.25227982 23 29 27
-0.00889413 -0.07622574 -0.24985386 10 11 13
-0.01022959 -0.07742289 -0.25436547 22 28 26
-0.01168154 -0.07891054 -0.25481093 18 24 22
-0.00966420 -0.07692064 -0.25234565 23 32 29
-0.03993817 -0.07755359 -0.27312511 18 97 75
-0.04132275 -0.07933694 -0.27199364 15 97 74
-0.04146642 -0.07900207 -0.27632329 40 66 53
-0.03845882 -0.07531736 -0.27716342 46 77 62
-0.03928629 -0.07614740 -0.27850366 53 86 69
-0.03763981 -0.07496472 -0.27182612 13 97 73
-0.04147056 -0.07947004 -0.27236283 16 98 75
-0.04056416 -0.07830242 -0.27310494 15 97 74
-0.03670322 -0.07376184 -0.27256191 15 103 78
-0.03722044 -0.07465200 -0.27022344 15 100 77
-0.03881079 -0.07626735 -0.27262786 17 99 76
-0.00827032 -0.07449687 -0.31604931 49 96 78
-0.00854596 -0.07471360 -0.31661898 49 96 78
-0.00522397 -0.07283074 -0.31676966 49 96 80
-0.00270533 -0.07141073 -0.31695634 50 97 81
-0.00865497 -0.07478464 -0.31670320 49 96 78
-0.01061874 -0.07594382 -0.31705809 46 93 75
-0.01465925 -0.07810824 -0.31566527 47 100 80
-0.03762460 -0.13238002 -0.24855468 36 25 23
-0.03828775 -0.13187979 -0.24979115 28 20 18
-0.03783081 -0.13205953 -0.24901672 46 36 35
-0.03789447 -0.13212804 -0.24908061 46 36 35
-0.03452929 -0.12783250 -0.24601951 36 11 7
-0.04373255 -0.12553804 -0.26916608 2 109 81
-0.04323851 -0.12212393 -0.26862448 0 109 77
-0.04397034 -0.12115239 -0.26774576 0 92 65
-0.04160171 -0.12062071 -0.26956478 7 126 96
-0.04275838 -0.11868313 -0.26806387 3 100 69
-0.04429741 -0.12003221 -0.26716179 1 84 58
-0.04156223 -0.11845678 -0.26899421 0 115 84
-0.04352927 -0.13063298 -0.27075553 5 99 75
-0.03903618 -0.11695047 -0.27067220 10 125 94
-0.04003802 -0.12153704 -0.27111897 18 125 95
-0.04274533 -0.11987512 -0.26840705 2 109 79
-0.04398570 -0.12374910 -0.26845706 0 106 78
0.03387676 -0.05774060 -0.31861424 20 73 55
0.03462742 -0.05689809 -0.31726894 18 73 54
0.03718202 -0.05548153 -0.31649017 21 74 56
0.03699853 -0.05632617 -0.31849188 21 74 56
0.00346789 -0.04330163 -0.28045994 18 83 59
0.00558356 -0.04099534 -0.27841851 16 71 52
0.00177243 -0.04233957 -0.27760181 15 74 52
0.00179265 -0.04367092 -0.27974662 20 84 57
0.00313943 -0.04221742 -0.27847046 19 74 53
0.00503796 -0.04223940 -0.27998331 16 78 57
0.00205885 -0.04516771 -0.28234744 27 89 64
0.00165665 -0.04242678 -0.27765116 16 74 52
0.00287218 -0.04381871 -0.28082320 20 86 58
0.01056436 -0.04017804 -0.28098822 17 76 54
0.00212733 -0.04437816 -0.28113812 21 87 59
0.03766531 -0.05136770 -0.31080100 19 72 54
0.03766582 -0.04669001 -0.30488071 18 72 49
0.02085750 -0.05714674 -0.30264732 20 100 75
0.03464023 -0.05446464 -0.31193689 21 74 56
0.03273604 -0.05297824 -0.30830306 19 74 53
0.03296526 -0.05496830 -0.31103289 21 76 57
0.03976797 -0.04983002 -0.31078979 20 69 50
0.03697916 -0.04637332 -0.30384794 17 71 48
0.03699121 -0.04864399 -0.30673310 21 70 51
0.03482352 -0.04864108 -0.30473447 19 73 50
0.03015436 -0.05471934 -0.30813089 19 77 55
0.03213505 -0.04901537 -0.30273399 17 75 53
0.02638840 -0.05303868 -0.30253774 20 84 60
0.03795156 -0.04845779 -0.30738124 21 70 51
0.04123298 -0.04331645 -0.30389357 20 57 39
0.04260311 -0.04153644 -0.30290148 17 59 39
0.03649552 -0.05317963 -0.31201786 20 73 55
0.02525597 -0.05485823 -0.30379865 22 85 64
0.03325966 -0.05203738 -0.30759406 18 73 52
0.03889535 -0.05194873 -0.31266844 22 71 52
0.02713901 -0.05400902 -0.30445674 17 79 58
0.03659597 -0.04656459 -0.30373737 17 71 48
0.03303903 -0.05220811 -0.30760711 18 73 52
0.03838109 -0.05099673 -0.31099018 20 69 50
0.03253458 -0.05099312 -0.30560499 18 76 54
0.03357717 -0.05186012 -0.30766192 18 73 52
0.02170034 -0.05604040 -0.30202267 25 100 70
0.02512313 -0.05373082 -0.30224937 22 85 58
0.03382772 -0.05419246 -0.31084460 20 75 56
0.03244142 -0.05387653 -0.30916891 20 75 56
-0.04907980 -0.14941382 -0.26649609 0 77 51
-0.04486962 -0.14380652 -0.26981810 0 129 98
-0.04673924 -0.14835340 -0.26810503 0 115 82
-0.04519619 -0.15241989 -0.26861465 3 122 92
-0.04460148 -0.13800675 -0.27065906 0 118 86
-0.04773133 -0.14641915 -0.26769871 0 84 57
-0.04619768 -0.14969225 -0.26829410 0 121 86
-0.05033217 -0.15111782 -0.26550373 2 93 62
-0.04613932 -0.14270097 -0.26913965 4 114 85
-0.04668749 -0.15158622 -0.26776406 3 112 81
-0.04990326 -0.15153933 -0.26572737 1 87 58
-0.04318905 -0.15078959 -0.27007776 7 115 83
-0.01774590 -0.07010166 -0.26482877 5 135 99
-0.01357136 -0.06619810 -0.26472053 2 140 104
-0.01362965 -0.06675057 -0.26481220 5 140 107
-0.01701827 -0.07233556 -0.26533750 0 94 67
-0.01323226 -0.06520280 -0.26458898 0 141 106
-0.01931833 -0.06845703 -0.26430565 2 151 113
-0.01784968 -0.06971359 -0.26474366 2 142 105
-0.01359950 -0.06642011 -0.26475671 5 140 107
-0.01760564 -0.06741567 -0.26436263 0 150 115
-0.01282127 -0.07226246 -0.26592588 3 108 75
-0.01867143 -0.07249859 -0.26513001 1 116 85
-0.04629634 -0.15537885 -0.26743630 0 95 67
-0.04837543 -0.15271562 -0.26654366 0 78 54
-0.04880624 -0.15670849 -0.26557446 0 70 46
-0.04710769 -0.15431833 -0.26709163 3 96 69
-0.04732997 -0.15755096 -0.26638922 3 78 55
-0.02806321 -0.11597332 -0.21268913 149 151 148
-0.02666391 -0.11264227 -0.21417005 142 144 141
0.34835297 -0.05983030 -0.13105518 69 87 39
0.34798586 -0.06073583 -0.13278915 74 90 45
0.34782082 -0.06011961 -0.13800098 83 108 53
0.34857875 -0.05838457 -0.13383870 85 112 61
0.34220073 -0.06249895 -0.15230455 21 61 11
0.35458940 -0.05754881 -0.13656937 101 135 59
0.35520232 -0.05737114 -0.13529317 82 121 40
0.35024929 -0.05702131 -0.13596264 76 110 23
0.35467711 -0.05758001 -0.13669251 101 135 59
0.34569889 -0.05844099 -0.14512259 56 94 9
0.34995276 -0.05811637 -0.14201714 93 125 24
0.34888995 -0.05799273 -0.14171392 63 99 0
0.34652388 -0.05819627 -0.14356230 62 97 13
0.34634763 -0.05820915 -0.14368796 53 90 13
0.34432438 -0.05899105 -0.14807130 70 110 21
0.34928057 -0.05887328 -0.14556140 110 135 52
0.34507945 -0.05923124 -0.14868745 76 116 20
0.34608480 -0.05881847 -0.14667401 73 109 19
0.34190726 -0.05971747 -0.14964452 50 88 31
0.34186870 -0.06165388 -0.15243977 32 70 19
0.34439757 -0.05934626 -0.14922507 72 111 22
0.34424078 -0.06000759 -0.15017259 65 104 23
0.34450528 -0.06240828 -0.15117200 40 77 8
0.33863771 -0.06367251 -0.15519476 64 88 56
0.33638361 -0.06478203 -0.15763052 86 108 72
0.35654604 -0.05821469 -0.14058179 52 74 12
0.35239124 -0.05805558 -0.14051202 144 169 88
0.35357660 -0.05832648 -0.14214511 31 42 0
0.35308871 -0.05830995 -0.14215234 30 41 0
0.34407279 -0.05889901 -0.14479120 56 92 31
0.34532180 -0.05808130 -0.14212485 50 84 24
0.34845722 -0.05691942 -0.13577674 72 109 32
0.34705335 -0.05804366 -0.13885322 54 90 29
-0.04217343 -0.03231793 0.29506573 34 77 0
-0.04154030 -0.03183174 0.29496095 43 87 0
-0.03846572 -0.03055482 0.29381284 123 176 10
-0.03965396 -0.02902978 0.29967451 95 133 30
-0.04253670 -0.02930633 0.29800799 75 119 21
-0.03988862 -0.02909329 0.29931879 97 135 32
-0.05338764 -0.02798453 0.30700493 94 131 61
-0.05142331 -0.02809444 0.30548078 92 127 59
-0.05587757 -0.02797451 0.30837038 55 93 16
-0.04766860 -0.02909902 0.30163902 47 90 11
-0.04610846 -0.03046296 0.29897669 31 73 9
-0.04408395 -0.03041018 0.29764217 21 61 0
-0.03462850 -0.03348327 0.28860232 39 77 0
-0.03770956 -0.03038592 0.29335088 111 168 3
-0.03273604 -0.03273557 0.28794020 105 155 20
-0.03650120 -0.03148308 0.29156280 131 186 5
-0.07612041 -0.01817528 0.32207283 82 121 14
-0.07314122 -0.02048711 0.32004091 82 122 25
-0.07491805 -0.01940391 0.32025623 88 127 21
-0.07613999 -0.01957940 0.31999364 79 117 18
-0.07534713 -0.02105000 0.31884873 65 95 31
-0.07203454 -0.02285269 0.31711617 47 77 13
-0.07251050 -0.02170354 0.31836185 62 98 11
-0.04110050 -0.02882741 0.30187881 97 135 52
-0.04690524 -0.02838960 0.30294397 101 137 63
-0.05915242 -0.02719503 0.30858958 14 52 5
-0.05801838 -0.02758663 0.31039473 147 182 124
-0.04111561 -0.03060956 0.30431882 208 226 150
-0.03976669 -0.02884627 0.30101928 82 117 27
-0.04255228 -0.02896327 0.30317223 121 159 86
-0.07727601 -0.02022187 0.31997731 57 94 1
-0.07574782 -0.02277617 0.31906095 72 106 9
-0.06766719 -0.02647447 0.31525546 78 111 6
-0.06786696 -0.02657289 0.31582123 73 103 5
-0.07040703 -0.02591223 0.31875312 184 208 124
-0.07385591 -0.02339224 0.31840038 74 110 2
-0.06673694 -0.02391066 0.31384549 49 84 20
-0.06570156 -0.02431649 0.31336847 41 77 15
-0.06635196 -0.02719321 0.31458226 82 114 13
-0.06397087 -0.02547010 0.31219834 36 69 12
-0.06326566 -0.02807872 0.31244174 72 107 15
-0.05925158 -0.02780314 0.30849501 18 58 0
-0.07761782 -0.02305982 0.32258263 102 129 12
-0.07557596 -0.02389750 0.32196751 94 119 1
-0.05324591 -0.02818340 0.30805016 149 179 119
-0.05248141 -0.02818738 0.30721846 116 153 83
-0.07854960 -0.02223022 0.32289174 99 125 18
-0.07914626 -0.01951001 0.32394227 101 128 35
-0.07908607 -0.01770847 0.32725713 71 106 14
-0.07923239 -0.01666325 0.32614172 70 111 5
-0.07896683 -0.01951140 0.32719707 143 170 65
-0.04821186 -0.02942189 0.30153385 26 69 0
-0.05200230 -0.02912492 0.30357286 16 61 0
-0.05478532 -0.02896184 0.30499673 10 50 0
-0.06781130 -0.02269326 0.31536001 188 213 156
-0.06608967 -0.02347898 0.31455016 87 121 45
-0.06818204 -0.02289833 0.31828156 134 164 102
-0.07882007 -0.01698897 0.32612440 67 108 2
-0.07437496 -0.02035549 0.32408348 158 199 107
-0.07175321 -0.02161076 0.32241845 164 198 111
-0.07135381 -0.02152295 0.32028496 189 226 146
-0.06880565 -0.02278861 0.31984258 163 193 123
-0.04779025 -0.03016066 0.30696750 185 208 138
0.33990175 -0.06441984 -0.15410985 45 72 37
0.34857205 -0.06397995 -0.14432947 41 61 33
0.34520000 -0.06320892 -0.14581218 54 75 44
0.34465027 -0.06396320 -0.14835337 51 78 37
0.34770849 -0.06278540 -0.14210375 62 82 45
0.35507169 -0.06040237 -0.12017340 56 86 16
0.35509530 -0.06149356 -0.12469582 36 58 9
0.35464805 -0.06188577 -0.12680134 64 86 37
0.35555625 -0.06175727 -0.12530932 47 70 16
0.35170603 -0.06344803 -0.13797989 52 69 37
0.34809673 -0.06210224 -0.13958088 53 74 35
0.35267663 -0.06258459 -0.13256645 76 92 53
0.35239711 -0.06281949 -0.13406953 77 92 61
0.34418374 -0.06189369 -0.14628722 63 88 49
0.34468892 -0.06064031 -0.14440283 105 128 86
0.34391549 -0.06048984 -0.14588560 73 99 54
0.34419376 -0.06182879 -0.14622274 63 88 49
0.34942576 -0.06104707 -0.12703435 76 96 47
0.34853619 -0.06104692 -0.12944131 77 97 48
0.34873852 -0.06167578 -0.13488872 69 87 45
0.35022786 -0.06158753 -0.13001533 71 89 49
0.35128671 -0.06192558 -0.13037138 77 95 55
0.34050480 -0.06214972 -0.15209481 82 105 76
0.34200317 -0.06396022 -0.15148884 52 80 39
0.36411691 -0.05679704 -0.12701160 46 77 18
0.36349007 -0.05858352 -0.12968422 62 90 31
0.35917401 -0.06239911 -0.10613552 59 95 5
0.35949644 -0.06263618 -0.10497641 60 100 1
0.35890216 -0.06092935 -0.11356563 59 93 7
0.35809982 -0.06087067 -0.11375051 53 84 6
0.36060992 -0.06163755 -0.11020808 56 92 2
0.36518064 -0.05918483 -0.11328354 50 78 3
0.36633515 -0.05891608 -0.11016309 35 67 0
0.36498874 -0.05959495 -0.11149175 35 64 0
0.35959718 -0.06119560 -0.11774622 49 76 7
0.35876551 -0.06182798 -0.12201656 46 73 6
0.35907894 -0.06170547 -0.12096591 44 70 5
0.35871741 -0.06058704 -0.11610085 37 66 2
0.36199573 -0.06215988 -0.10516941 50 85 1
0.36357716 -0.06182288 -0.10532165 46 79 0
0.36273646 -0.06192815 -0.10583157 57 92 0
0.36082080 -0.06257975 -0.10370091 56 92 5
0.35354987 -0.06091387 -0.14453042 58 81 11
0.35025963 -0.06012729 -0.14935008 57 75 17
0.35142112 -0.06060749 -0.14740218 53 71 11
0.35412905 -0.05923503 -0.14589383 52 68 19
0.35267943 -0.06116770 -0.14524326 45 70 12
0.36284289 -0.06085775 -0.11804737 36 64 5
0.36382979 -0.06003082 -0.12049913 50 77 8
0.36365396 -0.06020076 -0.12042288 48 75 4
0.36348400 -0.06103738 -0.10952988 61 95 8
0.36551520 -0.06049720 -0.10521406 44 77 0
0.36408991 -0.06151824 -0.10526564 36 68 0
0.36436027 -0.06023425 -0.11031146 40 71 1
0.36435151 -0.06102800 -0.10666037 60 94 8
0.35725340 -0.06247551 -0.12991118 42 64 15
0.35787934 -0.06251883 -0.13266411 60 85 17
0.35621849 -0.06248960 -0.12892044 54 77 21
0.35799393 -0.06237654 -0.12692751 46 70 12
0.36239758 -0.06115238 -0.12595248 71 92 25
0.35972178 -0.06219695 -0.12798393 58 83 17
0.36044079 -0.06182414 -0.12552354 51 75 17
0.36067855 -0.06166291 -0.11928437 40 69 5
0.36183426 -0.06125833 -0.11763304 38 67 11
0.36272889 -0.06094760 -0.11813012 36 64 5
0.35044885 -0.06293734 -0.14565273 15 43 0
0.34784320 -0.06333839 -0.14739124 31 53 30
0.34848231 -0.06230447 -0.14825408 25 48 6
0.34941122 -0.06217802 -0.14761153 29 56 5
0.34510377 -0.06344005 -0.14965996 50 76 39
0.35579959 -0.06332484 -0.13812299 33 56 0
0.35771328 -0.06261148 -0.13642235 53 79 8
0.35721385 -0.06084814 -0.13968533 73 101 24
0.35925978 -0.06249180 -0.13438740 72 98 24
0.35510248 -0.06096348 -0.14253299 64 90 17
0.35621667 -0.06329615 -0.13730130 38 63 0
0.35482219 -0.06298342 -0.13428748 50 73 31
0.35829541 -0.06258383 -0.13363136 49 74 8
0.35350248 -0.06273136 -0.13173932 69 85 46
0.35468248 -0.06281713 -0.13305075 48 68 31
0.36110616 -0.06162394 -0.13262717 63 83 22
0.33817121 -0.06403005 -0.15580031 59 87 49
0.36621749 -0.05610822 -0.11665110 72 107 3
0.36687946 -0.05594413 -0.11364686 59 99 3
0.36578020 -0.05776851 -0.11710340 52 92 3
0.35069039 -0.06127967 -0.12707320 64 83 38
0.35161641 -0.06181006 -0.12877616 71 92 49
0.35410106 -0.06137813 -0.12517203 65 83 35
0.35456547 -0.06029821 -0.12009589 70 97 30
0.35175857 -0.06152930 -0.12744181 66 85 39
0.35896555 -0.05444998 -0.12564890 101 129 42
0.35734710 -0.05599867 -0.13046254 59 92 13
0.35785201 -0.05600070 -0.13027655 51 84 5
0.35972339 -0.05821804 -0.13319987 61 93 30
0.35997131 -0.05703129 -0.13111702 56 86 36
0.36300963 -0.06064302 -0.12980545 70 90 39
0.36322260 -0.06049575 -0.13004364 73 91 39
0.36399308 -0.05383037 -0.11879980 69 94 37
0.36239803 -0.05364572 -0.11870295 90 117 36
0.36106813 -0.05364622 -0.11957509 85 118 27
0.36402774 -0.05844938 -0.12476487 70 100 14
0.36488765 -0.05716687 -0.12260830 98 130 21
0.36382529 -0.05954155 -0.12616634 75 94 39
0.36396930 -0.05869212 -0.12602049 110 126 63
0.35754135 -0.05775745 -0.13568825 53 85 22
0.35705134 -0.05816680 -0.13962121 68 95 24
0.35718420 -0.05912424 -0.14218122 54 78 20
0.35979462 -0.05934523 -0.13644780 64 92 31
0.36043504 -0.06037319 -0.13345514 69 97 36
0.35045245 -0.05852566 -0.14384371 57 75 13
