0.21304315 -0.12614721 0.04192731 148 158 36
0.11945629 -0.20280142 0.10661551 160 166 44
0.08838507 -0.26030415 0.12966177 140 171 16
0.08555274 -0.25963083 0.12900777 127 140 8
0.11494715 -0.24560586 0.13852552 93 99 1
0.11206391 -0.24926212 0.13957019 119 119 0
0.19856402 -0.14506036 0.05708139 100 125 24
0.11373971 -0.23858953 0.13006452 75 94 4
0.20594499 -0.13460535 0.05104351 117 128 24
0.11042277 -0.24099480 0.13216594 137 140 1
0.19934201 -0.13966003 0.05586158 112 130 56
0.04156835 -0.31735191 0.09744004 110 128 8
0.20951809 -0.14946823 0.04935651 163 171 70
0.04304275 -0.31689760 0.09998430 129 149 16
0.10416625 -0.23222709 0.12979349 174 187 9
0.10492177 -0.23367251 0.13001081 139 151 3
0.08921952 -0.26965559 0.12591349 83 93 0
0.08724983 -0.27169949 0.12449677 186 202 44
0.09004110 -0.26645127 0.12766995 151 175 19
0.08400884 -0.25000820 0.12330299 161 162 34
0.12602468 -0.22074731 0.12271752 113 130 34
0.15039960 -0.18004879 0.10349790 57 71 18
0.14805637 -0.18016391 0.10555059 55 73 11
0.17142990 -0.18306714 0.09602749 79 98 8
0.17134136 -0.18381669 0.09519316 105 125 12
0.21749708 -0.13696741 0.04393324 116 117 41
0.08108247 -0.27290085 0.11981750 160 174 25
0.03094748 -0.31545758 0.08617037 208 198 12
0.08334137 -0.26422280 0.12564646 114 138 0
0.08485930 -0.26270339 0.12775573 87 106 0
0.06629609 -0.29240507 0.11895025 222 211 23
0.06471349 -0.29263839 0.11922517 186 185 7
0.08414177 -0.24350803 0.12517546 68 80 0
0.02900849 -0.29831821 0.09625887 138 142 19
0.20653640 -0.13319905 0.05719078 116 132 0
0.08687329 -0.27405915 0.12355659 127 134 2
0.08877056 -0.27539769 0.12462807 164 174 23
0.07794594 -0.23479444 0.12740701 108 132 18
0.08878615 -0.25373125 0.13049757 91 109 0
0.08584394 -0.25666410 0.12937699 118 129 0
0.11894691 -0.20425199 0.11894027 52 76 0
0.12030584 -0.20246187 0.11709061 86 113 18
0.06429742 -0.26570642 0.12129620 131 143 7
0.08534234 -0.25592616 0.12855829 143 158 7
0.07314503 -0.25077409 0.12499253 72 102 14
0.16614929 -0.18793726 0.10887603 166 181 38
0.19860126 -0.14790861 0.05752670 111 128 14
0.19842522 -0.13253240 0.05817914 121 133 49
0.16393963 -0.19188285 0.11247399 180 182 10
0.10706827 -0.22188421 0.12949617 70 101 0
0.05700824 -0.29855379 0.12402458 195 195 13
0.08345204 -0.25683543 0.12708667 117 129 0
0.05313575 -0.28769335 0.12248269 170 163 20
0.05446561 -0.28573349 0.12173149 125 131 0
0.06318491 -0.28516704 0.11902544 171 180 9
0.06039295 -0.27115566 0.12041668 123 131 9
0.05630443 -0.27593362 0.12006173 198 200 55
0.05865099 -0.29615000 0.12317420 186 184 14
0.05623713 -0.27970210 0.12075509 192 189 26
0.05160964 -0.27581111 0.12005369 89 117 15
0.20578705 -0.13571584 0.04179783 97 126 0
0.20642829 -0.13582383 0.04170040 103 132 4
0.04213826 -0.31748515 0.10830602 104 121 6
0.20258878 -0.14174706 0.05546894 111 133 32
0.20828705 -0.14888382 0.05023907 142 152 40
0.03923244 -0.31622058 0.08964998 92 98 0
0.04520367 -0.31759492 0.10573985 152 154 18
0.21100448 -0.13119514 0.05740601 137 147 35
0.17155340 -0.17689082 0.08446804 77 111 1
0.18299913 -0.15016593 0.06938998 61 90 0
0.18179429 -0.14951631 0.06967122 65 97 0
0.03898264 -0.31584680 0.08918088 114 116 0
0.14467333 -0.17018238 0.09738477 72 90 30
0.12561904 -0.19812234 0.10879395 115 148 18
0.15883179 -0.16589908 0.09030184 76 102 5
0.06485976 -0.27233666 0.11862510 78 100 0
0.02705622 -0.31537318 0.08522107 211 200 12
0.17262293 -0.17386933 0.08514047 37 71 0
0.02372890 -0.30864453 0.09201486 108 122 9
0.21823579 -0.13545913 0.04503298 126 137 0
0.21758117 -0.13426952 0.04202019 124 134 11
-0.00395052 -0.30546871 0.09158469 103 131 20
0.08881553 -0.26333645 0.12908512 94 115 0
0.02245563 -0.31484377 0.07980978 164 163 11
0.12054507 -0.22576417 0.12834619 154 171 15
0.10012800 -0.21849824 0.12707314 97 113 4
0.10094876 -0.21729064 0.12676680 128 144 11
0.09597184 -0.22090048 0.12776093 127 147 16
0.20231757 -0.13930510 0.04503506 83 113 0
0.20080936 -0.14949849 0.04652388 136 157 0
0.16422966 -0.17401747 0.09468491 88 122 1
0.16509068 -0.17334335 0.09357276 92 119 2
0.16823815 -0.16774383 0.08138543 107 134 17
0.16747977 -0.16554709 0.08388247 64 82 6
0.16782659 -0.16744025 0.08604632 72 92 7
0.12276644 -0.22657414 0.11296860 124 124 36
0.17610808 -0.16937198 0.08694254 44 80 6
0.03083157 -0.31574452 0.09672511 105 116 12
0.03246456 -0.31611207 0.09785722 192 185 19
0.21214874 -0.12893678 0.04910730 143 153 30
0.21219479 -0.12894221 0.04688384 160 171 49
0.12834625 -0.19012813 0.10645837 120 142 8
0.11747649 -0.23687011 0.12536380 185 191 0
0.04329365 -0.27681777 0.11376327 85 113 11
0.03720982 -0.31930923 0.09586546 134 151 37
0.16203482 -0.16640304 0.08810583 90 118 7
0.12095781 -0.23193981 0.12907533 91 102 6
0.12093757 -0.23029795 0.11846618 184 199 10
0.19855943 -0.14013702 0.04301405 67 99 0
0.12116092 -0.23895544 0.12861259 128 137 18
0.10242751 -0.25304374 0.13401203 168 170 27
0.12168547 -0.22855160 0.12913519 151 165 67
0.12239239 -0.23223458 0.12497812 89 105 0
0.12171614 -0.23419479 0.12745178 128 143 24
-0.00689993 -0.33101189 0.04205543 95 107 0
0.12644921 -0.21824649 0.11326563 78 101 0
0.09393380 -0.24761797 0.13116895 79 99 0
0.10035454 -0.24745776 0.13018556 65 85 14
0.15469255 -0.19046271 0.11233481 120 144 0
0.15268396 -0.18985108 0.11223638 124 153 11
0.20408359 -0.13869715 0.05394056 108 127 37
0.07221722 -0.28108498 0.11829802 105 115 0
0.07001843 -0.28047684 0.11758692 196 193 28
0.04913937 -0.27206033 0.11726996 86 112 5
0.11332994 -0.24637549 0.14123116 147 153 5
0.11207902 -0.24658026 0.14262171 174 180 12
0.08801805 -0.24865617 0.12667307 101 117 0
0.11102395 -0.22399573 0.12907666 70 84 9
0.11776470 -0.23815274 0.13292508 194 200 78
0.11751460 -0.23561026 0.13272117 93 103 6
0.11180041 -0.23615040 0.13534155 97 105 19
0.10071773 -0.24950708 0.13040207 76 93 13
0.11126881 -0.24253485 0.13785075 177 177 53
0.12019357 -0.23799783 0.12726109 177 180 37
0.21825901 -0.13385974 0.03591258 155 168 36
0.09803759 -0.21665961 0.12710823 138 149 19
0.11801594 -0.24134339 0.13298374 106 116 17
0.12061860 -0.23853356 0.12965041 111 118 12
0.11861312 -0.23215024 0.13090207 142 156 59
0.11694663 -0.23339686 0.13215576 152 166 68
0.05320360 -0.30069247 0.12857462 179 188 37
0.02113397 -0.31468412 0.07696076 118 121 4
0.11591299 -0.20655331 0.11260030 140 149 22
0.19983834 -0.14958483 0.05038318 115 128 22
0.12222489 -0.20851150 0.11146180 72 96 12
0.20561871 -0.15018713 0.04959524 155 162 59
0.11745884 -0.21333399 0.12372314 66 91 0
0.12053592 -0.21535680 0.12474938 68 83 0
0.16581424 -0.18085355 0.08613027 140 155 4
0.16672389 -0.18577731 0.08958716 166 169 26
0.17112897 -0.18053153 0.09712791 106 135 17
0.13098930 -0.20718485 0.10685439 189 186 13
0.04261180 -0.27415913 0.10922579 93 118 14
0.10551091 -0.21173449 0.11968100 134 163 19
0.10754204 -0.21105045 0.11933051 117 141 3
0.07249715 -0.24906437 0.12495159 71 98 5
-0.01453215 -0.30926070 0.07309181 44 62 10
0.12613645 -0.21096408 0.10746201 93 114 0
0.21419132 -0.12141791 0.04165633 140 154 43
0.21536055 -0.11935921 0.02706457 111 121 32
0.21462363 -0.12206591 0.03110795 138 150 52
0.06790235 -0.27791831 0.11640102 145 157 19
0.17736652 -0.15082552 0.07318426 73 106 1
0.18027943 -0.14731821 0.06810295 77 109 0
0.16819116 -0.18388614 0.10262257 128 146 28
0.16640836 -0.18536066 0.10654845 104 122 12
0.16947488 -0.17380001 0.07984369 130 100 62
0.07590397 -0.28065512 0.11892080 213 205 34
0.19173555 -0.15108727 0.05503070 80 99 9
0.19629203 -0.14964223 0.05815047 89 110 15
0.20465256 -0.14922689 0.05186484 133 141 32
0.07091079 -0.29272911 0.11848061 181 171 21
0.13714190 -0.20609778 0.11828285 103 130 13
0.13632734 -0.20710401 0.11854796 85 114 0
0.03728338 -0.28634718 0.10735454 95 122 15
0.03910784 -0.27824393 0.10781983 67 91 13
0.03732410 -0.28002384 0.10658882 69 93 17
0.03473839 -0.28914270 0.09807231 103 109 39
0.11269001 -0.24883960 0.13743943 131 131 11
0.03773172 -0.29123163 0.10038594 149 158 33
0.05733576 -0.28033668 0.12071053 218 205 28
0.16907912 -0.15388559 0.07645389 94 127 20
0.17218997 -0.15228535 0.07095660 91 119 19
0.13947031 -0.20965868 0.11134666 114 127 0
0.04862966 -0.26511401 0.11377863 73 96 0
0.02910767 -0.31195867 0.09198266 216 193 27
0.02811127 -0.31061482 0.09306728 179 168 18
0.16906264 -0.18195626 0.10084470 91 112 0
0.15296702 -0.16660018 0.09178896 115 134 26
0.08074292 -0.26660007 0.12318849 147 166 25
0.07507434 -0.26356265 0.12348716 163 180 24
0.17644303 -0.15481883 0.06197602 140 153 22
0.17265603 -0.15498117 0.06072206 98 98 46
0.03279504 -0.31530344 0.09093045 195 183 9
0.07511138 -0.28230709 0.11926129 209 202 34
0.07286597 -0.28188652 0.11870024 147 158 27
0.02744461 -0.31399238 0.08799329 235 210 19
0.02723875 -0.31142461 0.09101713 166 148 2
0.20744422 -0.14487949 0.04527394 165 183 11
-0.01454723 -0.31026283 0.06466772 17 51 0
0.09209852 -0.24292143 0.12668772 113 129 7
-0.00339680 -0.32831898 0.04933460 185 189 30
-0.00196291 -0.32981032 0.04411287 173 182 27
0.03333342 -0.31014341 0.09837135 253 215 30
0.03076567 -0.30598524 0.09888545 117 120 7
-0.00575971 -0.33595178 0.03830636 159 168 13
0.03667780 -0.30614084 0.10380470 195 181 22
0.03777674 -0.30698407 0.10434688 179 169 20
0.01865846 -0.31107798 0.08527076 107 122 21
0.02135431 -0.31008866 0.08848415 97 112 7
-0.00663335 -0.32962227 0.04260769 126 138 2
0.04602460 -0.27927923 0.11765496 80 108 8
0.04616614 -0.27807537 0.11738800 88 113 11
-0.00581738 -0.32665482 0.04558868 83 91 0
-0.00585649 -0.32742104 0.04549295 83 91 0
0.04146877 -0.31565639 0.11091077 135 151 29
0.03081826 -0.30310386 0.09863140 119 124 22
0.03150561 -0.30142546 0.09881666 131 137 27
0.09100699 -0.24047258 0.12519145 174 180 32
0.17524789 -0.14742398 0.06882507 108 135 28
0.04930239 -0.29379115 0.12073769 215 196 32
0.04738986 -0.29563996 0.11855482 234 208 23
0.10474504 -0.23724584 0.13033390 129 152 20
0.03997578 -0.27548295 0.10319593 104 125 24
0.21360557 -0.13321863 0.04361286 120 137 9
0.21636340 -0.13265690 0.04219627 127 144 16
0.04611948 -0.30549082 0.12594019 63 88 0
0.05372734 -0.29718408 0.12477603 137 152 25
0.11935673 -0.21037787 0.12002136 62 87 0
0.04797506 -0.28642309 0.11787041 88 104 16
0.03847509 -0.31673995 0.10469609 86 98 16
0.04778545 -0.30842620 0.11537399 176 178 35
0.03892103 -0.28252712 0.11050860 68 92 4
0.14269762 -0.20508367 0.11362766 112 128 0
0.04597643 -0.29260090 0.11560816 160 162 27
0.12038768 -0.20994733 0.11889715 66 83 5
0.03786073 -0.29451203 0.10252966 130 145 18
0.10351224 -0.20992741 0.11741551 71 102 0
0.10443456 -0.21070367 0.11310571 107 127 16
0.10245772 -0.21144392 0.11509865 80 110 0
0.05282779 -0.28650737 0.12168352 174 169 17
0.05139886 -0.29180071 0.12285004 142 144 8
0.09902637 -0.21279694 0.12225730 65 101 0
0.07691087 -0.28637436 0.12042157 197 202 48
0.16679448 -0.18203969 0.08687224 125 127 0
0.10680565 -0.23020549 0.12997594 121 136 7
0.10647828 -0.22784787 0.12955964 76 89 7
0.16050714 -0.18614544 0.10970578 158 176 4
0.17232676 -0.15692268 0.06275925 128 133 69
0.04104466 -0.27920339 0.11324155 105 121 12
0.04090029 -0.28677380 0.11431015 84 115 11
0.21797195 -0.12685333 0.03281702 204 199 131
0.06303685 -0.28149435 0.11804125 95 124 8
0.05220101 -0.30831495 0.12752402 190 172 46
0.03562485 -0.31511569 0.08420973 134 151 23
0.04568940 -0.28743693 0.11636757 112 125 17
0.04151731 -0.28954768 0.11281381 97 120 16
0.12291326 -0.21905869 0.12662336 125 145 11
0.12388309 -0.21998675 0.12341232 71 95 1
0.04212569 -0.29572374 0.11158298 84 94 8
0.04153489 -0.29741788 0.11121218 202 192 33
0.03760045 -0.30098876 0.10709379 116 118 9
0.05045003 -0.27718648 0.11998715 90 116 15
0.03736028 -0.30890375 0.10956291 208 189 35
0.03879032 -0.28033704 0.10966328 136 154 20
0.04270777 -0.29124567 0.11277435 110 127 21
0.05116192 -0.29614344 0.12359474 179 177 32
0.05073154 -0.29652685 0.12281509 192 183 26
0.03977943 -0.28936327 0.10759834 115 137 13
0.20771673 -0.14893106 0.04553519 160 173 83
0.04584456 -0.29755372 0.11650350 235 208 15
0.04045672 -0.29680684 0.10986670 76 89 7
0.04273669 -0.30721542 0.10966665 248 220 14
0.11144753 -0.24110924 0.13743003 124 127 20
0.05061435 -0.30226114 0.12287465 131 142 37
0.10852741 -0.24364410 0.14041966 106 106 8
0.03257278 -0.29866669 0.09887475 119 127 16
0.04682856 -0.29737711 0.11773079 219 202 28
0.03826841 -0.29563233 0.10639000 134 148 25
0.04095450 -0.30172327 0.11030055 138 134 1
0.20184739 -0.14572786 0.05560588 135 150 33
0.03813633 -0.30450574 0.10601435 156 138 0
0.03733166 -0.30238476 0.10641108 214 196 36
0.10736894 -0.20784038 0.11214794 50 72 0
0.04613893 -0.30858877 0.11309312 178 177 27
0.03117185 -0.28165373 0.09830317 163 170 32
0.07883066 -0.23262569 0.12803024 110 130 7
0.13157442 -0.19011955 0.10909139 126 144 8
0.13070151 -0.19027391 0.10846561 103 127 3
0.07969055 -0.22778925 0.12813798 152 162 11
0.03613247 -0.29828238 0.10360871 122 130 31
0.04749652 -0.31160197 0.11438340 147 150 43
0.03380270 -0.29705450 0.09907502 124 130 24
0.05040780 -0.31380701 0.12439513 181 161 90
0.04617735 -0.31632230 0.11194336 176 167 28
0.04589590 -0.31432483 0.11106511 139 154 27
0.02613675 -0.30028394 0.09492512 157 154 21
0.02588261 -0.29889077 0.09507427 182 179 24
0.07901111 -0.25045925 0.12410749 143 149 17
0.13867038 -0.21280581 0.10837747 149 163 6
0.18027744 -0.14350471 0.06571090 99 129 15
0.03464020 -0.29386386 0.09828949 150 156 48
0.17863782 -0.16539375 0.08291862 38 70 0
0.17847946 -0.16041389 0.08037219 70 101 23
0.11669116 -0.22057822 0.12814867 137 159 59
0.12214495 -0.21958633 0.12747413 109 127 17
0.12163159 -0.22053310 0.12784210 106 124 16
0.03920385 -0.31946909 0.08908299 132 141 14
0.07422288 -0.27422214 0.11760834 190 191 9
0.03308864 -0.29170439 0.09758712 112 121 28
0.07999598 -0.27570379 0.11835771 216 209 43
0.08743029 -0.22421698 0.12850617 95 113 11
0.08721385 -0.22077267 0.12827161 165 177 19
0.15367319 -0.17033550 0.09720444 65 87 15
0.04606770 -0.31442195 0.11748431 152 151 9
0.09658232 -0.24225552 0.12987608 123 136 4
0.12465990 -0.22090736 0.11161670 90 111 0
0.17229731 -0.17661543 0.09445240 57 91 0
0.02308931 -0.29571331 0.09479626 66 88 15
0.17280622 -0.17601131 0.09156238 57 90 0
0.17094962 -0.17612311 0.09729211 91 117 16
0.07070400 -0.26778615 0.11917497 127 148 9
0.16795771 -0.18887320 0.09505229 128 125 30
0.16919799 -0.18757537 0.09465557 143 145 80
0.01546196 -0.29522365 0.09450065 56 88 5
0.02167224 -0.29202399 0.09628451 84 112 9
0.09139164 -0.24961451 0.13136771 95 108 16
0.16624102 -0.18619987 0.10292949 114 137 0
0.16753061 -0.18682575 0.10197843 143 160 2
0.03937469 -0.31954995 0.09513002 118 126 23
0.18130642 -0.15530071 0.06583048 44 66 2
0.17789637 -0.15833178 0.06961216 38 67 0
-0.00207848 -0.31086731 0.06628918 65 100 10
0.07923765 -0.27156746 0.11955933 99 110 0
0.00472887 -0.31996703 0.06420995 158 182 24
0.00314514 -0.31951901 0.06215463 105 128 12
-0.00647226 -0.31603912 0.05011326 99 126 0
-0.00494197 -0.31372529 0.05730897 122 161 18
-0.00186586 -0.31753269 0.05650898 113 141 20
-0.00527634 -0.30953172 0.07149080 97 130 23
-0.00884049 -0.30844191 0.07540865 78 102 26
-0.00780178 -0.31276247 0.04843995 67 98 28
-0.00767192 -0.31126863 0.05036277 67 100 21
-0.00138212 -0.31825924 0.05622448 71 100 0
-0.00480477 -0.31846848 0.05079358 147 179 52
-0.00125915 -0.31996599 0.05526951 56 82 0
-0.00188893 -0.32198516 0.05376950 74 97 0
0.01279620 -0.31747946 0.07278918 128 139 0
-0.00856530 -0.30878693 0.05141972 73 104 28
-0.01013168 -0.30645758 0.05545727 65 89 27
-0.01212912 -0.30533147 0.05001106 135 149 61
0.00658457 -0.31461066 0.07015677 80 109 1
0.00745062 -0.31188607 0.07646469 92 118 0
-0.00288706 -0.30995703 0.07032676 80 117 14
-0.00428877 -0.31003398 0.06539311 72 108 12
-0.00389204 -0.30980727 0.07089481 78 117 11
0.12430201 -0.22460416 0.11170045 133 121 39
-0.00095880 -0.32628965 0.05451472 154 164 15
0.00257681 -0.32752287 0.05472422 129 132 0
-0.00898946 -0.30744401 0.06016074 66 101 21
-0.00982038 -0.30731434 0.06376687 78 102 26
-0.00982832 -0.30670521 0.05828735 61 84 14
0.00245736 -0.32832986 0.05096330 181 183 40
0.09675080 -0.24135406 0.12931764 159 171 23
-0.00175440 -0.31511444 0.06072324 88 119 0
-0.00298638 -0.31154072 0.06396373 65 102 7
0.00316645 -0.31537706 0.06559750 107 139 14
0.00248234 -0.30755419 0.08589161 63 93 5
-0.00177273 -0.30961061 0.07958063 107 139 40
0.12153424 -0.19812828 0.10901270 36 63 0
0.12332941 -0.19636127 0.10664281 86 113 6
0.00441380 -0.31259349 0.07196405 84 113 0
0.00193237 -0.31337455 0.06757129 86 120 0
0.12666315 -0.21655205 0.12567647 93 112 4
0.00560019 -0.32284707 0.06321301 152 168 35
-0.00986369 -0.30797315 0.07352345 59 79 16
-0.01099493 -0.30686384 0.06732466 60 88 13
-0.01049524 -0.30764857 0.07451637 63 81 23
0.18190259 -0.15267424 0.05761446 83 101 2
0.01430712 -0.31284305 0.07933154 92 113 22
0.01139505 -0.31150252 0.07949018 125 157 20
0.01055050 -0.31056932 0.08033744 103 130 0
0.13347790 -0.21770480 0.10735152 106 115 0
0.00871496 -0.31957874 0.06893087 128 138 3
0.01605722 -0.31151500 0.08247963 103 119 20
0.01833955 -0.31354249 0.08178106 171 184 44
0.20596141 -0.13550504 0.05139802 129 139 50
0.12816577 -0.21507904 0.11161897 91 109 1
0.18751080 -0.15079451 0.06644655 77 102 21
0.12187006 -0.22947358 0.11625145 152 162 40
0.20799109 -0.13947016 0.04446325 158 181 5
-0.00820002 -0.30858600 0.08133417 103 127 39
-0.01102560 -0.30870494 0.08386460 149 157 56
0.08417068 -0.25203699 0.12452544 142 159 1
0.20804678 -0.13997443 0.04474854 153 173 0
0.01540457 -0.31861001 0.07390805 156 162 28
0.00325575 -0.30702347 0.08710278 62 92 6
0.00638151 -0.30702385 0.08601938 55 85 0
0.15773490 -0.17732413 0.09773413 54 71 3
0.15934695 -0.17648003 0.09725114 58 81 1
0.17109625 -0.17918731 0.08747687 87 127 4
0.01077306 -0.30871493 0.08375192 128 160 23
0.00718388 -0.30842671 0.08209737 71 99 0
0.00724046 -0.30925712 0.08062792 87 114 0
0.12497821 -0.19696748 0.10544276 125 148 8
-0.01487953 -0.30749652 0.09388612 45 75 0
0.13757060 -0.20915098 0.10719572 86 113 8
0.13792284 -0.20958336 0.10736043 72 99 0
-0.01356186 -0.30928242 0.08428021 123 135 53
0.17157215 -0.16657735 0.07710268 88 100 2
0.17323382 -0.16591507 0.07728761 55 81 8
0.21381311 -0.13755679 0.04062646 168 185 8
0.21153226 -0.13724630 0.04138497 148 170 0
0.04507098 -0.31042406 0.11089674 212 209 44
0.06893425 -0.28549415 0.11899775 130 141 13
0.16059421 -0.18003869 0.10680903 77 106 22
0.15952742 -0.18129665 0.10799821 90 118 34
0.21367849 -0.14274162 0.04852149 151 157 21
0.21762764 -0.13805282 0.04783078 185 193 58
0.03760045 -0.31550387 0.09609138 119 123 3
-0.01535327 -0.30824026 0.09109594 65 94 4
0.09049760 -0.24522991 0.12687287 166 173 18
0.17907567 -0.14682572 0.05847258 77 110 6
0.17969003 -0.14594992 0.05868284 57 89 0
0.18292788 -0.15441717 0.07304227 70 96 22
0.18474552 -0.15198404 0.06971850 69 92 12
0.04397482 -0.31212583 0.10842074 179 185 33
0.17682986 -0.16104615 0.07434848 25 51 3
0.17999397 -0.15922767 0.07457507 20 47 2
0.18533580 -0.14955305 0.05683541 56 83 6
0.15093803 -0.19463243 0.11257884 108 130 0
0.15271774 -0.19434932 0.11245510 156 177 24
0.10635119 -0.22013626 0.12977542 137 165 20
0.10243293 -0.22148967 0.12798268 100 120 0
0.08055211 -0.26007238 0.12698472 161 174 9
0.07848677 -0.26874098 0.12086686 156 172 11
0.07380529 -0.26592889 0.12133333 123 148 18
0.17512250 -0.17119898 0.08650691 31 66 0
0.06746499 -0.26894942 0.11901227 108 119 0
0.12381553 -0.22316010 0.11690254 86 109 0
0.12396879 -0.22244830 0.11555451 74 97 0
0.17103617 -0.18562654 0.09608796 106 123 0
0.05437317 -0.25517613 0.12267216 132 151 10
0.06097132 -0.29559201 0.12080766 154 155 1
0.06411537 -0.29505786 0.11958265 215 211 18
0.10257439 -0.25267300 0.13206442 140 137 8
0.20291343 -0.13309239 0.06232286 101 117 10
0.15008168 -0.19698012 0.11410406 97 124 0
0.14639875 -0.20113601 0.11301398 101 124 0
0.16033837 -0.16401434 0.08276013 79 106 1
0.15416491 -0.18109469 0.10312649 71 95 7
0.15428264 -0.18086822 0.10271630 66 88 5
0.14132172 -0.17453338 0.10424231 74 90 27
0.14147343 -0.17425452 0.10388204 77 94 26
0.14106053 -0.19745179 0.11094474 142 164 17
0.14333118 -0.19970450 0.11177640 87 109 1
0.14809600 -0.19097622 0.11310081 107 140 33
0.20872392 -0.14990191 0.04984281 125 133 30
0.21086763 -0.14516231 0.04943584 132 140 5
0.15749758 -0.19403839 0.11323104 154 170 2
-0.01201071 -0.30918357 0.08968977 132 133 63
0.19286086 -0.14531492 0.04966893 112 142 8
0.19086203 -0.14391626 0.05097389 46 73 6
0.04528290 -0.26944986 0.10946817 70 95 11
0.14125367 -0.19679934 0.11089779 140 164 14
0.14939675 -0.19387634 0.11324571 111 142 5
0.13819984 -0.20312056 0.10886437 98 116 14
0.13723050 -0.20487987 0.10789573 122 145 5
0.06993963 -0.27246323 0.11688265 80 102 1
0.04314681 -0.27077523 0.10560225 94 113 0
0.11666629 -0.22757813 0.13022971 119 137 3
0.04317771 -0.31017336 0.11650443 123 141 23
0.04259177 -0.30856112 0.11498287 146 160 23
0.04922834 -0.26607332 0.11491132 126 151 33
0.16149212 -0.19152334 0.11363401 161 180 29
0.15036981 -0.19013059 0.11148282 83 116 3
0.14888313 -0.19068588 0.11113252 101 132 3
-0.00209417 -0.33739665 0.03900545 114 133 8
0.14972652 -0.18397197 0.10457508 66 75 18
0.14908887 -0.18583144 0.10785794 74 100 3
0.14065056 -0.19078480 0.10939702 76 88 12
0.14362869 -0.19044709 0.10852094 75 89 14
0.13765332 -0.18918422 0.11038329 100 123 6
0.16132584 -0.17880672 0.10233399 78 105 12
0.20161042 -0.14247842 0.04669033 118 151 8
0.14462316 -0.18544197 0.10819762 59 73 12
0.14043355 -0.18537022 0.10945327 105 130 3
0.14307353 -0.18640609 0.10876468 63 79 4
0.13171190 -0.19743852 0.11631907 89 119 5
0.13337526 -0.19345549 0.11476941 104 139 21
-0.00213344 -0.30649924 0.08777910 77 109 26
0.05860640 -0.25660512 0.12515432 95 114 0
0.05907261 -0.25768274 0.12503394 87 103 5
-0.01781387 -0.30777508 0.09387331 93 123 0
-0.01613609 -0.30729002 0.09440003 113 144 41
0.06054606 -0.28487554 0.11937468 130 145 18
0.16695605 -0.16469218 0.08172956 60 81 4
0.21437785 -0.12239063 0.05093709 143 153 38
0.21330199 -0.12767442 0.05583066 140 150 25
0.21333976 -0.12487929 0.05042605 150 159 42
0.21371984 -0.12799776 0.05869346 125 136 16
0.19592775 -0.13440052 0.05513623 110 130 43
0.00276091 -0.30188146 0.09321555 110 144 21
0.20956650 -0.13385575 0.04639760 102 118 11
0.13113667 -0.21433049 0.10636473 173 184 28
0.11357538 -0.23075175 0.13252380 161 169 60
0.13090989 -0.21639702 0.11402488 129 140 22
0.13064793 -0.21669842 0.11444870 107 120 6
0.20420778 -0.13400577 0.05352146 137 148 46
0.03960169 -0.30943906 0.10457894 153 150 9
0.16684976 -0.16753073 0.07896695 104 131 16
0.10843100 -0.24734628 0.13189161 170 176 24
0.16996941 -0.16156009 0.08491372 70 96 9
0.16940571 -0.16159020 0.08497302 79 105 16
0.16914146 -0.15726523 0.08039445 89 116 21
0.03670609 -0.32054400 0.08481514 105 114 23
0.12308162 -0.22187394 0.12826410 113 133 20
0.01125492 -0.29657179 0.09432495 77 110 6
0.06057087 -0.25029391 0.12687045 101 119 9
0.06341486 -0.24999198 0.12631893 129 140 12
0.11188411 -0.22461604 0.12998943 131 157 30
0.11481368 -0.22529072 0.13014218 153 177 31
0.11215942 -0.22801934 0.13145122 155 179 39
0.06854357 -0.24663934 0.12570702 159 167 19
0.11912916 -0.20762807 0.12337817 83 113 15
0.11888009 -0.20714958 0.12283940 69 100 0
0.05321164 -0.25381625 0.12212692 128 150 15
0.11236627 -0.20699055 0.11464625 82 102 13
0.13531628 -0.18147886 0.10885081 128 150 5
0.13561478 -0.18071453 0.10892432 141 166 12
0.12629820 -0.22400549 0.11752424 137 146 37
0.12355750 -0.20401405 0.10789394 103 129 20
0.00409554 -0.30623442 0.08822514 63 93 5
0.12817420 -0.21822171 0.10793027 176 182 46
0.05327563 -0.26743087 0.11993410 108 128 7
0.05193929 -0.26843134 0.11882678 104 125 4
0.15755354 -0.16414648 0.08684374 89 114 20
0.12586814 -0.19739142 0.11521002 59 87 0
0.16859299 -0.17242488 0.08800379 105 131 4
0.16836253 -0.17328212 0.08591229 84 109 5
0.13386150 -0.20190349 0.10856096 114 135 14
0.13381910 -0.20196386 0.10854080 114 135 14
0.16714785 -0.17825606 0.08763868 79 98 0
0.16249794 -0.17752360 0.10017375 75 105 7
0.16712242 -0.17855690 0.09575580 141 167 8
0.16652516 -0.17804629 0.09618566 97 120 0
0.16260545 -0.17951739 0.10118429 107 144 4
0.16734098 -0.18716221 0.09617205 156 172 11
0.16727838 -0.18696369 0.09565315 146 166 9
0.05824165 -0.26230615 0.12404988 124 149 19
0.16327217 -0.18504485 0.10543513 109 131 0
0.04800845 -0.31308475 0.12355570 165 155 70
0.04855813 -0.30546191 0.12936266 196 195 16
0.05163495 -0.31060955 0.12764958 224 198 105
0.16685769 -0.17694657 0.08431415 100 119 11
0.15921186 -0.16210099 0.08425868 71 102 0
0.16291831 -0.16209340 0.07935047 105 133 20
0.05786347 -0.26771528 0.12136023 96 124 14
0.05814327 -0.26850009 0.12111338 99 131 8
0.11392817 -0.21699676 0.12769467 107 134 41
0.01393526 -0.29613212 0.09400776 67 104 11
0.01210449 -0.30314374 0.09103789 55 85 0
0.16350332 -0.18894188 0.10964417 148 163 20
0.01565566 -0.30548868 0.09092263 69 104 14
-0.00421239 -0.30882633 0.08212595 100 132 49
-0.00395936 -0.30728912 0.08606458 86 113 36
0.04468637 -0.31158122 0.11927817 109 130 3
0.12930179 -0.21674569 0.12183669 111 129 27
0.10668067 -0.23399429 0.13332361 137 165 5
0.19050533 -0.13726090 0.05686086 74 95 18
0.17021807 -0.17128026 0.07996723 74 84 11
0.14677969 -0.20251225 0.11369903 102 123 0
0.05441244 -0.26473090 0.12047835 154 174 25
0.15923189 -0.19143473 0.11424764 120 143 0
0.15561932 -0.19181113 0.11307848 162 182 22
0.18682890 -0.15337119 0.06298634 67 90 10
0.19069858 -0.15155436 0.05917758 61 86 3
0.19314051 -0.15072340 0.05597256 71 94 6
0.16664690 -0.15707800 0.07829676 86 118 9
0.16983832 -0.15619543 0.07169489 89 117 15
0.16760054 -0.16219847 0.07230653 78 107 1
0.16854946 -0.16045737 0.07154912 94 122 20
0.12985978 -0.21763049 0.11845025 117 134 22
0.13204987 -0.21320975 0.12092123 81 106 2
0.13859400 -0.20914537 0.11551964 121 141 7
0.12599804 -0.21409987 0.12491237 138 161 31
0.12278062 -0.22000538 0.12758625 93 110 6
0.11181614 -0.23186165 0.13327625 156 171 30
0.10557136 -0.23683295 0.13583401 119 154 8
0.17791183 -0.16092891 0.07587294 28 56 7
0.17063570 -0.18555708 0.09845573 117 137 14
0.15177336 -0.19949955 0.11343009 118 137 9
0.17340748 -0.16929813 0.08076266 30 60 0
0.12396882 -0.20125009 0.11705580 47 72 0
0.12597941 -0.20022303 0.11653811 83 110 17
0.14495277 -0.19684035 0.11327634 104 134 12
0.14565356 -0.19606411 0.11311120 100 130 8
0.13750856 -0.19960016 0.11686388 113 141 28
0.13683087 -0.19784856 0.11593440 100 126 27
0.13598430 -0.19851111 0.11635798 92 118 21
0.13472210 -0.21283199 0.11472953 109 124 5
0.13241242 -0.21526752 0.11745143 112 129 17
0.17513072 -0.15774918 0.08025179 56 85 1
0.17289765 -0.16275832 0.08503088 101 121 58
0.17997837 -0.15889567 0.07850910 57 84 13
0.13514012 -0.21473728 0.10921312 158 162 5
0.18692607 -0.15024298 0.06675401 75 100 19
0.18888034 -0.14524773 0.06156550 49 73 0
0.16669528 -0.18100694 0.10479667 90 119 3
0.19261569 -0.14838952 0.06082195 79 104 20
0.19156332 -0.14746785 0.06111747 78 105 24
0.01473920 -0.30763710 0.08780957 56 87 0
0.18237792 -0.15790506 0.07533052 33 61 0
0.18452215 -0.15437511 0.07127827 55 79 1
0.18517150 -0.14487296 0.05798715 42 70 0
0.18853050 -0.14143281 0.05966099 56 81 0
0.18987344 -0.14218323 0.05899917 55 78 6
-0.01370780 -0.30555561 0.06362884 76 96 11
-0.01388452 -0.30396453 0.05343195 203 213 126
0.14236552 -0.18980749 0.11279880 85 109 15
0.13624856 -0.19081675 0.11360957 96 132 8
0.12909207 -0.19971243 0.10944198 162 167 12
0.12936810 -0.19823104 0.10990003 162 172 11
0.14749020 -0.18411081 0.11079971 72 93 0
0.16466482 -0.18744993 0.11296177 148 162 23
0.12155101 -0.20867512 0.12373476 112 141 49
0.14500766 -0.19041389 0.11221787 88 112 14
-0.01169708 -0.30859917 0.08094818 128 139 45
0.12503186 -0.20992956 0.12354419 98 122 34
0.12092679 -0.21210933 0.12490009 105 128 50
0.16533726 -0.16367780 0.07476213 70 93 2
0.16959503 -0.16487153 0.07126617 117 124 21
0.05288172 -0.29366612 0.12370441 198 186 24
0.17991930 -0.15501127 0.06432531 83 102 13
0.12631162 -0.22335750 0.11362615 107 115 3
0.05439970 -0.30110684 0.12466335 79 101 3
0.15706219 -0.18314897 0.10968012 91 114 32
-0.01218487 -0.30720294 0.07230168 55 75 6
0.16153444 -0.19224115 0.11475804 137 151 6
0.12372726 -0.21296225 0.11312270 94 121 4
0.12511970 -0.21436805 0.11744517 86 106 9
0.19143178 -0.14946523 0.05352268 97 120 14
0.12105072 -0.20920794 0.11384954 104 133 5
0.10089320 -0.21323141 0.11605298 115 137 10
0.12235042 -0.22092924 0.12665881 110 132 0
0.02110240 -0.30283391 0.09275717 87 102 21
0.02379168 -0.30742255 0.09289784 103 112 5
0.11045779 -0.23881939 0.13219205 168 186 6
0.12215620 -0.22595899 0.11574852 163 166 0
0.11572808 -0.23952717 0.12790544 201 200 12
0.11415908 -0.24199092 0.13003333 153 162 7
0.15341705 -0.18498342 0.11066000 101 126 34
0.07362206 -0.26133734 0.12389434 145 161 13
0.12141659 -0.22937639 0.12133993 134 154 7
0.11678413 -0.23101270 0.13140662 140 161 22
0.11729945 -0.23678729 0.12745549 201 212 14
0.11932847 -0.23379718 0.12348484 92 112 0
0.04092968 -0.31522059 0.10188580 210 207 54
0.10059865 -0.21694627 0.12679546 123 139 14
0.12025587 -0.23081879 0.12639716 90 106 0
0.14287117 -0.20295645 0.11421618 116 143 14
0.13642572 -0.20517842 0.11868587 116 141 23
0.14377315 -0.17737931 0.10736827 108 130 30
0.13606155 -0.18338154 0.10978109 118 141 7
0.13712081 -0.17957503 0.10858279 133 158 5
0.20984572 -0.14022140 0.04980230 136 152 19
0.11221836 -0.21840306 0.12775360 71 104 0
0.10641566 -0.21684827 0.12796378 113 137 1
0.10717556 -0.21559909 0.12653261 107 128 9
0.11029265 -0.21184288 0.12343883 81 107 10
0.05098211 -0.30558434 0.12930425 200 200 28
0.12658897 -0.21923234 0.10925924 163 171 50
0.12597652 -0.21563597 0.11929964 63 88 4
0.12331740 -0.21664141 0.12400614 140 154 0
0.13843453 -0.17475060 0.10416189 114 134 35
0.12771378 -0.21477395 0.10910011 100 110 0
0.10530436 -0.21142204 0.11646651 72 87 2
0.14845058 -0.17180660 0.10156775 102 118 29
0.14593197 -0.17091557 0.10001690 138 151 33
0.08127504 -0.25481099 0.12391277 137 141 2
0.08255212 -0.23284930 0.12838444 74 95 0
0.08716664 -0.23323093 0.12754664 82 112 0
0.06828859 -0.25673479 0.12569837 81 115 5
0.09575950 -0.23869567 0.12712620 123 137 14
0.09818804 -0.23596589 0.12803806 142 154 10
0.14861690 -0.17445080 0.10381293 61 78 7
0.06142364 -0.25974745 0.12560844 117 147 17
0.06260430 -0.26256916 0.12284927 84 118 6
0.10691165 -0.22927378 0.13169971 115 149 11
0.06980889 -0.24015778 0.12649247 120 137 23
0.15151620 -0.17840792 0.10224096 59 75 13
0.15220806 -0.17595702 0.10106617 67 88 13
0.17533077 -0.14746799 0.05809083 128 148 35
0.15354748 -0.17968330 0.10058670 70 83 29
0.08071243 -0.23472944 0.12787165 112 133 4
0.08242490 -0.23295358 0.12836297 89 108 0
0.13124254 -0.18447904 0.10614484 112 139 6
0.09577358 -0.22629762 0.12893760 121 144 10
0.09297522 -0.22563119 0.12879969 116 133 1
0.09039277 -0.22545061 0.12860116 169 187 25
0.06067772 -0.25466791 0.12714864 87 110 2
0.06981014 -0.24570788 0.12574877 158 166 28
0.07680261 -0.24253133 0.12562945 103 135 26
0.08284409 -0.24500027 0.12494704 62 69 0
0.06999897 -0.25331554 0.12527588 80 108 5
0.07748374 -0.25658923 0.12493971 199 203 20
0.07146817 -0.26328918 0.12289984 138 147 2
0.07157525 -0.26098064 0.12399359 180 185 20
0.06825591 -0.25894731 0.12474042 97 122 30
0.06143798 -0.26454639 0.12203960 106 132 25
0.11872738 -0.21184778 0.12176545 89 117 14
0.10587951 -0.21200801 0.11929899 140 149 22
0.11098590 -0.20975532 0.12079339 93 118 17
0.11776495 -0.20749211 0.11728728 59 81 8
0.10938465 -0.20963535 0.11676648 141 151 26
0.10256479 -0.21325755 0.12002625 121 136 17
0.10975637 -0.20694248 0.11022922 62 85 7
0.11379564 -0.20677958 0.11133389 70 91 12
0.12202185 -0.20580988 0.10825430 109 136 33
0.08178173 -0.25925493 0.12743720 161 175 0
0.21174687 -0.13043883 0.05182724 148 159 39
0.15366453 -0.16689445 0.09434521 90 111 16
0.15543017 -0.16500862 0.08878053 110 136 37
0.16028023 -0.17087136 0.09219645 64 77 8
0.21268891 -0.12971403 0.05861620 155 164 47
0.21254036 -0.14596811 0.04551585 106 107 49
0.15877870 -0.17232198 0.09394597 67 77 14
0.11896484 -0.22108568 0.12840348 157 174 0
0.16898991 -0.15419433 0.07719995 92 126 16
0.17643453 -0.14911959 0.07154577 90 123 10
0.17406826 -0.15338850 0.07606407 87 120 16
0.17284535 -0.15193516 0.06357326 94 125 8
0.17235288 -0.15382740 0.06454870 102 130 20
0.11361057 -0.21539301 0.12677054 78 109 6
0.16180812 -0.17316514 0.09188703 51 73 0
0.02887925 -0.28760388 0.09675622 157 160 31
0.02726660 -0.28580901 0.09710018 81 96 3
0.17159693 -0.15775229 0.06638233 132 154 45
0.03520140 -0.28225291 0.10270689 65 88 20
0.03606535 -0.28628591 0.09979802 124 135 66
0.03909405 -0.30744430 0.11139221 198 184 23
0.21326143 -0.14147481 0.04568011 114 118 59
0.21028996 -0.13235341 0.04784986 113 128 11
0.09436732 -0.25467625 0.13094841 168 187 18
0.13131851 -0.19668636 0.11033137 104 122 4
0.13754003 -0.19662881 0.10997196 91 117 8
0.13038996 -0.19623508 0.11042614 145 157 11
0.10556301 -0.24647434 0.13082531 91 101 0
0.19973212 -0.12546109 0.13160080 142 168 0
0.19947886 -0.12591559 0.12991478 144 170 1
0.18982263 -0.12339371 0.13279238 109 140 0
0.17540829 -0.05894419 0.18506826 137 166 16
0.16917896 -0.10246178 0.17676982 192 220 0
0.17142178 -0.10418385 0.17267913 163 194 4
0.18603456 -0.12504366 0.13453750 142 173 0
0.18598589 -0.12849236 0.13564225 129 160 4
0.18714960 -0.12547629 0.13358438 153 186 9
0.18972731 -0.12780763 0.13309167 105 141 0
0.18861881 -0.12800907 0.13349609 105 140 0
0.18868285 -0.12917663 0.13366130 112 144 1
0.17602362 -0.09736671 0.17024136 160 178 0
0.17701371 -0.09748310 0.16858409 149 172 0
0.17153525 -0.08388073 0.18008661 193 215 8
0.16846885 -0.08550271 0.18191752 174 196 7
0.16862665 -0.08470961 0.18198979 148 175 0
0.19440964 -0.09741238 0.15820198 151 168 0
0.19153388 -0.09586085 0.15816806 178 190 2
0.19798857 -0.10325416 0.14896360 179 192 1
0.20083141 -0.10498453 0.15136720 150 173 0
0.19141385 -0.11151814 0.12176653 107 129 2
0.19440266 -0.11350755 0.11587045 113 130 15
0.19177355 -0.11516057 0.11406226 162 174 48
0.19044861 -0.11352137 0.11823257 112 132 11
0.20331433 -0.10704613 0.15147817 167 184 7
0.20132117 -0.10427748 0.15372552 163 180 4
0.19564603 -0.09307136 0.16561964 179 196 2
0.19707088 -0.09439013 0.16504852 168 189 0
0.20418280 -0.08681456 0.16454974 199 214 23
0.20075445 -0.08389756 0.16571407 207 217 42
0.19510067 -0.08408929 0.16468227 202 214 56
0.20795551 -0.12359339 0.12214530 154 171 7
0.20912856 -0.12385976 0.11857869 148 166 4
0.18740228 -0.12042449 0.13779198 145 170 6
0.17728350 -0.11044563 0.15604624 158 190 5
0.19262874 -0.09934870 0.15251215 181 192 0
0.19430953 -0.10203320 0.14852533 197 206 5
0.18907869 -0.09958895 0.15294439 180 197 3
0.20768830 -0.12617899 0.12890333 143 163 3
0.16410756 -0.08790341 0.18419950 196 215 64
0.16213596 -0.08201625 0.18616208 225 244 103
0.20073058 -0.13384138 0.15246946 103 132 0
0.20236276 -0.12873755 0.15019034 159 184 5
0.18844220 -0.08955076 0.16726063 195 204 1
0.19163825 -0.09231409 0.16426286 162 187 0
0.18659613 -0.08787481 0.16912779 178 191 0
0.18482676 -0.08786392 0.16820610 204 214 6
0.20464452 -0.10889982 0.15079315 157 181 0
0.18588315 -0.07288942 0.17978261 248 245 82
0.19987105 -0.11138253 0.13156043 165 183 1
0.19838344 -0.11063815 0.13141569 148 170 0
0.20056140 -0.11172897 0.13132307 171 191 6
0.19291645 -0.08294661 0.17424038 202 222 65
0.19348280 -0.08456518 0.16730013 168 186 2
0.20988669 -0.12785038 0.12176032 148 164 3
0.20490825 -0.11432064 0.12909366 164 179 18
0.16011269 -0.08101902 0.18612511 193 213 114
0.15973948 -0.08291306 0.18552360 187 203 114
0.17583077 -0.10665689 0.16384351 155 186 5
0.18172367 -0.08958042 0.16841125 133 154 1
0.17685227 -0.08652319 0.17544454 164 188 2
0.18976183 -0.08424247 0.17158911 212 224 28
0.19129710 -0.08805751 0.17026265 177 200 0
0.18246709 -0.08359470 0.17397349 199 214 9
0.19338362 -0.08962580 0.16894630 215 231 8
0.18315165 -0.09641238 0.16002190 174 195 6
0.18679252 -0.09555611 0.15952264 191 206 1
0.18511868 -0.09456822 0.16187376 174 194 0
0.18285479 -0.08131321 0.17556310 190 211 8
0.18794398 -0.07898692 0.17708012 246 254 81
0.17749830 -0.10549630 0.14189251 124 154 6
0.16957819 -0.10971688 0.14470622 88 121 8
0.17058511 -0.10706910 0.14679132 120 146 11
0.16872518 -0.11280589 0.14196099 74 104 0
0.20579413 -0.08989320 0.16444962 216 228 22
0.20345604 -0.11050480 0.13913493 186 196 11
0.17282651 -0.11836430 0.15634105 170 194 12
0.17447460 -0.11593604 0.15499593 145 168 0
0.17904454 -0.07139046 0.18356699 252 255 62
0.18087770 -0.07757737 0.17829907 195 214 8
0.17498344 -0.11319028 0.15819639 139 172 5
0.20013687 -0.12521806 0.13883097 163 194 4
0.19734482 -0.12406067 0.13664572 147 177 3
0.20039858 -0.12526791 0.14141436 188 210 14
0.20059822 -0.12555195 0.13340653 143 174 8
0.17988493 -0.08101673 0.17630702 211 226 19
0.17433724 -0.07417041 0.18352902 184 204 19
0.17837182 -0.08029898 0.17741419 188 208 13
0.17532718 -0.10647402 0.16479990 138 170 0
0.17096536 -0.10533604 0.17300861 188 211 9
0.19699509 -0.08553537 0.17187001 229 239 80
0.18429838 -0.08967624 0.16675030 191 204 3
0.18456636 -0.08498372 0.17182936 160 178 0
0.18447644 -0.08689874 0.16975467 191 204 10
0.18326740 -0.07116590 0.18128096 228 235 67
0.19534995 -0.09353587 0.15913822 210 216 32
0.19605292 -0.09550032 0.15905242 190 200 25
0.20778280 -0.11398458 0.14968945 149 166 0
0.20138755 -0.13067316 0.16091974 137 171 15
0.20160876 -0.12976485 0.16291781 145 177 14
0.17563735 -0.11300819 0.15707731 146 178 9
0.19688554 -0.10983574 0.13762337 162 182 0
0.19842388 -0.10942890 0.13874814 197 204 38
0.19430543 -0.10847025 0.13946381 168 192 8
0.19274750 -0.10221125 0.14921743 180 203 11
0.18620460 -0.10201038 0.15144314 171 197 2
0.19202405 -0.10261651 0.14880751 154 180 0
0.18982700 -0.10029636 0.15301198 154 171 15
0.19711953 -0.10397531 0.14783721 213 219 49
0.19352438 -0.10654771 0.14237458 154 179 0
0.19588138 -0.10422891 0.14696194 179 190 0
0.20328407 -0.10942449 0.14411879 165 182 24
0.20388408 -0.11209422 0.13611598 185 196 40
0.20128570 -0.10627656 0.14611594 175 187 25
0.19976124 -0.10301472 0.15130739 168 184 13
0.20854267 -0.12873994 0.13493082 152 168 0
0.16554859 -0.10209327 0.17947018 206 222 25
0.20587075 -0.11108315 0.14830515 153 173 16
0.20863351 -0.11200733 0.14992923 150 170 13
0.19648704 -0.09925375 0.15657972 167 180 12
0.19712040 -0.09991874 0.15570635 159 172 7
0.20550506 -0.11446908 0.13837065 143 160 2
0.20626330 -0.11725783 0.13691199 172 183 27
0.19451571 -0.08489794 0.16578501 171 184 16
0.17503056 -0.06178357 0.18853767 235 242 64
0.20912853 -0.12221225 0.11454588 166 192 9
0.21087249 -0.12802210 0.11569266 148 161 9
0.20922102 -0.12242523 0.11430887 166 192 9
0.17309429 -0.06107347 0.18178414 81 130 4
0.20456575 -0.09559551 0.16511609 199 217 33
0.17370072 -0.05706874 0.18797812 152 179 14
0.18059686 -0.06620190 0.18363433 180 203 35
0.18343593 -0.07147996 0.18084064 243 245 76
0.18341573 -0.07757963 0.17716907 216 233 41
0.19822362 -0.08385874 0.17099310 230 247 91
0.18189788 -0.07486547 0.17799824 213 225 41
0.17726880 -0.10644998 0.15193413 188 202 5
0.17593743 -0.06775987 0.18661082 209 225 54
0.17556617 -0.07028800 0.18297291 173 195 0
0.20576695 -0.10375441 0.15840967 185 199 26
0.20405833 -0.08882709 0.16646989 214 230 72
0.18078165 -0.06844969 0.18391915 212 227 66
0.18153161 -0.06861445 0.18179333 216 225 48
0.17941150 -0.06542639 0.18259506 218 233 28
0.19978790 -0.08515139 0.16986653 222 246 90
0.17604056 -0.06994002 0.18273610 174 196 0
0.20487750 -0.11438630 0.12366734 161 182 17
0.17750283 -0.10390706 0.16314492 136 158 0
0.17877693 -0.10495083 0.16056500 169 187 17
0.16750094 -0.08691388 0.18364273 225 237 39
0.17242995 -0.10818478 0.17391737 151 178 5
0.20575307 -0.10442388 0.15750548 192 205 37
0.16947086 -0.07949173 0.18372992 219 233 36
0.17858756 -0.07580633 0.18055816 178 200 1
0.17397457 -0.07440519 0.18231432 148 186 3
0.17781842 -0.07899584 0.17893657 181 206 1
0.17744175 -0.08434152 0.17673896 167 196 7
0.20066872 -0.12920716 0.15153389 143 170 0
0.20040189 -0.12726218 0.15363595 176 205 16
0.20123295 -0.13119884 0.15174128 118 153 1
0.15515740 -0.09146604 0.18277071 183 202 97
0.16909662 -0.06342459 0.18325798 193 212 6
0.17972894 -0.06873377 0.17930186 181 197 12
0.18156885 -0.07157356 0.17850047 193 205 9
0.17362325 -0.06828337 0.18723045 167 199 40
0.17347220 -0.06797834 0.18737818 169 200 44
0.16996910 -0.06177270 0.19049425 190 216 47
0.19034351 -0.10620105 0.13675238 147 174 0
0.18638167 -0.11335722 0.13915505 178 195 18
0.18436116 -0.11188194 0.14236397 191 211 18
0.18465079 -0.07497767 0.17646627 160 173 0
0.18862517 -0.08010694 0.17403893 216 223 45
0.17182857 -0.07330472 0.18488753 224 243 76
0.17400409 -0.07130184 0.18565811 185 211 24
0.17047723 -0.07411094 0.18465278 199 217 69
0.19818167 -0.09915410 0.15915354 180 198 18
0.19979334 -0.12529142 0.15946998 190 218 22
0.16953601 -0.08782186 0.18191603 228 237 32
0.17094415 -0.08604510 0.18138514 168 189 8
0.17115623 -0.05782076 0.18365616 89 138 12
0.16930239 -0.05807289 0.18383768 89 135 11
0.17379127 -0.10469504 0.16870855 132 163 0
0.18249483 -0.09805030 0.15956452 161 185 0
0.18409248 -0.09452178 0.16120268 145 170 4
0.20401499 -0.10818609 0.15024985 164 180 22
0.20460597 -0.10973486 0.14859810 171 189 25
0.16874146 -0.07500399 0.18500121 198 219 64
0.16634539 -0.07532055 0.18602043 215 235 49
0.16742247 -0.07431647 0.18586098 193 219 50
0.18072438 -0.10441851 0.14980218 137 163 10
0.18305784 -0.10275663 0.14829443 133 155 12
0.17810845 -0.10832583 0.15741010 150 176 5
0.15538292 -0.08907212 0.18215422 142 162 63
0.16836143 -0.09090055 0.18084905 156 185 7
0.18066254 -0.10893645 0.15289532 175 190 0
0.17926416 -0.11073710 0.15435760 162 191 3
0.17951356 -0.10737097 0.15777728 160 181 0
0.17939605 -0.11405181 0.15082178 132 163 0
0.17975466 -0.11672448 0.14879180 133 165 0
0.18000764 -0.11699049 0.14809981 132 164 0
0.18369101 -0.07329470 0.17738284 175 184 7
0.17135888 -0.09898798 0.17472918 191 219 12
0.17194925 -0.09966289 0.17358008 193 220 4
0.19893061 -0.11117708 0.12561047 116 144 7
0.19545785 -0.10921652 0.13504413 142 166 6
0.19236907 -0.10886230 0.13383327 149 175 16
0.19257554 -0.07820682 0.17272301 173 194 11
0.15189661 -0.07448933 0.17720433 75 115 18
0.17179160 -0.11364710 0.16345303 149 176 0
0.15599243 -0.07877029 0.17843753 194 207 3
0.19447167 -0.09064656 0.16121708 212 223 45
0.19161914 -0.08968297 0.16554807 184 196 10
0.19452874 -0.08919276 0.16256383 171 179 18
0.20719537 -0.12035475 0.13613488 141 162 5
0.16839756 -0.06782350 0.18322487 149 179 5
0.16796441 -0.06962335 0.18287350 137 168 2
0.16420580 -0.06732637 0.18206087 175 203 5
0.18454006 -0.11268009 0.12393540 102 123 2
0.18699938 -0.11297251 0.12157353 106 124 2
0.18581475 -0.11239495 0.12363690 79 102 0
0.17343619 -0.10453735 0.14824998 130 153 0
0.17689238 -0.10464815 0.14820325 128 158 0
0.17451312 -0.10457346 0.14939837 166 187 8
0.16720204 -0.11368044 0.14202860 107 136 8
0.16417530 -0.11117979 0.14634581 96 129 14
0.16702272 -0.10921326 0.14673197 104 133 14
0.17343357 -0.11398567 0.16263764 127 152 0
0.18522120 -0.10179029 0.15136273 178 201 0
0.18195561 -0.10706618 0.15219164 183 200 8
0.18172792 -0.10692101 0.15292978 180 197 7
0.18208551 -0.10561003 0.15381144 147 175 0
0.17736623 -0.09431141 0.16877571 199 208 5
0.17426664 -0.09121317 0.17502907 180 200 7
0.18231361 -0.11299691 0.14491843 151 172 0
0.18513137 -0.11594518 0.14274712 146 171 7
0.18278195 -0.12655360 0.13945977 130 156 0
0.18241441 -0.12190773 0.14126748 151 181 0
0.18102279 -0.12246443 0.14382793 165 195 9
0.17522207 -0.10164462 0.16790053 150 179 0
0.17351376 -0.10030492 0.17103629 173 200 9
0.17743675 -0.10011847 0.16525686 187 210 0
0.20048074 -0.12527660 0.15462291 178 203 15
0.18680821 -0.10382288 0.14689314 135 158 8
0.18338999 -0.10442976 0.14233719 115 136 0
0.18850511 -0.10473277 0.14565136 130 157 0
0.18388067 -0.10313538 0.14648333 135 161 0
0.19257791 -0.09376444 0.16250172 149 167 0
0.19616581 -0.09746565 0.15934439 182 200 4
0.18612865 -0.12164775 0.13636690 153 179 0
0.18576968 -0.12012941 0.14089382 134 159 0
0.16524538 -0.09346844 0.18216313 165 189 49
0.16766950 -0.09071875 0.18256566 178 200 27
0.17600994 -0.11117446 0.16593762 136 167 4
0.17680985 -0.11022593 0.16353400 120 149 7
0.17532361 -0.10670327 0.16988556 111 146 0
0.17548862 -0.10823049 0.16979143 137 166 0
0.15478054 -0.08246349 0.18382049 122 146 62
0.18098490 -0.08950346 0.16913861 147 168 5
0.17879617 -0.09672089 0.16523901 199 215 3
0.18283798 -0.09226891 0.16515291 142 169 2
0.17538828 -0.11453258 0.13247392 118 140 6
0.17583998 -0.11313640 0.13313250 112 138 5
0.17193723 -0.11363280 0.13708067 116 145 3
0.17583641 -0.11704490 0.12987961 102 126 6
0.19236624 -0.10955889 0.13759051 143 164 0
0.19212560 -0.10969115 0.13747728 143 164 0
0.18284395 -0.11357151 0.12397920 109 128 0
0.18131883 -0.11314029 0.12670921 106 130 8
0.17368463 -0.10698508 0.17302608 167 189 3
0.17184401 -0.10542255 0.17564304 163 192 4
0.15307353 -0.08678140 0.18159834 122 137 104
0.15394430 -0.08549633 0.18273789 132 153 88
0.18443313 -0.09387159 0.16186798 142 168 0
0.18881877 -0.09582116 0.15904278 197 210 19
0.17454158 -0.10192117 0.17156033 169 193 7
0.17767340 -0.10463157 0.16459483 131 156 0
0.17110275 -0.10388473 0.17669399 176 205 16
0.16788553 -0.09876522 0.18017641 172 191 47
0.20231001 -0.12534747 0.15246904 171 199 1
0.17326008 -0.10178240 0.17376362 170 200 6
0.17377560 -0.10102970 0.17308208 176 203 10
0.17286795 -0.09484990 0.17548609 204 217 26
0.17330371 -0.09487581 0.17485572 215 227 31
0.16362301 -0.09487174 0.18227980 194 216 69
0.18544339 -0.11421566 0.14138982 163 185 0
0.20418304 -0.12845476 0.15975726 167 186 6
0.20411482 -0.10932500 0.14943932 160 181 0
0.18972601 -0.11564956 0.13791190 154 175 10
0.18217964 -0.09015834 0.16750002 164 183 5
0.18762231 -0.09304920 0.16216449 182 198 1
0.18417943 -0.09361700 0.16345042 168 188 2
0.17476404 -0.09031983 0.17407128 223 230 28
0.18050581 -0.08529594 0.17267074 179 200 11
0.17898798 -0.08614204 0.17347708 187 207 47
0.18351702 -0.10929190 0.13080131 95 123 2
0.18294787 -0.10812400 0.13296074 72 103 0
0.17031576 -0.09544946 0.17895363 191 217 22
0.17298198 -0.09089827 0.17635976 199 214 25
0.17331704 -0.08548643 0.17914720 223 232 29
0.17240769 -0.08362141 0.18133478 210 227 24
0.20516105 -0.11873911 0.14510036 150 172 2
0.20336221 -0.11509217 0.14118062 157 169 0
0.17498289 -0.09144746 0.17336412 212 219 19
0.17749822 -0.09472881 0.16879973 215 224 13
0.20893741 -0.12147010 0.09832218 138 158 0
0.20299968 -0.11780995 0.10782127 127 149 14
0.20726627 -0.11903938 0.11070836 121 143 0
0.20971827 -0.12165545 0.09912558 158 181 2
0.20605303 -0.12805527 0.13821341 151 172 5
0.20955126 -0.12290974 0.14267209 165 180 15
0.15145598 -0.07486426 0.18207589 123 146 58
0.15116227 -0.07587837 0.18099265 122 145 55
0.20835952 -0.11776572 0.14640543 159 176 12
0.18477415 -0.10600508 0.13833052 148 175 10
0.18369292 -0.10552296 0.13939230 147 173 12
0.18467920 -0.10667938 0.13423117 141 170 26
0.17658815 -0.10866231 0.13885434 95 125 1
0.18082833 -0.10765085 0.13507843 98 129 0
0.17094477 -0.11269825 0.13972053 75 104 0
0.16959977 -0.11382876 0.13966624 118 144 9
0.17467488 -0.11040995 0.13856143 105 137 4
0.19846152 -0.09611904 0.16045156 188 201 0
0.21019538 -0.11627180 0.14714937 141 160 6
0.16017538 -0.09654415 0.18321534 208 229 46
0.16116922 -0.09650984 0.18269125 186 207 16
0.20912871 -0.12556954 0.13787846 166 185 16
0.16576105 -0.09374575 0.18114707 145 174 6
0.16225357 -0.09104910 0.18220936 152 182 0
0.17148218 -0.09175499 0.17698821 210 222 2
0.17153658 -0.08655266 0.17931542 149 171 0
0.20590679 -0.08880870 0.16451535 208 221 17
0.19956742 -0.08738680 0.16224162 219 232 41
0.19689840 -0.11104701 0.12453401 97 123 0
0.19532704 -0.11273553 0.11801404 122 143 24
0.19766232 -0.11263766 0.11945949 116 139 5
0.20882587 -0.12041444 0.11066692 144 166 5
0.20877185 -0.12064272 0.11275204 134 155 2
