0.02981821 0.10673537 0.16231804 124 158 9
0.02632121 0.10593504 0.16334905 169 185 1
0.02989186 0.10640212 0.16272587 134 168 21
0.02908956 0.10501864 0.16443454 139 171 25
0.02916292 0.10376950 0.16596608 157 190 41
0.03050319 0.10696138 0.16203113 134 167 24
0.03074078 0.10474286 0.16474970 145 176 38
0.02621232 0.10766768 0.16122480 151 178 11
0.03935824 0.11393560 0.15468742 105 132 1
0.03240583 0.11592794 0.15173495 146 165 13
0.03376361 0.11627033 0.15164763 115 144 4
0.03346940 0.11567170 0.15214255 113 142 0
0.03960174 0.11275011 0.15580349 114 138 14
0.03663868 0.11691798 0.15153292 143 166 13
0.05461932 0.13640454 0.14461006 114 138 14
0.05256015 0.13937013 0.14587398 157 181 21
0.05452207 0.13538776 0.14432715 111 135 15
0.05131382 0.13818958 0.14575775 135 166 11
-0.00242306 0.10765893 0.17867135 125 168 1
-0.00120836 0.10540558 0.18021403 162 198 2
-0.00567498 0.10589616 0.17766777 133 174 7
-0.00159837 0.10771147 0.17908408 106 150 0
-0.00326875 0.10488090 0.17934068 108 152 3
-0.00003167 0.11382383 0.17905585 91 121 9
-0.00176641 0.11058151 0.18253396 155 192 86
-0.00180451 0.11092488 0.18231381 161 198 93
0.01938043 0.11421217 0.15957193 198 216 70
0.01527303 0.11391402 0.16188321 172 193 56
0.01872655 0.11187114 0.16144320 180 199 48
0.02047111 0.11496799 0.15851469 206 220 71
0.01824870 0.11461408 0.15989150 183 202 61
0.04216984 0.12019920 0.12953699 102 131 3
0.04443748 0.12225856 0.12387908 75 104 11
0.04430827 0.12176600 0.12406029 81 112 18
0.04289333 0.12090724 0.12775101 95 122 5
0.04125439 0.11948967 0.13186690 107 136 0
0.04378777 0.12217262 0.12568980 78 104 3
0.04179455 0.12056076 0.13073760 93 122 4
0.02870370 0.14469767 0.15321739 160 169 80
0.02709269 0.14445427 0.15212609 155 168 63
0.02542350 0.14340974 0.15683784 104 109 68
0.02955455 0.14517549 0.15121837 146 160 63
0.02566094 0.14387679 0.15381941 160 171 66
0.02187290 0.14266078 0.15599984 163 177 42
0.09798791 0.08201894 0.11582509 94 116 7
0.09656893 0.08368529 0.11589571 91 115 1
0.09673695 0.08355318 0.11547080 84 111 0
0.09569978 0.08524651 0.11248526 91 115 1
0.05252859 0.10949518 0.11076391 73 96 8
0.05010906 0.11264201 0.11432314 77 101 7
0.05134751 0.11056543 0.11404803 60 84 0
0.05137254 0.11095609 0.11260612 63 88 0
0.05168374 0.11079113 0.11135215 52 81 0
0.04970576 0.11423135 0.11138105 62 89 0
0.05172482 0.11016306 0.11319966 54 81 0
0.05110314 0.11112597 0.11360168 79 101 3
0.09487191 0.10449621 0.09727401 127 159 36
0.09563750 0.10310999 0.09686898 119 145 35
0.04521906 0.12411139 0.12290007 81 108 1
0.04556813 0.12427303 0.12212849 80 107 4
0.04482596 0.12629552 0.12640825 153 178 60
0.04459968 0.12508614 0.12567632 144 164 49
0.04475157 0.12633383 0.12665385 146 170 50
0.05411377 0.10683008 0.11239822 68 88 1
0.05557644 0.10580957 0.11255629 71 96 5
0.05586387 0.10331499 0.11557142 117 134 42
0.05618412 0.10285769 0.11591025 149 163 75
0.05660136 0.10349332 0.11474983 156 170 83
0.05574007 0.10484649 0.11367823 88 109 14
0.03970364 0.14570369 0.14819433 166 176 77
0.03774856 0.14558671 0.14623402 146 158 72
0.03942510 0.14569020 0.14796674 166 176 80
0.04034988 0.14570504 0.14823642 168 175 79
0.04097737 0.14558558 0.14631596 152 165 75
0.04047234 0.14575841 0.14910686 152 161 44
0.04159816 0.14555670 0.14586625 149 162 72
-0.00834377 0.09793694 0.17814773 107 149 1
-0.00964538 0.09578267 0.17678811 113 156 4
-0.01067460 0.09790073 0.17671059 108 155 0
0.08192627 0.10648011 0.14591591 138 158 63
0.08186297 0.10921995 0.14491586 163 181 73
0.08222353 0.10827734 0.14598507 157 175 76
-0.00008421 0.11602414 0.16538300 124 160 0
0.00343605 0.11732159 0.16324830 158 193 3
-0.00139383 0.11478136 0.16670816 131 161 5
0.00503685 0.11498963 0.16431886 123 156 3
0.00565560 0.11414103 0.16469580 151 177 6
0.00453624 0.11388875 0.16526261 116 148 2
0.00520958 0.11567114 0.16378249 123 159 0
0.03778949 0.09093536 0.14509875 98 122 0
0.04011348 0.09255452 0.14130038 113 142 2
0.03960963 0.09181712 0.14199467 103 132 0
0.03879973 0.08930222 0.14266610 181 197 72
0.03857271 0.08836984 0.14277825 193 207 86
0.04633895 0.11425941 0.11917263 79 106 1
0.04649847 0.11507725 0.11705928 79 105 4
0.04517697 0.11421234 0.12130913 78 104 3
0.04602177 0.11230339 0.12411462 80 108 0
0.04603126 0.11255743 0.12352820 78 105 0
0.08072814 0.08990024 0.11407145 68 86 10
0.08084908 0.09003922 0.11399721 68 86 10
0.08190586 0.08739918 0.11637969 81 100 21
0.04002328 0.12112201 0.13476074 132 153 14
0.03990129 0.12162609 0.13506739 154 166 32
0.04084759 0.12203201 0.13328363 145 163 27
0.03864937 0.12095718 0.13740903 166 179 47
0.03986740 0.11754985 0.13457142 119 144 0
0.01752255 0.12730771 0.15804833 161 195 49
0.01903260 0.13249896 0.15838377 169 201 78
0.01846493 0.13058406 0.15827101 189 217 81
0.01229028 0.10849850 0.17108427 120 145 0
0.01342670 0.10708211 0.17418276 135 159 0
0.01487956 0.10725415 0.16989906 131 157 4
0.01429812 0.10748855 0.17035244 143 168 2
0.01290217 0.10778216 0.17256013 147 166 0
0.01404517 0.10625307 0.17611098 108 135 2
0.00653853 0.10398348 0.18089855 144 178 0
0.00800782 0.10406507 0.18052915 185 213 6
0.00684811 0.10278280 0.18141934 170 203 10
0.07141685 0.10244037 0.11425135 156 157 152
0.07142083 0.10295866 0.11272527 150 154 140
0.08281405 0.08837624 0.11589013 63 81 7
0.08343323 0.09067056 0.11444926 65 80 11
0.08351395 0.08924783 0.11553515 62 78 7
0.02822499 0.13719921 0.15057865 149 174 44
0.03033859 0.13940917 0.14972857 142 166 44
0.02734040 0.13861358 0.15233149 164 186 23
0.02547939 0.13797452 0.15386042 177 198 19
0.03081020 0.13836421 0.14862032 136 159 42
0.10280067 0.07836902 0.11593778 117 136 11
0.10159004 0.07924530 0.11557978 109 125 1
0.10344434 0.07841106 0.11994582 157 169 25
0.10102539 0.07992018 0.11741342 145 158 18
0.10160803 0.07901503 0.11395225 138 156 20
0.01312138 0.12411331 0.16033445 139 174 32
0.01612037 0.13194484 0.16068712 181 212 83
0.01443269 0.12950164 0.16112545 149 181 44
0.01560835 0.13030446 0.16052857 166 201 85
0.01236275 0.12709193 0.16185337 151 181 31
0.01421129 0.12951259 0.16129044 147 180 41
0.01535043 0.12967901 0.16051383 167 200 67
0.01186032 0.12470300 0.16144511 173 200 33
0.01244698 0.12569854 0.16134016 171 198 31
0.03419475 0.13091820 0.14314610 201 211 86
0.03235051 0.12724482 0.14509176 182 203 24
0.02698547 0.12797174 0.14985268 200 219 50
0.03260489 0.12754452 0.14483969 188 208 35
0.03222413 0.12799673 0.14514601 205 220 69
0.02860145 0.12727419 0.14845636 215 227 93
0.03189198 0.12548882 0.14564188 157 184 9
0.08690358 0.11578162 0.09108517 58 78 19
0.04522181 0.08542069 0.13973749 133 155 20
0.04380662 0.07925022 0.14062448 141 178 3
0.04230380 0.08114663 0.14119561 155 186 0
0.04432435 0.08116059 0.14031520 128 161 0
0.01916623 0.11402290 0.15952474 200 211 70
0.01979653 0.11417083 0.15913363 202 212 77
0.02154642 0.11735959 0.15650457 171 192 29
0.01982105 0.11311483 0.15970822 194 208 61
0.02090208 0.11583915 0.15766498 213 225 89
0.08590566 0.09837657 0.10824811 90 113 7
0.08783031 0.09744401 0.10734195 127 148 43
0.08903445 0.09635657 0.10752080 137 161 51
0.08746525 0.09510762 0.11123285 105 130 12
0.01920005 0.13155852 0.15630911 149 182 5
0.01771406 0.13133800 0.15738504 139 171 0
0.01125647 0.11182203 0.16437690 190 201 73
0.01886011 0.10971261 0.16358301 106 134 0
0.01681379 0.10982072 0.16432716 183 197 42
0.00928546 0.11244529 0.16449445 127 155 0
0.01722857 0.11137325 0.16235897 197 212 71
0.01906094 0.11211822 0.16072097 192 204 56
0.01479671 0.11034618 0.16457716 164 186 16
0.01160016 0.11111235 0.16505015 185 200 49
0.00972457 0.11150029 0.16539879 176 197 34
0.01904423 0.11136387 0.16159882 180 197 33
0.08956771 0.08529954 0.12123321 90 115 14
0.08786672 0.08500503 0.12061116 77 97 12
0.09019741 0.08329811 0.12307515 88 109 14
0.09029277 0.08362507 0.12287294 91 113 13
0.01491487 0.12410186 0.15905052 169 200 36
0.01571554 0.12384581 0.15855414 196 218 45
0.01385519 0.12322977 0.15985796 164 190 39
0.01174818 0.12162160 0.16144779 154 179 35
0.06912599 0.12988329 0.09583388 112 138 15
0.06912979 0.12941046 0.09147024 123 145 21
0.06839514 0.13045393 0.09126382 111 134 20
0.06991767 0.12838125 0.09253083 117 143 18
0.06992082 0.12814496 0.09036694 127 157 25
0.04575507 0.10729806 0.12987474 69 95 0
0.04305440 0.10558829 0.13657770 97 126 7
0.04594844 0.10156083 0.13304217 69 99 0
0.04376502 0.10226434 0.13716301 121 143 9
0.04326458 0.10356743 0.13739677 63 93 0
0.04329097 0.10279965 0.13781959 92 119 2
0.04449872 0.10614106 0.13321802 54 78 2
0.04490587 0.10807471 0.13116433 88 118 6
0.04367539 0.10574970 0.13518065 75 103 1
0.04422728 0.10440005 0.13486849 73 98 4
0.04263738 0.10454847 0.13809563 87 120 5
0.06185758 0.13743667 0.06136755 134 146 48
0.06147657 0.13753852 0.05990972 130 141 45
0.06126288 0.13765287 0.06047542 130 142 44
0.06592425 0.13133408 0.03625252 162 174 100
0.06602143 0.13094436 0.03956180 150 168 82
0.06672283 0.12923878 0.04765107 140 162 77
0.06609698 0.13059835 0.04274779 148 166 80
0.06663967 0.12913589 0.05104380 134 158 74
0.06499928 0.13239667 0.04251000 145 165 76
0.06501789 0.13275515 0.03696622 154 170 95
0.06410457 0.13410227 0.03889520 166 179 109
0.06588213 0.13125910 0.03829727 155 170 89
0.06565522 0.13189909 0.03442193 167 179 113
0.06539956 0.13185687 0.04094259 150 169 79
0.01466743 0.12012492 0.16016424 168 188 39
0.01416030 0.12070940 0.16024351 179 199 39
0.01271304 0.11547484 0.16256844 183 204 67
0.01429421 0.11828289 0.16091342 171 193 58
0.03232376 0.13966687 0.15334775 168 198 14
0.03046086 0.13815805 0.15272610 143 175 12
0.02949176 0.13600776 0.15031429 172 198 39
0.02948988 0.13868585 0.15441230 166 196 22
0.03168476 0.13868362 0.15242219 146 177 11
0.02863198 0.13660118 0.15200020 179 209 25
0.07384416 0.11460312 0.07806944 112 133 68
0.07258270 0.11511985 0.07445852 115 135 64
0.07159999 0.11749124 0.07189388 117 139 64
0.07378933 0.11383580 0.07781287 112 130 68
0.03889705 0.09837139 0.14793196 63 93 0
0.03878460 0.09741118 0.14796840 109 134 7
0.03952712 0.09963851 0.14603472 57 87 0
0.04057002 0.10247912 0.14320032 92 128 6
0.04083282 0.10201697 0.14200117 64 100 2
0.07735773 0.13082792 0.08544677 153 170 74
0.07692946 0.13131769 0.08547895 148 165 69
0.07617472 0.13185388 0.08455855 149 166 70
0.07727419 0.13023704 0.08340136 136 153 59
0.07676370 0.13151281 0.08550802 144 161 65
0.04095669 0.12645830 0.13359645 146 174 4
0.04318598 0.12800585 0.13059340 168 193 29
0.04475260 0.12790512 0.12814802 125 154 2
0.04215202 0.12672673 0.13182798 131 162 0
0.00775085 0.11677395 0.16504861 162 186 64
0.00743657 0.11585830 0.16559526 165 185 70
0.06997442 0.12612544 0.12887087 127 147 50
0.06803627 0.12543553 0.13232093 71 94 16
0.06953037 0.12691560 0.12967800 91 115 17
0.06795038 0.12639931 0.13249131 112 131 26
0.09461928 0.08653095 0.10919350 141 159 15
0.09579285 0.08408266 0.10598692 134 156 13
0.09392074 0.08724377 0.10339725 126 147 8
0.09402755 0.08751852 0.10825508 140 158 12
0.09653146 0.08283354 0.10698808 134 156 9
0.06627869 0.13048325 0.05637876 135 158 68
0.06709570 0.12897894 0.05641920 131 156 72
0.06767708 0.12884828 0.05914352 134 158 70
0.06593153 0.13196708 0.05878417 137 160 69
0.06865120 0.12935208 0.06578120 124 147 65
0.06737965 0.12909468 0.05826477 133 157 69
0.06641328 0.13232544 0.06177746 132 151 61
0.06639379 0.13302365 0.06247069 155 170 77
0.06666961 0.13413601 0.06462406 160 169 78
0.06658439 0.13319801 0.06331194 156 170 75
0.05310429 0.13032712 0.10535322 105 122 51
0.05402726 0.13049118 0.10072248 119 137 61
0.05472574 0.13085753 0.09937525 120 136 65
0.00544328 0.11764634 0.16635868 158 188 56
0.00600625 0.11909081 0.16574503 161 192 55
0.00819121 0.12200113 0.16376193 162 195 44
0.00999520 0.09893823 0.18199435 161 194 3
0.01089765 0.09485789 0.18355924 111 144 3
0.01131174 0.09534671 0.18335401 124 153 0
0.04937484 0.11280875 0.15574415 119 160 4
0.04696140 0.11234265 0.15513539 158 191 16
0.07977826 0.10321360 0.10459241 57 80 12
0.08312068 0.10115720 0.10634033 90 112 12
0.08097555 0.10235543 0.10537414 61 81 9
-0.00069755 0.10444759 0.18065535 166 197 5
0.00371663 0.10488716 0.18099406 186 210 0
0.00034427 0.10475527 0.18068582 155 189 6
0.00429148 0.10416405 0.18122745 186 210 0
0.02173862 0.10653690 0.16519836 166 183 27
0.02607607 0.10714280 0.16157450 158 189 10
0.02431774 0.10464823 0.16568321 173 190 34
0.02199252 0.10646110 0.16511683 158 178 21
0.02222420 0.10649419 0.16492242 154 174 17
0.02308575 0.10522001 0.16583940 111 139 0
0.02517761 0.10412195 0.16572350 167 185 11
0.08637785 0.08115546 0.12288015 71 88 8
0.08360959 0.08249231 0.12062030 78 100 35
0.08504876 0.08401192 0.12012615 69 86 15
0.05944119 0.11425467 0.16346928 100 142 0
0.04539582 0.12137894 0.11238664 91 108 40
0.04502178 0.12081918 0.11305762 89 104 37
0.07053132 0.12003944 0.06659028 122 147 64
0.07059839 0.11949156 0.06266084 136 159 77
0.07079865 0.11907347 0.06395869 134 158 72
0.06863363 0.12432220 0.05772571 132 157 73
0.06906670 0.12350996 0.06151556 133 159 72
0.06959611 0.12161678 0.05651546 146 160 81
0.06982789 0.12146872 0.06161132 132 155 67
0.07078950 0.11923836 0.06545936 129 153 69
0.06900650 0.12331394 0.05768311 133 157 73
0.06937359 0.12230147 0.05742873 142 161 80
0.06727387 0.12768966 0.05457023 129 154 70
0.06904822 0.12355155 0.06142805 133 159 72
0.04568646 0.11672243 0.11488839 70 94 0
0.06795797 0.12666085 0.05839584 130 158 71
0.06922919 0.12728526 0.06736536 139 162 82
0.06908278 0.12473296 0.06373011 135 161 74
0.06934468 0.12345367 0.06410100 129 155 68
0.06973130 0.12380547 0.06699875 134 159 75
0.06956849 0.12364826 0.06576893 133 158 74
0.06973311 0.12476001 0.06801202 130 155 74
0.06768060 0.12814772 0.05814157 129 155 68
0.07041482 0.12119358 0.06872921 125 150 67
0.06752907 0.12760726 0.05658349 129 155 68
0.06804637 0.12665935 0.05897241 128 156 69
0.07026396 0.12160546 0.06817459 125 150 67
0.06367622 0.13741955 0.06671144 145 153 67
0.06268038 0.13746150 0.06473313 146 155 64
0.06447098 0.13680235 0.06549425 145 154 63
0.09565423 0.09682175 0.09440687 165 182 54
0.06687383 0.12925364 0.03529584 160 171 102
0.06788605 0.12693262 0.04195898 152 163 105
0.06818677 0.12590680 0.04050550 168 169 135
0.06780741 0.12713696 0.04168633 151 163 97
0.06295899 0.13801619 0.04715257 145 162 58
0.06293823 0.13843423 0.04666901 144 161 55
0.03858106 0.09741722 0.16553988 104 141 2
0.03991104 0.09914447 0.16480990 107 134 5
0.10106291 0.07055839 0.14031374 64 88 2
0.10307094 0.06944064 0.14279975 63 85 2
0.10219897 0.07156523 0.13959408 85 108 2
0.09268091 0.11282040 0.09727665 134 156 58
0.09231163 0.11318700 0.09732477 133 157 43
0.09225873 0.11134048 0.09800462 160 186 63
0.09929970 0.07502593 0.13425846 78 102 8
0.09972692 0.07278476 0.13702832 78 103 9
0.09860430 0.07493109 0.13407201 75 100 9
0.09089015 0.11486623 0.09774403 145 170 40
0.08970121 0.11387140 0.09844184 135 155 30
0.04280007 0.09448013 0.16484155 111 136 16
0.04225492 0.09716248 0.16456605 147 167 8
0.04242095 0.09486057 0.16485728 110 137 4
0.04254547 0.09326126 0.16505794 95 126 0
0.06892794 0.13114220 0.06793413 150 164 77
0.06744733 0.13361493 0.06603935 148 158 69
0.06953413 0.13209426 0.06972403 150 162 78
0.06872252 0.13325459 0.06858465 165 173 88
0.06771973 0.13320187 0.06640956 144 154 65
0.09340656 0.07447278 0.13141204 68 89 12
0.09431933 0.07509916 0.13136619 75 97 14
0.09562674 0.07321724 0.13364707 74 96 13
0.09412763 0.07320137 0.13286716 66 87 8
0.02756471 0.11669359 0.15251063 106 136 2
0.02397712 0.11505772 0.15584277 159 187 7
0.02564294 0.11699412 0.15374514 154 180 9
0.02853057 0.11649824 0.15191089 131 160 10
0.02466648 0.11757176 0.15417367 195 207 61
0.02468318 0.11822115 0.15385799 203 214 76
0.07457685 0.10547421 0.13075675 136 156 67
0.07467169 0.10524219 0.13117796 138 159 68
0.07498076 0.10683002 0.13017274 137 156 66
0.07635595 0.10483259 0.13489372 155 171 82
0.07376447 0.10447577 0.11961682 111 133 87
0.07307810 0.10252415 0.11899649 163 162 178
0.07269966 0.10123458 0.12023433 140 144 145
0.10144491 0.07890744 0.12800682 103 126 12
0.10442626 0.07694235 0.13073133 144 158 21
0.10372762 0.07812524 0.12546632 85 106 15
0.10440596 0.07698463 0.13052769 144 158 21
0.10398211 0.07713193 0.13098618 134 154 20
0.09582835 0.07746067 0.13030729 77 101 7
0.09360814 0.07923235 0.12781389 84 110 13
0.09322869 0.08128224 0.12609516 82 103 12
0.09277797 0.08224970 0.12513931 75 100 8
0.00166572 0.11415228 0.17656311 108 135 4
0.00252400 0.11353602 0.17509791 102 128 3
0.00436724 0.11213379 0.17592628 114 140 4
0.10307793 0.07821408 0.11071786 120 143 11
0.10255234 0.07872305 0.11041734 120 143 13
0.07300868 0.10298462 0.11106490 125 128 109
0.07355544 0.10471685 0.11271302 112 104 125
0.07299770 0.10295293 0.11087133 133 136 117
0.07339280 0.10416605 0.11407293 130 121 138
0.06050983 0.11478642 0.16393185 100 144 7
0.10575127 0.07759550 0.12468445 143 154 26
0.10623926 0.07745796 0.12484878 153 161 24
0.11181025 0.07542933 0.13083492 114 132 14
0.11149505 0.07555375 0.13040982 121 137 15
0.11020433 0.07639882 0.12566057 122 145 13
0.06361251 0.13808133 0.04445424 162 173 77
0.06212844 0.13744056 0.04041014 189 198 105
0.00565956 0.10176466 0.18308869 185 216 123
0.00983655 0.09961547 0.18374272 164 201 88
0.00670991 0.10141592 0.18326561 186 215 97
0.07391006 0.10530998 0.11690487 168 164 187
0.07396273 0.10540875 0.11729793 167 164 185
0.07426731 0.10695878 0.11303096 128 123 143
0.07304168 0.10277844 0.11645900 171 162 193
0.09060197 0.07646286 0.12893321 74 94 9
0.08843577 0.07832278 0.12657493 78 98 13
0.08957678 0.07597016 0.12929612 83 106 15
0.07524721 0.10344041 0.10884330 83 102 47
0.07491496 0.10576843 0.11055993 83 95 73
0.07449105 0.10459806 0.11028355 86 95 64
0.07527017 0.10596146 0.11032230 80 94 61
0.05944086 0.13398024 0.14126033 122 149 20
0.06095348 0.13344975 0.14007582 109 137 16
0.06102754 0.13298878 0.13999954 114 145 16
0.06278510 0.13251361 0.13862915 135 163 18
0.08945736 0.11564224 0.09815932 145 166 37
0.07536262 0.10747635 0.10826308 88 110 48
0.07470239 0.10755180 0.11174747 111 108 127
0.07488452 0.10743496 0.11094415 101 102 106
0.07670473 0.10769762 0.10452153 75 95 42
0.07787325 0.10698407 0.10317180 70 91 34
0.07742992 0.10499222 0.10476801 66 90 32
0.06335278 0.13598996 0.04218747 167 181 102
0.06275807 0.13708690 0.04755197 148 165 61
0.10946102 0.07588381 0.13097914 135 148 17
0.10980867 0.07586802 0.13066028 142 154 16
0.10823012 0.07615316 0.13076837 97 120 14
0.10646380 0.07686880 0.12840003 83 108 14
0.11065461 0.07564583 0.13103785 150 161 20
0.10976847 0.07601490 0.12978667 144 157 17
0.10644446 0.07653379 0.13052616 99 118 11
0.04171404 0.13748270 0.13807815 185 206 51
0.04197256 0.13961501 0.14053504 140 163 31
0.04124644 0.14029273 0.14224030 147 171 57
0.04098192 0.14008665 0.14227679 148 173 56
0.04327212 0.13723932 0.13598211 173 197 39
0.04233014 0.13876338 0.13902676 172 198 49
0.04232399 0.09682502 0.13896842 156 180 44
0.04364290 0.09801815 0.13717522 119 145 12
0.04094854 0.09476759 0.14055294 178 199 58
0.04135858 0.09662738 0.14051829 125 155 21
0.07933190 0.10389555 0.10423989 61 84 16
0.07982865 0.10494852 0.10329816 65 88 18
-0.00389622 0.11629754 0.17933485 174 185 31
-0.00430120 0.11258582 0.18117231 148 184 14
-0.00308174 0.11321899 0.18111035 178 207 81
-0.00352741 0.11144464 0.18193364 122 161 44
0.05160684 0.11498401 0.10471307 77 97 10
0.05270199 0.11469022 0.10200390 58 76 0
0.05164838 0.11316662 0.10741309 70 92 9
0.05095479 0.11248413 0.11047664 104 126 25
0.05137807 0.11319879 0.10814440 78 97 15
0.05245029 0.11021496 0.10967564 55 80 0
0.04950418 0.11543306 0.11009308 86 115 5
0.05056834 0.11585215 0.10636728 57 83 0
0.05132983 0.11305529 0.10850648 74 96 11
0.09233919 0.07540090 0.13032590 66 87 12
0.09129362 0.07273079 0.13293096 88 111 20
0.09374472 0.07341716 0.13251162 69 90 11
0.04531720 0.11832703 0.11272129 64 88 4
0.11627071 0.07237988 0.13908188 90 112 3
0.11565547 0.07239383 0.13891819 90 109 1
0.11788355 0.07312016 0.13778231 121 143 8
0.11507977 0.07319786 0.13700499 94 116 7
0.11711102 0.07268535 0.13858330 122 142 11
0.11869115 0.07309818 0.13800532 98 126 7
0.06277015 0.13911720 0.04387168 209 218 127
0.06205967 0.13939555 0.04266590 204 209 115
0.10976187 0.07455929 0.13491692 85 105 6
0.10649523 0.07581538 0.13365382 154 159 15
0.10978843 0.07528308 0.13327764 115 132 17
0.11040840 0.07464194 0.13442247 108 126 14
0.10757411 0.07544694 0.13396667 124 141 11
0.10714666 0.07534497 0.13439994 148 158 9
0.06465150 0.13749872 0.07681534 128 143 52
0.06348333 0.13757314 0.07165175 118 133 38
0.06493099 0.13743451 0.07539424 120 136 38
0.06378157 0.13756493 0.07358772 106 123 21
0.10238981 0.07517062 0.13468397 118 137 12
0.10024282 0.07616492 0.13276227 109 130 13
0.10317960 0.07369695 0.13710481 111 135 15
0.06805869 0.13138695 0.10219536 129 146 18
0.06710372 0.13255028 0.10080291 154 159 67
0.06672785 0.13304053 0.10415698 145 157 57
0.06801175 0.13143496 0.10102121 135 150 31
0.06679866 0.13291341 0.09933557 140 151 57
0.06736261 0.13220908 0.09806819 145 157 49
0.06924926 0.12989651 0.09909759 118 138 15
0.06787612 0.13155095 0.09488961 117 137 16
0.11397354 0.07602125 0.12389582 128 155 26
0.11459620 0.07604116 0.12358423 133 156 24
0.11555438 0.07603569 0.12397144 133 156 24
0.11694486 0.07599838 0.12523752 129 152 22
0.10731059 0.07346831 0.13813196 133 147 8
0.10852116 0.07267363 0.13955241 144 154 3
0.10731382 0.07249985 0.13962406 99 119 4
0.10358986 0.07398257 0.13673586 102 125 9
0.08017728 0.10506453 0.10305449 73 96 18
0.08093990 0.10395043 0.10342928 70 93 13
0.00177808 0.09684508 0.18259613 138 176 41
-0.00116623 0.09766787 0.18211485 188 218 118
-0.00097100 0.09982804 0.18177626 191 221 151
0.03363522 0.10225408 0.15450279 72 93 0
0.03526340 0.10255811 0.15192287 70 96 5
0.03503710 0.09978843 0.15666679 116 147 9
0.03405073 0.10210141 0.15421462 71 91 6
0.09447096 0.09864739 0.09728148 175 196 65
0.09503911 0.09659033 0.09734087 155 177 43
0.09482834 0.09923337 0.09717210 171 193 56
0.10464563 0.07776219 0.11928410 106 126 5
0.10539192 0.07736371 0.11616079 120 141 12
0.10825130 0.07671157 0.11869083 117 138 11
0.10575566 0.07731859 0.11710986 131 153 18
0.10841496 0.07673189 0.11979123 133 154 17
0.09798621 0.08442225 0.10412563 146 168 5
0.09693350 0.08624218 0.10271623 151 172 17
0.09827916 0.08474614 0.10365887 146 167 2
0.09889910 0.08570132 0.10239204 135 159 1
-0.00026839 0.10545201 0.18251614 174 210 88
-0.00057227 0.10887903 0.18299733 147 185 76
0.00248707 0.10472704 0.18279165 181 210 92
0.00127856 0.10413869 0.18253230 175 208 103
0.00345382 0.10477734 0.18293487 184 211 82
0.00075653 0.10688328 0.18287860 169 203 80
0.01130350 0.11930433 0.16135903 189 215 46
0.01133542 0.11865065 0.16154180 190 212 41
0.01090828 0.11891755 0.16169666 187 215 45
0.07998522 0.10522015 0.14251079 154 169 74
0.08045972 0.10351273 0.14526081 159 173 76
0.07945339 0.10230813 0.14418709 159 174 71
0.08023926 0.10550564 0.14280017 157 172 77
0.08035401 0.10427898 0.14426763 156 171 76
0.03801589 0.08369770 0.14365408 190 212 75
0.03840987 0.08352502 0.14336760 192 214 80
0.03584883 0.07966567 0.14619125 130 158 11
0.03706108 0.10153957 0.15070733 105 136 6
0.03489561 0.09912609 0.15791106 135 166 3
0.03543259 0.10018358 0.15542124 108 141 2
-0.00888931 0.09752712 0.18074992 122 166 55
-0.00927791 0.09770832 0.18015067 142 186 65
-0.00992669 0.10024533 0.17892398 115 157 19
-0.00744823 0.10624320 0.18053830 115 159 35
0.06401392 0.12517254 0.13815691 71 101 13
0.06491375 0.12495777 0.13728265 62 94 19
0.06222577 0.12537353 0.14167655 97 131 11
0.06375753 0.12455291 0.14377993 87 120 15
0.06231154 0.12555800 0.13997561 111 141 17
0.06197881 0.12515835 0.14408015 90 127 13
0.06509336 0.12392102 0.14495307 92 124 17
0.11886102 0.07586285 0.12725832 129 151 24
0.11292341 0.07565493 0.12775007 151 166 21
0.11247981 0.07575677 0.12691617 150 165 24
0.11278903 0.07566582 0.12764551 151 166 21
0.00867609 0.11259545 0.16758710 138 161 21
0.01288970 0.11387151 0.16341235 202 216 71
0.01093555 0.11219019 0.16663545 181 197 47
0.01189985 0.11099163 0.16744079 163 181 19
0.01202124 0.11279926 0.16522871 192 207 56
0.04932516 0.08965089 0.13635771 121 143 9
0.05083379 0.08706445 0.13662387 59 94 0
0.05156698 0.08618715 0.13660374 77 108 4
0.04742578 0.08668406 0.13847260 135 157 22
0.05377889 0.08533740 0.13583557 107 141 5
0.04805025 0.08905414 0.13722821 131 157 24
0.05888411 0.11631759 0.15992387 133 174 20
0.05748031 0.11546357 0.15826030 122 164 20
0.00714807 0.11449659 0.16674630 190 211 92
0.00564904 0.11434511 0.16798759 169 193 95
0.04805761 0.14004605 0.14738050 182 206 30
0.04901399 0.13902391 0.14667037 183 210 35
0.05140276 0.13980722 0.14633451 179 207 35
0.10775264 0.07113849 0.14158519 78 98 0
0.10544066 0.06978434 0.14304800 104 124 11
0.10439611 0.07226680 0.13943148 104 125 4
0.10754343 0.07100199 0.14173685 78 98 0
0.10468564 0.06992467 0.14272042 93 112 4
0.08552552 0.09753916 0.10968415 102 124 16
0.08386520 0.09887466 0.10801990 87 108 13
0.08563372 0.09625458 0.11075693 107 129 18
0.08378110 0.09752988 0.10907295 74 99 8
0.02006897 0.12377917 0.15519525 156 186 0
0.02478982 0.12690365 0.15179151 175 199 15
0.02158499 0.12480234 0.15409738 162 187 0
0.02280041 0.12427446 0.15354498 209 224 79
0.02296003 0.12602848 0.15302914 163 190 1
0.02161197 0.12453681 0.15414684 170 194 10
0.01971478 0.12049031 0.15619321 208 218 87
0.05462309 0.11479203 0.15631270 100 137 23
0.05487881 0.11697132 0.15367541 88 128 13
0.09865069 0.07285470 0.13644724 79 100 9
0.09808272 0.07307151 0.13573572 78 101 10
0.09765299 0.07209088 0.13640915 68 93 9
0.09806753 0.07188495 0.13697892 65 90 6
0.05654058 0.11511516 0.15731801 114 154 19
0.05429205 0.11440390 0.15717258 116 148 25
0.05812270 0.11456766 0.16137601 161 197 29
0.05942064 0.11326951 0.15957166 112 148 0
0.06182902 0.11695202 0.17238499 109 152 0
0.05914177 0.11665896 0.17364514 187 209 36
0.05977726 0.11732922 0.17609701 165 202 26
0.05737608 0.11630166 0.17371929 134 172 11
0.05679686 0.11906040 0.15178977 94 132 13
0.05825365 0.11953859 0.15224579 107 143 17
0.05869293 0.12007349 0.15151574 106 145 18
0.05750047 0.11578970 0.09316181 62 79 0
0.05562198 0.11714981 0.09289274 35 61 0
0.05384533 0.11680388 0.09676324 60 83 3
0.05475222 0.11651432 0.09596554 37 63 0
0.05582220 0.11693732 0.09309206 39 64 0
0.05493591 0.11748117 0.09321239 36 63 0
0.08904971 0.10459339 0.09878087 135 153 41
0.08987558 0.10471456 0.09777343 162 185 71
0.09090975 0.10314410 0.09777638 185 199 85
0.07423817 0.09270355 0.09460915 61 90 0
0.07393394 0.09298013 0.09526242 50 77 0
0.07449289 0.09244548 0.09492890 61 93 0
-0.00125269 0.11493904 0.17144558 133 144 14
-0.00010894 0.11656487 0.16751087 173 190 52
0.09270046 0.09597198 0.09903421 149 167 59
0.09190501 0.09908096 0.09862165 172 191 76
0.09346797 0.09776128 0.09756231 167 185 73
0.11888051 0.07175978 0.14187668 127 152 8
0.12234620 0.07337994 0.14035316 111 134 4
0.11826602 0.07209636 0.14027466 126 147 8
0.12283591 0.07314807 0.14152074 113 133 0
0.12170296 0.07326292 0.14008468 113 136 6
0.06051425 0.11571135 0.08755533 71 100 7
0.05911920 0.11590112 0.08979987 20 46 0
0.05975229 0.11557900 0.08941858 39 67 6
0.05622602 0.11890375 0.08740897 44 69 3
0.05696866 0.11767536 0.08925857 48 71 1
0.05722436 0.11830772 0.08704557 48 74 3
0.05895646 0.11574335 0.09054753 29 53 1
0.09011377 0.09064699 0.09556893 193 211 93
0.08852667 0.09216183 0.09328912 202 221 106
0.08572307 0.10416841 0.10197514 109 134 16
0.08511356 0.10341887 0.10335465 128 148 15
0.08468738 0.10158852 0.10562303 75 100 9
0.08648263 0.10173956 0.10361264 134 153 46
0.07580831 0.09821055 0.13840893 149 163 101
0.07588029 0.09889666 0.13813926 151 167 94
0.07632632 0.10048740 0.13795167 152 171 82
0.07894132 0.09692778 0.14403626 161 181 96
0.07794655 0.10057235 0.14044459 161 181 82
0.07805732 0.09851786 0.14176372 156 177 86
0.04060154 0.11581832 0.12897810 84 108 14
0.03949980 0.11263964 0.13306338 77 94 14
0.04048607 0.11474909 0.12816978 87 106 27
0.04023290 0.11567690 0.13189413 80 106 5
0.03958756 0.11269610 0.13240747 71 90 9
0.03901685 0.11132497 0.13498640 79 98 17
0.04779138 0.09611245 0.13442750 122 148 15
0.04894877 0.09502700 0.13432433 142 160 40
0.04527949 0.09366720 0.13667759 130 154 18
0.04560659 0.09276355 0.13690034 132 153 32
0.04654087 0.09206816 0.13674073 114 134 11
0.05533070 0.13131365 0.09866488 111 126 61
0.05394102 0.13010734 0.09495174 105 121 48
0.05317883 0.12953243 0.09619588 102 120 46
0.05305941 0.14082143 0.13457590 138 158 25
0.05272026 0.14120567 0.13631839 131 151 26
0.05473296 0.14121334 0.13810162 150 169 27
0.05324978 0.14097269 0.13554226 131 152 31
0.05270533 0.14107029 0.13558809 137 157 26
0.04650427 0.11106496 0.15616848 168 199 9
0.04494194 0.11313991 0.15447617 97 126 0
0.09063713 0.09507754 0.10603647 88 112 14
0.09087890 0.09550170 0.10300854 152 162 37
0.09114645 0.09475507 0.10323699 152 161 34
0.01360726 0.11372925 0.16289769 199 214 69
0.01334735 0.11051090 0.16677040 133 158 5
0.01457422 0.11063924 0.16543360 163 182 28
0.01323535 0.10935362 0.16818099 130 155 0
0.05436389 0.11361618 0.15738092 124 158 38
0.05650818 0.11298013 0.15784143 165 189 65
0.05303159 0.11371182 0.15662687 104 138 15
0.05639673 0.11417843 0.15963767 136 172 24
0.05429832 0.11215495 0.15546378 97 128 8
0.05354733 0.10973772 0.15370792 73 109 1
0.05384794 0.10989916 0.15387587 76 110 0
0.01064661 0.11754648 0.16300409 188 207 65
0.01120053 0.11639847 0.16310026 165 191 64
0.08468119 0.09045209 0.11510341 71 88 18
0.08491624 0.09026494 0.11533821 74 91 21
0.08605602 0.09292668 0.11359149 94 113 34
0.08484173 0.09014410 0.11540943 67 84 16
0.06209895 0.11832866 0.17746471 123 165 3
0.06252888 0.11891561 0.17895243 119 159 0
0.06332908 0.11868805 0.17655666 101 145 0
0.06172124 0.11774106 0.17587620 122 167 4
0.04976704 0.10929320 0.15414064 112 155 3
0.04644426 0.10745859 0.15847681 154 193 4
0.04947715 0.10911216 0.15452890 112 156 1
0.04756567 0.11027768 0.15596892 147 186 7
0.04625032 0.10847379 0.15819708 162 203 1
0.00109482 0.10177182 0.18219344 193 219 118
0.00042987 0.10156620 0.18204868 186 215 125
0.00190155 0.10208953 0.18237343 192 219 106
0.08193547 0.08967590 0.08949683 213 220 125
0.08410462 0.09441738 0.08861486 187 209 72
0.08601103 0.09363170 0.09040843 207 226 101
0.08441006 0.09445006 0.08881997 193 215 80
0.08013351 0.09605991 0.08487571 133 156 24
0.06578594 0.10271197 0.11538438 109 134 76
0.06604256 0.10260683 0.11565527 110 135 78
0.06574620 0.10405344 0.11417571 111 135 77
-0.00813440 0.10461400 0.17755234 128 169 5
-0.00994023 0.10185239 0.17833525 135 175 14
0.06708576 0.12348635 0.14881605 93 125 14
0.06812137 0.12273085 0.15592188 132 160 15
0.06985810 0.12324341 0.15108362 93 124 21
0.06969616 0.12308267 0.15259823 91 119 9
0.06705772 0.12359776 0.14776729 89 122 15
0.06674142 0.12277040 0.15555938 135 167 22
0.06863212 0.12275823 0.15566045 131 158 15
0.06641428 0.12296045 0.15377231 129 163 16
-0.00279404 0.09551632 0.18231769 167 203 71
-0.00366741 0.09582476 0.18218005 160 196 98
-0.00373429 0.09806984 0.18179320 163 197 111
-0.00204228 0.09745456 0.18206283 180 212 111
-0.00178031 0.09414841 0.18264851 149 184 30
-0.00457807 0.11013609 0.18177798 123 164 34
-0.00711930 0.10883292 0.18064186 136 179 14
-0.00637049 0.10817052 0.18099532 122 163 35
0.00766174 0.11298115 0.16491476 153 173 0
0.00960984 0.11390559 0.16366547 127 159 0
0.01096278 0.11471146 0.16275661 137 162 0
0.00881519 0.11792272 0.16306883 157 188 9
0.00634878 0.11172666 0.17282538 117 141 3
0.00682729 0.11176152 0.17171587 117 141 5
0.00564630 0.11175507 0.17410856 115 142 1
0.03765851 0.14239936 0.14492455 138 161 45
0.03370053 0.14232774 0.14724624 146 168 34
0.03232730 0.14043133 0.14811262 141 163 52
0.03609079 0.14102708 0.14588785 128 151 47
0.03335319 0.14032166 0.14751501 134 158 46
0.03428258 0.14208378 0.14691310 146 166 41
0.09456540 0.08506389 0.11892506 84 111 18
0.09301253 0.08639144 0.11909834 107 135 14
0.09467590 0.08476298 0.11923417 83 108 14
0.09255993 0.08592496 0.12047757 104 128 16
0.09348758 0.08585250 0.11925211 107 130 16
-0.00202143 0.11497395 0.17236356 145 154 13
-0.00441604 0.11486474 0.17367828 140 153 13
0.00940614 0.12663743 0.16318750 152 185 42
0.00955042 0.12503192 0.16316135 146 179 28
0.00866939 0.12534006 0.16347055 141 173 36
0.01324885 0.13053414 0.16175638 176 203 64
0.00999411 0.12630379 0.16298316 144 179 35
0.00015288 0.08657636 0.18306099 161 192 3
0.00004175 0.08431625 0.18353848 128 163 1
-0.00331763 0.08749653 0.18130922 141 169 0
-0.00277527 0.08748604 0.18155192 135 165 5
-0.00310367 0.08668207 0.18159382 127 158 2
-0.00175083 0.08457088 0.18268509 169 196 7
0.07728454 0.10777449 0.13488056 145 163 64
0.07682279 0.10844023 0.13309552 144 161 65
0.07672085 0.10505027 0.13544917 154 171 79
0.07655651 0.10860334 0.13223766 136 156 61
0.04858193 0.13112487 0.12256738 178 197 72
0.04731822 0.13046756 0.12507692 179 200 69
0.04690846 0.13009036 0.12559000 173 196 56
0.04776767 0.13124223 0.12517545 179 200 73
0.06445895 0.13452983 0.13701530 130 158 22
0.06634437 0.13250592 0.13481313 101 130 14
0.06572519 0.13416539 0.13583291 114 140 15
-0.00852986 0.09966435 0.18084165 150 192 92
-0.00738436 0.09920534 0.18146227 139 184 93
0.06366691 0.13564153 0.11040284 154 163 70
0.06150375 0.13700135 0.11589360 154 168 57
0.06287609 0.13634580 0.11339191 152 162 66
0.05829197 0.13768093 0.11769841 172 182 86
0.06103709 0.13741727 0.11765905 144 163 38
0.06484674 0.13513097 0.10850338 151 160 67
0.06157303 0.13770090 0.11923944 142 162 39
0.06070143 0.13671674 0.11419113 179 187 84
0.07108181 0.12689480 0.09446170 117 143 20
0.07028785 0.12777914 0.09192339 122 148 25
0.07156143 0.12613112 0.09385014 113 140 23
0.07036584 0.12807189 0.09572130 111 136 18
0.07145882 0.12598071 0.09104742 91 114 23
0.07131782 0.12617567 0.09095122 95 119 21
0.05762427 0.13223965 0.09194705 89 108 42
0.05640860 0.13174103 0.09294717 103 123 54
0.05776612 0.13235238 0.09305204 94 113 47
0.07284962 0.13341513 0.08579094 113 135 35
0.07345845 0.12840371 0.09003108 85 111 24
0.07250719 0.13033383 0.08789866 93 116 26
0.07286793 0.13059354 0.08795222 94 117 26
0.07413434 0.13109657 0.08845145 94 117 26
0.06719591 0.13656791 0.07839280 137 154 60
0.06891722 0.13563339 0.07733088 146 160 63
0.07199174 0.13502890 0.08134362 127 146 39
0.07070376 0.13535795 0.08008339 129 147 39
0.07186118 0.13484952 0.08003514 156 171 78
0.06817718 0.13647059 0.08020423 143 157 62
0.06900673 0.13597868 0.07946192 138 155 53
0.09000142 0.09995796 0.10040577 139 157 35
0.08888748 0.10114554 0.10122933 160 172 48
0.09039982 0.10054797 0.09973200 136 156 35
0.00133862 0.11849303 0.16498098 169 194 28
0.00137209 0.11853047 0.16460255 131 163 0
0.00037212 0.11720072 0.16576566 146 176 2
0.06775404 0.13216513 0.08891016 108 133 16
0.06855024 0.13089913 0.08793318 112 137 20
0.06836851 0.13140528 0.08725866 111 138 25
0.07868551 0.10206716 0.14237364 168 180 82
0.07778869 0.10187317 0.13962102 168 185 89
0.07988238 0.10063363 0.14610873 165 177 75
0.07845627 0.10080976 0.14171393 176 188 90
0.07858193 0.09986626 0.14213493 163 181 81
0.07867234 0.09947659 0.14242731 162 180 78
0.03880540 0.10065034 0.14771295 92 129 0
0.03886816 0.10223285 0.14683773 79 112 0
0.03831141 0.09890953 0.14951232 82 112 0
0.03772281 0.09846828 0.15088071 97 127 5
0.00856560 0.10975849 0.17541884 132 156 0
0.01112681 0.10756315 0.17802496 121 150 0
0.00732087 0.11022507 0.17667648 112 144 1
0.00976501 0.10898238 0.17557986 116 140 4
0.00748011 0.10999638 0.17722617 120 150 2
0.00978356 0.10876994 0.17642511 110 138 2
0.07265151 0.12069939 0.12325198 167 177 62
0.07338233 0.12103838 0.12075068 146 163 31
0.07260992 0.12319914 0.12271610 149 167 49
0.07324898 0.12205289 0.12091727 156 173 45
0.07201640 0.12446590 0.12433226 105 128 20
0.01938972 0.11022186 0.16270801 110 138 1
0.02276342 0.10748821 0.16340332 186 200 42
0.02055915 0.10838564 0.16392662 187 201 64
0.02298462 0.10948806 0.16105175 212 216 103
0.02264401 0.10980989 0.16093113 205 215 93
0.02532943 0.10906222 0.15991335 144 166 3
0.02068727 0.10927480 0.16286068 161 181 22
0.05174003 0.11697681 0.15295480 105 141 9
0.05050196 0.11791148 0.15178491 107 136 8
0.05386126 0.11786739 0.15257356 91 128 14
0.05355006 0.11727943 0.15306728 94 128 16
0.07486094 0.11408532 0.12677705 169 181 83
0.07341567 0.11730283 0.12398312 143 162 34
0.07511895 0.11798249 0.13038740 163 183 58
0.07331213 0.11787419 0.12402017 137 155 21
0.07472818 0.11563125 0.12739050 153 171 51
0.07488404 0.11722527 0.12904246 152 173 44
-0.00373002 0.10162423 0.18143488 174 211 115
-0.00430287 0.09908370 0.18161450 191 221 135
-0.00623948 0.09914518 0.18155353 162 202 114
0.00349382 0.12045413 0.16304828 115 148 0
0.00334914 0.12031911 0.16335860 118 149 0
0.00575545 0.12178463 0.16339321 144 175 45
0.07112550 0.12501097 0.12724438 108 126 16
0.07096131 0.12400735 0.12890069 116 132 25
0.07111611 0.12363575 0.12917076 120 135 30
0.08204779 0.10469772 0.10277493 74 99 8
0.08354468 0.10389931 0.10361838 86 111 7
0.08400927 0.10128400 0.10612882 75 99 5
0.07211213 0.12682930 0.12493330 109 132 15
0.07312682 0.12832308 0.12282067 134 158 34
0.07235906 0.12798166 0.12486452 101 125 15
0.07330422 0.12988730 0.12318695 142 164 30
0.07308055 0.12631282 0.12182060 117 139 15
0.07285974 0.12469640 0.12155131 143 162 36
0.04868004 0.10162290 0.12977548 158 170 58
0.05270993 0.09931118 0.12815793 126 146 25
0.05109173 0.10377780 0.12563092 137 151 37
0.05213626 0.09999796 0.12806706 89 117 4
0.05194115 0.10429002 0.12439267 118 135 20
0.05001044 0.10148385 0.12868117 106 126 5
0.05078559 0.10283415 0.12675861 116 131 14
0.05220308 0.09791696 0.12987405 138 156 34
0.04946335 0.12521531 0.09151137 55 76 1
0.04882584 0.12522395 0.09426110 87 105 29
0.04783931 0.12389804 0.09737214 77 93 18
0.05002974 0.12712307 0.09070474 111 127 64
0.05064247 0.12850717 0.08925137 114 129 72
0.04935924 0.12577090 0.09243384 83 99 34
0.03752732 0.12228699 0.14815277 191 203 41
0.03648454 0.12445916 0.14691886 126 152 1
0.03982416 0.12205757 0.14852734 115 142 9
0.04084606 0.12465844 0.14730351 165 180 17
0.03832969 0.12170799 0.14854024 140 163 11
0.06667467 0.13340311 0.08499839 108 128 29
0.06535818 0.13552488 0.08206103 98 116 30
0.06587908 0.13614383 0.08045857 136 151 70
0.06555528 0.13626839 0.08048924 131 146 65
-0.00014439 0.09081396 0.18209869 135 165 0
-0.00133088 0.08929082 0.18177265 136 165 0
-0.00211367 0.09211851 0.18124592 99 131 0
-0.00278884 0.08878583 0.18126088 142 174 1
0.08353123 0.08914433 0.09141202 212 219 124
0.08393330 0.08966832 0.09138842 214 222 119
0.08686791 0.09137588 0.09292600 146 171 27
0.08370598 0.09047713 0.09050921 181 198 70
0.08491695 0.09035684 0.09180997 178 194 61
0.08367887 0.11324015 0.09740072 170 187 83
0.08779167 0.10924271 0.09773783 140 163 47
0.08399578 0.11254688 0.09737335 172 191 84
0.07237890 0.13318133 0.07567912 151 161 74
0.07401136 0.13232058 0.07863332 148 160 74
0.07404114 0.13227116 0.07858486 148 160 74
0.07351291 0.13393736 0.08184139 151 167 69
0.07342201 0.13255237 0.07732707 149 161 75
0.07515727 0.13238241 0.08272886 145 163 64
0.09468606 0.08635277 0.11332629 98 123 5
0.09390161 0.08735489 0.11333517 118 137 12
0.09424354 0.08730322 0.11035321 100 125 7
0.09614852 0.08399563 0.11708993 136 152 17
0.09359647 0.08767109 0.11390787 123 143 12
0.06618446 0.13531703 0.11624818 154 168 54
0.06598239 0.13529877 0.11489161 152 166 53
0.06715689 0.13458771 0.11746248 142 160 38
0.07286105 0.09306621 0.09120323 73 105 8
0.07392982 0.09264930 0.09323383 73 103 3
0.07050655 0.09605598 0.09210172 64 90 1
0.07991503 0.10033592 0.10734013 55 78 8
0.08214124 0.09814158 0.10849947 64 81 13
0.08002637 0.09809033 0.10864109 59 79 8
0.08077744 0.09621075 0.10969523 59 75 13
0.08259157 0.09808878 0.10850640 67 86 7
0.07917970 0.10183554 0.10650628 60 83 15
0.05080594 0.07589418 0.16933824 114 154 21
0.04907241 0.07649106 0.16853932 150 183 30
0.04685355 0.07784705 0.16835815 135 157 31
0.06825137 0.13120675 0.19873649 162 197 17
0.06750628 0.13180657 0.19650140 131 173 3
0.06642817 0.13327335 0.20284705 135 177 7
0.06588177 0.13399893 0.20577829 144 180 10
0.06801391 0.13186303 0.20546398 126 166 5
0.06682585 0.13306092 0.20576273 151 190 9
0.07836530 0.11925525 0.09888797 80 104 28
0.07941608 0.11793952 0.09854048 87 110 32
0.08210380 0.11541534 0.09742469 83 101 17
0.08094575 0.11783862 0.09754509 104 125 32
0.07801484 0.11100727 0.13496935 166 183 77
0.07993842 0.11226971 0.13991737 170 189 74
0.07672141 0.11594403 0.13423453 163 183 50
0.07766190 0.11505563 0.13597915 174 195 68
0.07815640 0.11227788 0.13586114 155 176 59
0.07941520 0.11208986 0.13864477 160 178 66
0.08222384 0.12112644 0.09679870 98 118 23
0.08170681 0.11885819 0.09700270 111 129 30
0.08264584 0.11860025 0.09695805 80 103 21
-0.00711779 0.10644040 0.17739616 95 138 0
-0.00787850 0.10507064 0.17828467 140 181 14
0.04926455 0.08558855 0.16709046 119 163 6
0.04596170 0.09333874 0.16451582 145 183 2
0.04840071 0.08601422 0.16699919 121 161 13
0.04269819 0.09033042 0.16584915 122 145 2
0.04831985 0.09357362 0.16425720 125 175 2
0.04808917 0.08573713 0.16712281 125 163 24
0.04499621 0.08918314 0.16609737 176 195 70
0.04671549 0.09093410 0.16533457 129 171 1
-0.00669976 0.10682859 0.18086205 120 166 44
-0.00565522 0.10470820 0.18135689 149 191 79
0.05207848 0.13495868 0.11925691 147 165 63
0.05055876 0.13446146 0.12244485 143 167 45
0.05191435 0.13424379 0.11899689 139 160 57
0.04976442 0.13348649 0.12345755 141 163 37
0.04971616 0.13423254 0.12425511 149 171 44
0.07384600 0.11724605 0.11218738 106 126 5
0.07360544 0.11525896 0.11417096 90 103 11
0.07359912 0.11657514 0.11371046 83 100 4
0.07422274 0.11460634 0.11123559 139 155 84
0.07429235 0.11178292 0.11193479 102 112 88
-0.00500923 0.10385541 0.18145223 145 185 86
-0.00387281 0.10445259 0.18175739 144 184 85
-0.00331414 0.10564575 0.18204623 141 178 75
-0.00309970 0.10391793 0.18181978 154 192 81
-0.00378219 0.09791069 0.18039994 142 179 3
-0.00244126 0.09920089 0.18074895 126 165 0
-0.00357702 0.09996235 0.18042117 168 202 2
0.07101127 0.12419351 0.07144220 120 145 61
0.07136322 0.12355042 0.07222467 112 135 55
0.07129873 0.12259405 0.07185324 120 145 64
0.07027400 0.12377923 0.06942911 130 155 74
0.07929799 0.12417968 0.08202394 121 134 55
0.07742155 0.12864330 0.08129215 133 152 62
0.08019307 0.12593338 0.08396516 137 154 58
0.08120925 0.12485603 0.08491089 133 148 53
0.04901533 0.11438321 0.15437919 141 177 19
0.04853072 0.11737809 0.15167426 101 130 11
0.04620399 0.11417298 0.15345220 109 137 1
0.10978781 0.07260429 0.13934527 136 147 9
0.11493812 0.07146374 0.14116333 128 141 10
0.11283506 0.07268574 0.13846609 129 145 10
0.11321952 0.07356361 0.13611257 144 155 16
0.11337106 0.07346882 0.13632432 145 156 15
0.11388908 0.07184896 0.14039779 122 137 8
0.07459909 0.12737110 0.09175123 86 109 27
0.07308351 0.12619650 0.09175726 83 106 24
0.07445144 0.12571602 0.09321018 83 106 28
0.07189567 0.12727706 0.08986770 89 113 27
0.00596242 0.12369722 0.16285847 191 215 55
0.00527521 0.12390243 0.16255388 146 174 11
0.00372543 0.12094523 0.16202758 114 150 0
0.07988445 0.11419491 0.14262290 117 155 20
0.07849550 0.11668723 0.14294104 160 187 32
0.07959030 0.11684359 0.14930722 120 157 18
0.07856171 0.11509328 0.13832353 153 180 41
0.07911683 0.11623876 0.14487796 161 187 26
0.07681366 0.11755659 0.13662314 115 147 20
0.07860903 0.11517193 0.13882303 150 177 36
0.07868840 0.11515501 0.13919637 130 161 23
0.07814629 0.11555477 0.13753283 146 172 37
-0.00253067 0.11402333 0.16891046 71 92 0
-0.00283842 0.11371156 0.17141101 96 120 6
-0.00115145 0.11237203 0.17124715 49 77 0
0.08154327 0.10896943 0.10051767 110 131 26
0.08220112 0.10937747 0.10007798 121 141 28
0.08208403 0.11124539 0.09898947 97 117 20
0.08135051 0.10780901 0.10127232 90 110 21
0.05859043 0.13897537 0.05358653 108 122 25
0.06120635 0.13786951 0.05058784 150 162 64
0.05748636 0.14033388 0.05379052 104 121 25
0.05934690 0.13983887 0.05131070 128 143 42
0.05875859 0.14023860 0.05180531 104 120 21
0.06108621 0.13768169 0.05100961 145 156 60
-0.01005872 0.07380766 0.17872678 144 182 0
-0.01032700 0.07709697 0.17792504 155 190 8
-0.01179474 0.07337972 0.17786221 102 139 0
-0.01038325 0.07826460 0.17766176 136 174 0
0.00649483 0.11732911 0.16322806 118 153 1
0.00735710 0.11641189 0.16371597 148 176 6
0.00392818 0.11911091 0.16216886 128 163 1
0.00730831 0.11967857 0.16235581 142 175 0
0.07476822 0.10844330 0.11081406 106 105 111
0.07492656 0.10943160 0.10978080 98 107 80
0.07548914 0.11000270 0.10672480 85 110 45
0.07315059 0.13042174 0.07525305 163 171 88
0.07424707 0.12967992 0.07660148 162 171 90
0.07486375 0.12966265 0.07759906 149 161 75
0.07481848 0.12900536 0.07713195 161 170 89
0.07402492 0.13082621 0.07692400 129 145 56
0.04192118 0.10352159 0.14018899 82 115 2
0.04302034 0.10016072 0.13848434 118 143 16
0.04334907 0.10190653 0.13797583 128 148 14
0.04376851 0.09912825 0.13732462 85 112 5
0.04142688 0.10123315 0.14095375 76 104 0
0.04318511 0.10205129 0.13822994 125 147 12
0.06516390 0.13227019 0.13594352 110 139 21
0.06396061 0.13230141 0.13732675 111 141 19
0.06322710 0.13030732 0.13810119 115 143 20
-0.00284563 0.10374994 0.18001720 146 183 5
-0.00664812 0.10089467 0.17920579 114 160 0
-0.00562419 0.10162190 0.17944133 109 154 0
-0.00491300 0.10317177 0.17917722 115 156 2
0.07106061 0.12777445 0.10449474 137 156 14
0.07061320 0.12835008 0.10251555 144 161 29
0.07129101 0.12757066 0.10600815 156 172 40
0.07087710 0.12822911 0.10484865 137 156 14
0.07011443 0.12979358 0.10458528 159 172 56
0.07916792 0.11043400 0.10072939 78 100 27
0.07872976 0.11518192 0.09974268 81 104 36
0.07954905 0.11331412 0.09969853 83 103 31
0.08135013 0.11269671 0.09866131 90 111 20
0.08170652 0.11331157 0.09825746 81 104 16
0.06802564 0.13639349 0.08100440 142 156 61
0.06873206 0.13405147 0.08404759 128 144 56
0.06912280 0.13554806 0.08247390 150 165 74
0.07244594 0.13497481 0.08460639 151 166 71
0.07082880 0.13474718 0.08415961 130 145 50
0.04183790 0.09932993 0.16405767 96 120 6
0.04002186 0.09953253 0.16464081 122 143 12
0.04043317 0.10058418 0.16413543 140 155 10
0.07194827 0.10034983 0.10094125 134 146 100
0.07034833 0.10650102 0.09817704 194 206 140
0.07232586 0.10027762 0.10170414 151 161 127
0.07258976 0.10270761 0.10243605 202 204 190
0.07382260 0.10003837 0.10473193 166 170 155
0.07142270 0.10501215 0.10024488 172 180 123
-0.00199312 0.11593924 0.17777289 124 142 4
-0.00265464 0.11617995 0.17740579 138 154 3
-0.00038741 0.11530666 0.17815088 96 124 1
0.00241242 0.08109350 0.18443291 139 172 3
0.00688325 0.08263306 0.18493050 198 225 8
0.00343837 0.08093261 0.18457818 114 149 0
0.00444537 0.08263950 0.18460803 118 152 0
0.00610429 0.08010378 0.18498050 184 207 5
0.07626837 0.11002665 0.13064210 139 157 58
0.07660899 0.11120689 0.13084652 157 173 74
0.07613533 0.11018389 0.13022394 137 154 58
0.06026913 0.11866421 0.15596107 108 148 16
0.05875127 0.11892043 0.15399522 111 151 16
-0.00028286 0.09559311 0.18144087 151 182 0
-0.00070260 0.09490282 0.18146573 150 182 0
-0.00117546 0.09588856 0.18111920 183 206 1
0.00162457 0.09270375 0.18260786 147 177 3
0.07808972 0.09486775 0.14346668 121 126 96
0.07770716 0.09563207 0.14258695 134 142 103
0.07680722 0.09363160 0.14177752 125 133 112
0.07623403 0.09601545 0.14004850 122 127 107
-0.00562660 0.10826805 0.17656454 109 151 3
-0.00469952 0.10840163 0.17703477 116 159 0
-0.00433901 0.10846625 0.17721079 132 175 0
0.05500440 0.12293619 0.14748217 95 123 13
0.05746516 0.12357024 0.14626411 135 163 26
0.05656155 0.12337969 0.14666377 131 156 26
0.04139009 0.13636655 0.13760693 169 192 26
0.04039322 0.13665485 0.13890268 182 205 39
0.04485745 0.13474029 0.13275401 205 221 88
0.04589407 0.13552515 0.13200861 205 221 86
0.04398375 0.13672584 0.13485143 164 185 28
0.04322423 0.13666940 0.13568541 165 189 29
0.00492841 0.10415407 0.18119349 178 206 0
0.00574865 0.10558061 0.18030944 199 220 3
