0.59443200 -0.17720483 0.21814935 149 170 41
0.58178496 -0.15884942 0.22167997 112 147 1
0.58657533 -0.16265912 0.22272794 91 127 0
0.58424956 -0.16068341 0.22555959 102 139 8
0.58704466 -0.17116846 0.22690186 174 193 24
0.57368839 -0.15944348 0.21447368 105 140 0
0.57625294 -0.15809995 0.21760318 95 129 0
0.58205301 -0.16133733 0.22713482 112 144 0
0.57776058 -0.16584049 0.22966014 134 167 16
0.56855965 -0.16214783 0.21165118 101 140 0
0.56123978 -0.16493660 0.21117993 153 188 0
0.56116277 -0.16038533 0.21042430 152 174 4
0.56200933 -0.15832463 0.21018806 170 188 54
0.58793831 -0.17068422 0.22489734 124 150 14
0.58724821 -0.17028984 0.22593485 126 158 13
0.56527734 -0.17022873 0.21541856 119 148 0
0.57948297 -0.17277503 0.23085234 150 183 34
0.57396102 -0.16813447 0.22846930 117 153 19
0.57904655 -0.16415292 0.22917242 130 157 2
0.56058753 -0.17411447 0.21276146 145 166 35
0.55602050 -0.17105572 0.20689249 163 197 0
0.55705720 -0.17331378 0.20984755 155 180 37
0.59954482 -0.17249747 0.21405797 74 99 0
0.60122758 -0.17469913 0.20829374 101 119 37
0.59966552 -0.17257644 0.21660493 106 135 9
0.59414560 -0.17685306 0.22141300 136 155 37
0.56860107 -0.17454869 0.22693621 130 166 34
0.56896591 -0.17326185 0.22543333 138 165 32
0.56033230 -0.15520921 0.22592516 141 178 39
0.56130278 -0.15365361 0.22687209 164 205 73
0.61657095 -0.19061837 0.15452768 44 84 0
0.62000376 -0.18589015 0.16099429 80 111 44
0.61674112 -0.18532544 0.16588192 69 98 31
0.56667054 -0.17447168 0.22254664 139 162 45
0.56382716 -0.17348905 0.21530731 122 146 10
0.58385968 -0.16749512 0.22776559 148 177 35
0.57353008 -0.15567286 0.23344642 138 173 73
0.57807523 -0.15817639 0.22895557 129 159 69
0.57458133 -0.15764521 0.23343584 123 159 53
0.57325983 -0.17291866 0.23508553 160 193 60
0.57487911 -0.17301887 0.23515557 130 161 23
0.57340807 -0.17169572 0.23825838 149 185 13
0.61319512 -0.18817374 0.16143087 74 109 17
0.61197406 -0.18589237 0.16754685 54 85 5
0.56120300 -0.16197991 0.23159245 152 193 29
0.59354937 -0.16112328 0.20802379 119 145 56
0.59639686 -0.16387048 0.20462939 104 131 60
0.55408651 -0.16828878 0.20593540 181 206 3
0.55750829 -0.16525455 0.20887607 178 200 1
0.59425360 -0.17157876 0.22245778 140 173 22
0.58958298 -0.16955797 0.22470807 123 156 25
0.59811950 -0.17546788 0.20362473 88 117 9
0.54881370 -0.16268760 0.20392859 185 202 34
0.54811853 -0.16133462 0.20359135 190 211 56
0.59859270 -0.16660440 0.20211883 97 127 91
0.55971605 -0.16161430 0.22893070 167 205 24
0.60054022 -0.17373985 0.21374536 90 116 6
0.60087663 -0.17697124 0.20589492 78 96 34
0.60105646 -0.17319076 0.20193824 98 122 74
0.59766543 -0.16935770 0.20608397 92 120 71
0.53198057 -0.15919378 0.16801842 195 208 77
0.53167641 -0.16191907 0.17088215 182 194 68
0.54497391 -0.15968539 0.20092323 194 210 59
0.57382274 -0.16509645 0.22321561 116 149 0
0.55129695 -0.16096467 0.21144603 177 206 40
0.55466574 -0.16120391 0.21897873 168 201 26
0.55036253 -0.16334355 0.20841859 207 235 72
0.55353606 -0.15653439 0.21612495 177 213 45
0.55108070 -0.15652479 0.21206151 182 213 47
0.55664599 -0.15913355 0.22201861 161 197 25
0.53947884 -0.16645600 0.19710509 197 223 52
0.53812236 -0.16532478 0.19351774 193 221 41
0.58949673 -0.16855562 0.22292647 140 170 24
0.53958505 -0.16083546 0.19207445 195 212 72
0.54044861 -0.15901205 0.19158009 206 221 80
0.56526309 -0.17457239 0.23002081 137 178 0
0.56395996 -0.17359793 0.22915778 154 192 8
0.56159556 -0.17075330 0.22331215 100 149 6
0.56699437 -0.17326610 0.23444848 135 160 14
0.56550992 -0.17408921 0.23229963 109 150 0
0.60515696 -0.18480630 0.17285466 53 81 0
0.60580122 -0.18147606 0.16976123 87 121 11
0.53936630 -0.16838646 0.19430032 178 209 9
0.56200564 -0.17322755 0.21833523 127 161 49
0.56067902 -0.17056537 0.22031945 107 151 2
0.54923868 -0.17117853 0.20244619 186 212 1
0.55390018 -0.14409357 0.22135480 165 199 25
0.55536097 -0.14532703 0.22264002 177 214 38
0.55689692 -0.14486821 0.22455300 158 193 28
0.60399163 -0.17492631 0.19719149 88 111 82
0.60858363 -0.18050322 0.18519926 62 85 13
0.61054575 -0.18079591 0.18060064 91 116 61
0.60847753 -0.18106401 0.18493755 60 85 4
0.53005034 -0.16387710 0.17113210 180 203 35
0.53219116 -0.16352569 0.17665489 200 221 42
0.53537577 -0.16215925 0.18238090 178 200 14
0.59652907 -0.17876484 0.21282406 87 111 15
0.52732337 -0.16452675 0.17506371 175 204 24
0.52885795 -0.16549885 0.17931262 180 212 27
0.61388820 -0.17758013 0.17755014 95 118 74
0.61443049 -0.17966868 0.17505984 85 107 61
0.61446691 -0.18413958 0.17041144 80 106 43
0.55402267 -0.15934393 0.20849451 190 206 48
0.55798286 -0.16235581 0.20999533 182 200 26
0.56664026 -0.16811609 0.23715273 178 219 63
0.56876647 -0.17055196 0.23786849 171 209 48
0.60057950 -0.18578321 0.19154824 95 127 2
0.54944348 -0.16146424 0.20745106 182 209 44
0.54505181 -0.15993413 0.20202839 175 203 22
0.54672968 -0.16360180 0.20373297 204 229 67
0.60963392 -0.18660679 0.16692132 77 107 17
0.61246693 -0.18483110 0.17097022 47 75 1
0.59365565 -0.17427503 0.22356594 121 162 21
0.54905379 -0.17135732 0.20315690 187 215 8
0.54255778 -0.16992594 0.20183615 185 221 59
0.55083239 -0.15069702 0.21346347 179 210 29
0.54865533 -0.15243107 0.20899016 155 182 27
0.55350685 -0.15031470 0.21768424 196 227 45
0.54849166 -0.14770831 0.21219274 190 222 35
0.55711699 -0.16855887 0.21725643 132 167 15
0.58362925 -0.16842337 0.22814447 133 164 27
0.58264989 -0.16963343 0.22893307 172 199 42
0.60361958 -0.17751287 0.19834709 79 96 54
0.58262277 -0.16823274 0.22921138 137 169 26
0.57337260 -0.16840322 0.23801106 151 184 35
0.57376337 -0.16375168 0.23617665 165 200 56
0.58061409 -0.16799478 0.23103563 147 178 40
0.58090353 -0.16552962 0.22998558 166 191 47
0.58123755 -0.16594103 0.22979935 166 191 47
0.60296643 -0.17934807 0.19971316 91 112 35
0.60303789 -0.18163748 0.19902317 76 98 15
0.60420388 -0.18350780 0.19058871 59 84 0
0.60935920 -0.18340850 0.15979369 88 120 13
0.59305948 -0.16691719 0.21391401 106 136 36
0.58831555 -0.16281581 0.21748820 103 133 45
0.57326305 -0.15869313 0.21287093 106 138 3
0.56814140 -0.16300899 0.23706773 170 204 65
0.56744528 -0.16147187 0.23663940 179 216 74
0.57006282 -0.16115636 0.23704506 169 199 77
0.60407388 -0.18604039 0.17701110 60 85 4
0.60677713 -0.18528900 0.17635141 68 93 12
0.60870796 -0.18452708 0.17662722 46 72 0
0.54201591 -0.16291422 0.19698155 197 224 49
0.57026935 -0.16673277 0.21753673 142 172 12
0.52563900 -0.16445555 0.17674547 172 199 24
0.52850389 -0.16568974 0.17935722 183 214 32
0.60069978 -0.18181194 0.19880520 81 109 0
0.59876209 -0.16182698 0.18932588 119 146 49
0.58160228 -0.15747572 0.21935804 90 124 0
0.55834484 -0.16701689 0.22064652 145 179 22
0.55475956 -0.16407073 0.21721540 173 206 39
0.61066061 -0.17149429 0.18377706 105 127 89
0.61184585 -0.16990471 0.18200526 109 130 97
0.60115260 -0.16472143 0.18744110 75 109 14
0.56138372 -0.17185463 0.23377934 119 164 21
0.61018670 -0.17289919 0.18480819 116 137 104
0.60462433 -0.16871293 0.19215333 136 164 116
0.60442752 -0.16950125 0.19279473 120 147 106
0.53303909 -0.16688275 0.18373312 175 199 23
0.57201052 -0.16120648 0.21356104 109 142 0
0.58012193 -0.17464483 0.23114641 155 185 55
0.60695875 -0.16515507 0.18636002 106 125 103
0.56950504 -0.17007104 0.22048818 99 142 11
0.57050914 -0.16794279 0.21879481 130 157 0
0.59699821 -0.17641865 0.21730454 112 129 33
0.58361566 -0.16897535 0.22815008 149 174 28
0.56017810 -0.17029962 0.22543265 105 151 3
0.56053013 -0.16963348 0.22972268 112 155 13
0.53026593 -0.16495220 0.17615135 175 206 24
0.59933358 -0.16235183 0.19819684 111 136 79
0.59890598 -0.16283420 0.19928697 104 129 71
0.53602129 -0.16301638 0.18755397 185 211 28
0.53672928 -0.16230170 0.18805151 180 206 23
0.53325349 -0.16615151 0.18317562 174 198 26
0.52915448 -0.16608538 0.17527227 193 213 38
0.55894554 -0.16010250 0.22707480 162 199 34
0.54261166 -0.16639671 0.19734333 210 221 67
0.56769240 -0.16783038 0.21564825 122 156 0
0.60631919 -0.17581882 0.19329429 92 115 73
0.60376775 -0.17185529 0.19493249 102 127 98
0.56137472 -0.14663306 0.22870126 177 216 49
0.56790483 -0.15137066 0.23360734 171 209 72
0.56381547 -0.14822315 0.23060289 163 203 42
0.53486997 -0.16195564 0.18177138 192 207 78
0.53544760 -0.16181472 0.18304081 206 221 96
0.56613100 -0.16093028 0.21090476 175 201 48
0.56761551 -0.15757664 0.21048625 151 164 74
0.56232798 -0.16351397 0.21105184 167 204 12
0.53295600 -0.16560045 0.18581191 166 196 12
0.59467113 -0.17679131 0.21536596 128 149 28
0.59586573 -0.17459343 0.21163096 94 120 11
0.57035959 -0.15487216 0.21096496 131 151 26
0.56825048 -0.15403259 0.21034794 149 169 38
0.58709085 -0.16558120 0.22252701 127 159 34
0.60786897 -0.17575328 0.19030710 97 116 71
0.60679245 -0.17998666 0.18936460 74 102 17
0.53350049 -0.15677613 0.16976228 189 204 77
0.53234500 -0.15528412 0.15993625 181 197 62
0.57755101 -0.16694826 0.22985764 158 185 18
0.60935813 -0.18438284 0.16179210 71 102 0
0.61003602 -0.18530777 0.15894073 86 117 13
0.59687233 -0.15986091 0.19585383 102 129 74
0.57730675 -0.17451607 0.23082706 135 161 12
0.54094398 -0.16939446 0.20143199 184 219 57
0.54711092 -0.16830494 0.20595828 194 225 69
0.53578234 -0.15959811 0.18132098 199 213 90
0.53418446 -0.15890753 0.17544772 186 200 77
0.64121282 -0.04264068 0.16791004 88 130 20
0.67057228 -0.02242102 0.16680889 90 118 59
0.65818036 -0.02825563 0.16995537 38 75 31
0.67989832 -0.02806210 0.16433285 130 165 111
0.68082869 -0.01906163 0.16483711 99 137 60
0.66240889 -0.02586310 0.16638273 57 95 34
0.66041189 -0.02654055 0.16751757 50 87 36
0.64499032 -0.04080589 0.16720290 56 99 10
0.65923047 -0.03235628 0.17153026 68 89 12
0.65143597 -0.03674573 0.16724372 54 88 14
0.64643246 -0.04009492 0.16734374 52 92 6
0.63858569 -0.04367490 0.16998324 72 118 30
0.64655042 -0.04049129 0.16552593 85 121 33
0.68165070 -0.02839274 0.16145290 179 201 93
0.67251951 -0.02830998 0.16727933 121 148 103
0.67844546 -0.02663971 0.16071244 81 120 31
0.66186112 -0.02917668 0.17129439 76 91 26
0.66790926 -0.02419008 0.16833273 85 109 51
0.67874289 -0.03133836 0.16264406 169 188 160
0.66556394 -0.02770473 0.16140987 36 77 1
0.64800268 -0.03897417 0.16829014 62 97 17
0.64567703 -0.04202849 0.16864301 80 130 0
0.67891270 -0.02857245 0.16069679 116 162 14
0.66689509 -0.03182954 0.16816352 100 125 85
0.66341722 -0.02807619 0.16060711 39 77 2
0.67693788 -0.02412149 0.16622858 121 146 89
0.66124249 -0.03577645 0.16484945 59 92 49
0.64119017 -0.04755277 0.17456765 63 119 22
0.64553082 -0.04289453 0.17070593 72 124 24
0.64048982 -0.04243606 0.16851480 69 114 33
0.65205967 -0.03748187 0.17189646 70 102 27
0.63884068 -0.04842676 0.17483464 56 109 21
0.65301859 -0.03806859 0.16320893 58 93 13
0.65605432 -0.03743186 0.16447285 55 94 5
0.65079898 -0.03986783 0.16845992 65 107 23
0.68393821 -0.02265910 0.16471224 113 146 65
0.67348593 -0.02673889 0.16325776 14 57 1
0.67163169 -0.03011049 0.16693199 89 115 70
0.66523999 -0.03298558 0.16760966 42 70 22
0.66508824 -0.02693551 0.16261628 20 56 0
0.68628705 -0.02120548 0.16403230 129 162 73
0.67704368 -0.03299629 0.16225335 81 95 78
0.57986480 -0.08668213 0.17439491 70 104 27
0.59856868 -0.08000340 0.17953007 145 195 100
0.59510547 -0.08339895 0.17913608 147 195 96
0.58452225 -0.09066667 0.17788583 113 158 63
0.61865371 -0.06275968 0.17866349 114 166 84
0.61646742 -0.06395862 0.17874470 137 186 104
0.62665910 -0.06134662 0.18127541 121 177 76
0.59791768 -0.09404734 0.17660049 144 182 17
0.60111785 -0.09231963 0.17751375 82 120 0
0.63421798 -0.04737250 0.17260471 69 116 35
0.56636375 -0.10342027 0.16321410 112 122 113
0.62423003 -0.05838883 0.17861964 97 149 67
0.62555248 -0.06054898 0.18029636 120 171 78
0.59448004 -0.07065415 0.17144577 94 122 71
0.59408998 -0.07075508 0.17292441 134 167 80
0.61648983 -0.06216194 0.17893173 118 167 88
0.58427751 -0.09227987 0.17053826 103 168 2
0.58419579 -0.09307528 0.17097564 127 188 23
0.53084528 -0.14076824 0.12650560 61 90 23
0.52980256 -0.14210732 0.12409968 75 98 10
0.59615558 -0.07035074 0.17860542 94 151 38
0.55224681 -0.12083223 0.16340092 62 107 2
0.60559171 -0.05959449 0.18170717 134 159 76
0.57368481 -0.09257086 0.17507453 118 150 51
0.61260319 -0.06947710 0.17939678 113 167 73
0.61364567 -0.07212601 0.17979765 108 165 62
0.59509468 -0.10005834 0.17955659 107 131 35
0.57935888 -0.09079348 0.16946651 111 131 78
0.60382760 -0.06822930 0.18138897 84 135 32
0.58277601 -0.08594196 0.17188558 108 132 96
0.59036463 -0.09918045 0.17952551 123 176 32
0.58761102 -0.08084871 0.17381380 61 91 41
0.60939586 -0.07083403 0.17942356 120 170 75
0.60871994 -0.07553717 0.17938526 108 164 57
0.57034081 -0.09451460 0.17669629 109 152 44
0.57475311 -0.09653856 0.17671350 105 146 40
0.57871419 -0.09607617 0.17620613 104 145 49
0.56884736 -0.09756089 0.17482659 93 140 24
0.57611102 -0.08938523 0.17512847 127 162 44
0.56573915 -0.10118425 0.17169125 104 150 28
0.60007340 -0.06446413 0.17961870 125 172 42
0.62939543 -0.06537434 0.18268700 124 171 13
0.54432982 -0.12773430 0.14924762 113 148 46
0.62439281 -0.06428623 0.17531732 97 161 4
0.61758196 -0.07245182 0.17876722 117 169 71
0.62027323 -0.06871728 0.18066524 109 163 67
0.59406567 -0.09808629 0.18141602 68 97 15
0.59172928 -0.08290415 0.17941703 129 181 81
0.60958701 -0.05590865 0.17879543 128 170 44
0.60950166 -0.05815290 0.17583129 116 146 56
0.59780270 -0.08993972 0.17991918 119 181 58
0.55658698 -0.11907430 0.16242230 67 109 1
0.55848491 -0.11474463 0.16328323 50 89 8
0.55861747 -0.11303551 0.16487220 58 95 0
0.61697936 -0.05645987 0.17907599 98 144 72
0.62942666 -0.05367993 0.17757167 90 139 57
0.62427962 -0.05710902 0.17793387 118 167 88
0.56906813 -0.09721248 0.17049441 168 195 98
0.62147850 -0.07096383 0.17886838 193 213 114
0.61666328 -0.07467150 0.17741847 135 163 53
0.59971410 -0.09411655 0.17927891 90 103 21
0.53065389 -0.14138730 0.12832262 48 87 8
0.58089870 -0.08325779 0.17756113 99 139 42
0.63136530 -0.05076011 0.17440750 86 135 54
0.63342857 -0.04966310 0.17461494 89 136 55
0.60009891 -0.07647302 0.17983489 96 145 56
0.56747383 -0.10390791 0.17139977 119 162 46
0.60350776 -0.06731731 0.18144785 109 159 62
0.54745674 -0.12468669 0.15610386 92 132 17
0.60711765 -0.05767673 0.17891647 131 166 62
0.54724121 -0.12559552 0.15400879 103 139 29
0.55703223 -0.11470865 0.16660389 89 127 26
0.60598522 -0.08240647 0.17832275 79 139 43
0.60053134 -0.08844362 0.17806351 118 171 67
0.61543119 -0.05189806 0.17531134 114 147 94
0.53864884 -0.13262780 0.13754702 71 106 22
0.59147853 -0.07923625 0.17925239 114 167 59
0.60428929 -0.07175676 0.18067695 87 138 45
0.61088610 -0.06729478 0.17986608 123 175 90
0.54935163 -0.12336345 0.15926029 116 158 48
0.54896712 -0.12478924 0.15404585 98 135 42
0.61453241 -0.05359041 0.17753264 85 125 62
0.61398363 -0.05578548 0.17929037 101 144 73
0.56667972 -0.10004820 0.16649771 138 172 78
0.58220679 -0.09801902 0.17714147 156 197 79
0.58082682 -0.09935170 0.17660595 165 203 90
0.59488571 -0.07413765 0.17921622 118 174 47
0.63815361 -0.05001603 0.17626996 69 124 23
0.55352074 -0.12062104 0.16069713 78 117 11
0.53550833 -0.13679920 0.12963408 91 116 59
0.61350733 -0.06167044 0.18010986 96 146 59
0.60105318 -0.06347296 0.17999703 113 156 40
0.60699707 -0.05989386 0.18046106 133 165 90
0.56306022 -0.10121379 0.16938591 102 137 43
0.62344712 -0.05627026 0.17683068 104 150 75
0.62542701 -0.05481958 0.17611741 102 148 75
0.55683392 -0.11800592 0.16320680 94 130 32
0.61160094 -0.05606351 0.17434984 135 162 91
0.53996909 -0.13187072 0.14485194 110 157 65
0.54306161 -0.13150819 0.14845370 98 142 47
0.57003582 -0.10083923 0.17362890 113 157 36
0.62396157 -0.06912244 0.18033102 118 124 88
0.57022160 -0.09981310 0.16506086 112 140 79
0.57605386 -0.09696098 0.16777676 124 175 38
0.57843465 -0.08631403 0.17984143 77 121 32
0.59512031 -0.09036843 0.17950219 147 207 60
0.58851570 -0.09559996 0.17871824 151 202 63
0.58951992 -0.07606891 0.17646728 115 167 56
0.53880918 -0.13189501 0.14115682 32 75 0
0.58699059 -0.09089325 0.17806336 151 196 95
0.58486044 -0.09201635 0.17768101 117 161 66
0.58032191 -0.09241030 0.16969956 110 140 52
0.54414636 -0.13134336 0.14979030 95 139 42
0.62194717 -0.07213007 0.17688172 121 172 5
0.59099501 -0.09525732 0.17986664 141 195 49
0.57877463 -0.09165609 0.17841493 126 176 45
0.57719892 -0.09031287 0.17130661 132 152 99
0.56271476 -0.10844922 0.16219901 38 64 16
0.55821609 -0.11666948 0.16200271 33 71 0
0.60383290 -0.06257638 0.18267243 111 164 48
0.59889555 -0.08595910 0.17982577 109 169 47
0.60215998 -0.08219852 0.17968953 104 163 53
0.56552637 -0.10775706 0.16140532 139 128 124
0.62855846 -0.06757012 0.18170725 129 169 10
0.57995874 -0.08426397 0.17641684 94 125 49
0.59847164 -0.06694981 0.17548594 144 177 90
0.56491345 -0.10435420 0.17083554 131 171 57
0.59226412 -0.08558147 0.17888220 150 197 103
0.47591159 -0.18168578 0.19404854 198 216 68
0.47599059 -0.18393478 0.19838803 157 188 50
0.45174599 -0.21377279 0.20650086 130 167 2
0.47947872 -0.19307834 0.19357561 87 124 0
0.50024092 -0.16332461 0.16514884 212 235 85
0.46495456 -0.19560425 0.21411069 143 168 14
0.48483157 -0.19801156 0.19343880 132 158 0
0.45811138 -0.20823301 0.20736317 96 127 7
0.47444600 -0.18254527 0.18991421 157 179 34
0.45530981 -0.20138860 0.21744518 152 182 48
0.46258917 -0.19610550 0.21619692 149 180 53
0.48399717 -0.18010904 0.18821841 172 203 65
0.48632681 -0.17888463 0.18554105 164 199 53
0.46956849 -0.19031957 0.20648363 157 181 9
0.47396728 -0.18670397 0.19912341 136 167 3
0.48026264 -0.19187136 0.19125602 82 116 0
0.46791670 -0.18634292 0.19969130 199 220 53
0.46876287 -0.18601230 0.19967093 186 209 41
0.50571382 -0.16216114 0.15994622 122 145 2
0.47365311 -0.19788297 0.19843739 130 161 6
0.47278762 -0.18852608 0.20400976 160 191 36
0.47686657 -0.18865204 0.19972676 135 170 26
0.50116509 -0.16410385 0.16571358 197 223 72
0.48119137 -0.19740126 0.19389486 145 175 0
0.45691305 -0.21028636 0.20640583 140 177 1
0.44582424 -0.22536281 0.20984967 139 179 5
0.44195223 -0.21927439 0.20914297 188 222 11
0.47710893 -0.18665417 0.18943578 175 203 20
0.47735462 -0.18756595 0.18616979 146 177 0
0.47516352 -0.18253660 0.18574075 80 104 0
0.45450816 -0.20677628 0.21179602 135 166 0
0.45663777 -0.20832063 0.20937216 100 132 9
0.47674242 -0.19079898 0.19360405 96 132 0
0.47680396 -0.18863413 0.19568545 146 173 8
0.44635716 -0.20741417 0.21462487 192 215 10
0.46031928 -0.20332646 0.21037930 158 190 53
0.46523416 -0.20107180 0.20825070 142 178 30
0.45816556 -0.21308754 0.20345068 127 153 0
0.46952349 -0.20713015 0.19257769 101 132 0
0.50063598 -0.18253380 0.17798188 152 181 11
0.50441211 -0.17814557 0.17093593 125 159 0
0.47971714 -0.18042494 0.18158597 133 158 5
0.48009983 -0.18023197 0.18119846 133 157 7
0.46687409 -0.19928204 0.20536052 128 160 14
0.47397721 -0.19546954 0.20010599 101 138 9
0.46904787 -0.19747864 0.20422338 116 148 2
0.44580594 -0.21020132 0.21367204 201 225 7
0.45269307 -0.20570251 0.21329005 161 185 1
0.49645901 -0.17201458 0.17416377 171 205 48
0.49566799 -0.17515799 0.17639421 141 181 23
0.49942896 -0.17151551 0.17182453 145 183 22
0.48550224 -0.18485963 0.18938904 129 174 31
0.48375678 -0.18347971 0.19034676 162 209 45
0.44542435 -0.22554579 0.21001238 134 173 6
0.49097386 -0.18324092 0.18386315 149 186 91
0.49523747 -0.17575835 0.17701168 140 179 24
0.45431873 -0.20408055 0.21549684 171 196 66
0.46958664 -0.20279229 0.19961192 122 158 8
0.46120113 -0.20863400 0.20486814 138 174 2
0.45808339 -0.20272380 0.21172218 141 162 0
0.46128067 -0.20034181 0.21188857 154 172 10
0.46923554 -0.20138007 0.20116171 140 174 17
0.47112727 -0.19728029 0.20200928 78 114 0
0.46671239 -0.20215192 0.20351258 95 128 0
0.47323114 -0.20405851 0.19720642 115 147 4
0.46666068 -0.20815955 0.19445156 107 140 7
0.46550542 -0.20864511 0.19238694 91 123 0
0.46305773 -0.21083099 0.20106480 83 107 0
0.46971908 -0.19280045 0.20724015 165 188 20
0.46691522 -0.19606711 0.20839329 120 146 0
0.46485284 -0.19527669 0.21116512 108 134 1
0.44246903 -0.22248662 0.20882860 177 209 20
0.48485482 -0.17605452 0.17216547 111 144 0
0.48189461 -0.17968991 0.18347329 163 177 6
0.48281577 -0.17975388 0.18389618 162 179 3
0.47931886 -0.18176752 0.19339414 155 184 44
0.47841400 -0.18322621 0.19521485 182 214 68
0.46187487 -0.19686656 0.21595865 169 193 73
0.48740813 -0.19357257 0.19268602 157 188 6
0.46437806 -0.20758323 0.20571041 145 181 93
0.47028157 -0.20491546 0.20158063 104 140 44
0.46503878 -0.20945787 0.20524724 117 155 56
0.44366741 -0.21184596 0.21311525 210 234 14
0.44618255 -0.21381280 0.21167088 156 191 3
0.44362679 -0.21743491 0.20995350 131 164 25
0.49189639 -0.18361984 0.18366742 155 193 90
0.49415421 -0.18060829 0.18032631 147 183 85
0.49706879 -0.17955601 0.17822610 158 197 88
0.45628101 -0.21644428 0.20160004 111 151 0
0.47587088 -0.19688347 0.19806631 147 181 95
0.47497264 -0.19485511 0.19936952 117 156 37
0.48944068 -0.17583029 0.17974009 148 183 19
0.48803392 -0.17465436 0.17628130 183 202 32
0.49498603 -0.16985537 0.17251174 197 225 65
0.49693239 -0.16694131 0.16854684 210 235 71
0.46695739 -0.19155106 0.21215205 142 189 49
0.48744798 -0.17409500 0.17372437 204 225 62
0.48633805 -0.17481805 0.17307235 148 180 9
0.45532000 -0.20344380 0.21344545 176 195 17
0.45657718 -0.21647784 0.20133781 127 167 8
0.46724570 -0.19360350 0.21274982 174 210 24
0.46809530 -0.19247369 0.21132724 176 210 36
0.47355148 -0.19371255 0.20156643 139 174 22
0.47037148 -0.19612905 0.20553230 135 168 15
0.46631917 -0.20059896 0.20646921 136 168 43
0.46020588 -0.20706159 0.20590553 105 137 4
0.47311237 -0.20338422 0.19965447 116 149 44
0.46961614 -0.20077653 0.20219906 149 181 96
0.49977604 -0.16662171 0.16671818 198 214 81
0.49644175 -0.16910121 0.16873012 213 228 87
0.49646285 -0.16854474 0.16840069 204 218 83
0.47364762 -0.19149002 0.20220244 139 168 2
0.48371917 -0.19049345 0.18586420 85 117 0
0.46362266 -0.21087243 0.20261951 121 148 9
0.47528064 -0.18181130 0.18543608 83 110 3
0.47562283 -0.18158324 0.18621151 97 122 2
0.46353960 -0.21017443 0.19931982 137 167 7
0.46480596 -0.21128018 0.19560988 93 111 9
0.46632177 -0.20984454 0.19367990 102 124 23
0.47198018 -0.20759474 0.19282089 114 139 12
0.46295828 -0.21326281 0.19879802 119 144 27
0.47420043 -0.20357507 0.19644980 109 142 0
0.50459898 -0.16942544 0.16421324 125 160 6
0.50288844 -0.16735829 0.16552348 153 185 24
0.46892732 -0.18702075 0.20226063 141 174 23
0.50636005 -0.17487353 0.16650994 136 169 20
0.50618410 -0.17609829 0.16763784 126 159 8
0.50295562 -0.17323509 0.16878088 165 199 50
0.48744205 -0.17751510 0.18245620 152 183 17
0.48072428 -0.20036630 0.19452813 125 153 0
0.47252753 -0.20539917 0.19718523 83 110 0
0.46898234 -0.18764338 0.20144106 189 204 51
0.47196335 -0.18541685 0.19833344 192 212 53
0.48620212 -0.19211933 0.18917537 138 174 4
0.38167036 -0.28081611 0.16814291 110 135 18
0.38189873 -0.27989158 0.17001486 121 143 32
0.41525972 -0.22864200 0.20040828 168 200 27
0.42534354 -0.24919522 0.21011032 121 165 0
0.37817836 -0.28238848 0.16165547 155 167 83
0.40577051 -0.25253564 0.20327954 143 184 30
0.38336042 -0.27798378 0.18153143 136 182 13
0.41295362 -0.25517237 0.20547730 133 180 14
0.37026468 -0.27863014 0.16499016 91 128 25
0.37135884 -0.27960244 0.16189674 73 95 31
0.38908052 -0.24788007 0.21326542 74 103 13
0.43580359 -0.21146014 0.20984963 168 205 4
0.38359332 -0.28138450 0.17446369 125 149 13
0.38307732 -0.27818051 0.17344147 114 147 30
0.43062726 -0.21222025 0.20981860 173 204 48
0.36531135 -0.27735171 0.16496330 85 119 25
0.39014402 -0.28237513 0.19510338 80 125 0
0.39135763 -0.24399246 0.20592105 108 126 18
0.40549058 -0.26457596 0.20657705 141 189 9
0.40443906 -0.26162219 0.20620742 131 178 14
0.38389701 -0.28644422 0.17748927 79 119 4
0.36441264 -0.27041018 0.17283498 114 143 50
0.40892139 -0.25891319 0.20646973 108 156 0
0.37389132 -0.29574454 0.15981345 91 115 1
0.38864905 -0.27115521 0.19426125 133 183 8
0.42821574 -0.22911529 0.20361538 163 195 6
0.43285227 -0.23064215 0.20594051 128 154 1
0.38686556 -0.27189523 0.19293204 135 186 3
0.38400346 -0.27880538 0.19177020 157 178 0
0.41644207 -0.23465419 0.20142300 190 198 1
0.37042093 -0.29651561 0.15080272 85 118 14
0.36677295 -0.28891799 0.15178148 78 112 17
0.38913742 -0.23872063 0.21293883 97 119 11
0.37846863 -0.28738981 0.15795466 217 231 96
0.39942807 -0.26090530 0.20558037 125 174 33
0.38083702 -0.25617003 0.19270992 94 119 18
0.41593018 -0.24972756 0.20361342 96 136 4
0.42440110 -0.21984375 0.20266904 145 190 3
0.43936566 -0.21353425 0.21160004 186 212 1
0.43784791 -0.21171774 0.21135849 168 207 2
0.42752311 -0.21862665 0.20576347 146 180 8
0.38001946 -0.28681383 0.16764781 144 177 36
0.41904938 -0.22619195 0.20564614 145 187 51
0.41533533 -0.26581007 0.20500234 103 138 20
0.42442220 -0.22725789 0.20156465 179 211 12
0.40107989 -0.23571213 0.20383734 89 121 20
0.38714838 -0.26405415 0.18764021 113 146 39
0.38657898 -0.26075870 0.18718693 97 110 64
0.38332468 -0.28957501 0.17237280 80 110 14
0.38336438 -0.28856960 0.17365555 80 110 10
0.42621964 -0.21790238 0.20403469 158 192 80
0.38828242 -0.25897196 0.19083944 83 104 61
0.38742143 -0.25785530 0.19150048 131 149 65
0.39252874 -0.26019260 0.19389373 103 123 60
0.39257038 -0.25747654 0.19799565 196 220 106
0.39072511 -0.25621793 0.19773206 60 87 16
0.38991135 -0.24003972 0.20996489 96 114 4
0.41494292 -0.23086812 0.21047795 153 191 46
0.41407850 -0.23785730 0.20053360 202 218 21
0.38219488 -0.27137914 0.18468718 176 219 5
0.42044845 -0.22402178 0.19944467 132 171 2
0.43037030 -0.23676619 0.20527567 123 157 8
0.41976118 -0.24467152 0.20333605 145 182 17
0.37825903 -0.26710317 0.17834231 94 117 35
0.42579818 -0.24332964 0.20598820 114 159 4
0.42163339 -0.25609669 0.20470029 126 171 10
0.38160118 -0.26091233 0.19682607 97 145 27
0.38431576 -0.26034638 0.19885945 149 200 35
0.41728687 -0.22979982 0.21122745 163 202 35
0.42587090 -0.22327736 0.21019620 148 184 36
0.42649218 -0.22258288 0.20981055 145 182 24
0.41403398 -0.26066539 0.20378372 110 155 12
0.37335607 -0.28655905 0.15545465 82 95 39
0.38884124 -0.24120028 0.21327090 107 126 18
0.41149524 -0.25851387 0.20598231 119 164 11
0.39300793 -0.23761278 0.20567550 177 188 34
0.37716773 -0.25495243 0.19309697 164 191 86
0.38602024 -0.28401747 0.18725663 110 159 8
0.37628612 -0.26624179 0.17784038 108 133 39
0.37277499 -0.26986223 0.17441994 94 124 26
0.37175214 -0.27326491 0.17419182 91 118 13
0.37309191 -0.26852331 0.17452736 107 135 32
0.36454320 -0.26882455 0.17420392 157 169 93
0.38129738 -0.25194326 0.20639467 82 128 0
0.38122666 -0.25173196 0.20668788 80 127 0
0.38551638 -0.28524980 0.18214534 69 113 0
0.38181716 -0.27423829 0.17720114 105 139 18
0.42022133 -0.22432062 0.20507990 151 197 47
0.41509846 -0.23339984 0.20107439 167 180 0
0.36550239 -0.29309261 0.15105607 78 107 27
0.38238683 -0.26228973 0.18378709 138 175 72
0.38199973 -0.27485701 0.18114129 101 143 0
0.43101728 -0.21145777 0.20765597 125 173 1
0.43302569 -0.20783024 0.21070664 140 173 58
0.36491007 -0.27358884 0.16897890 99 136 20
0.36712345 -0.26661971 0.18083638 67 115 16
0.38745967 -0.26772526 0.19048485 176 213 21
0.38879240 -0.26666388 0.19145468 188 226 29
0.42094472 -0.22930682 0.20114024 169 191 2
0.36379963 -0.28933978 0.15703931 85 119 43
0.39344722 -0.26373681 0.19748820 102 138 14
0.39164957 -0.26525080 0.19541129 126 167 29
0.37736699 -0.25171596 0.19875076 184 207 116
0.36461413 -0.26734716 0.17818862 166 199 84
0.36995488 -0.26470312 0.17809601 100 120 51
0.41031966 -0.23032372 0.20386729 152 184 73
0.37174478 -0.28063616 0.16049483 78 93 52
0.38643396 -0.28328249 0.19038565 113 159 11
0.40917942 -0.23801470 0.20243481 145 177 4
0.36033028 -0.28026170 0.16495760 69 102 11
0.41007641 -0.24815403 0.20227620 153 182 0
0.37228176 -0.28619123 0.15522498 112 131 49
0.42388013 -0.24853620 0.20670626 126 167 3
0.36807606 -0.28643143 0.15443908 74 112 25
0.37238267 -0.29104561 0.15216850 99 123 37
0.38190201 -0.24774021 0.20526747 90 117 50
0.40165547 -0.24692047 0.20433228 158 197 10
0.41289124 -0.22748794 0.20137319 107 118 58
0.42406383 -0.21891961 0.20247260 145 179 59
0.42750672 -0.22407199 0.20438814 174 201 2
0.42908770 -0.22340038 0.20512971 195 214 11
0.36219728 -0.28364992 0.16177374 70 110 22
0.42892468 -0.23747973 0.20504995 95 131 0
0.39887634 -0.25006440 0.20536526 149 192 27
0.37202296 -0.29676294 0.15413944 59 91 0
0.36565071 -0.28443047 0.15814091 76 110 26
0.41386983 -0.24684326 0.20184492 159 189 7
0.38167781 -0.27446583 0.18507762 135 181 0
0.40200862 -0.25235924 0.20489497 106 144 23
0.39158350 -0.26940727 0.19792373 116 163 9
0.36270696 -0.27107647 0.18163861 101 156 39
0.41582745 -0.25136280 0.21100357 149 203 57
0.41294426 -0.25623646 0.21023907 120 172 38
0.40864137 -0.23073752 0.20741092 146 191 48
0.37840119 -0.27734351 0.16888981 81 97 9
0.37803674 -0.27657282 0.16936192 104 120 49
0.40399793 -0.23222858 0.20851485 111 157 35
0.40059179 -0.23291172 0.20944984 129 181 18
0.42908370 -0.21486595 0.20748001 141 177 45
0.40359202 -0.24702978 0.20406391 161 195 12
0.42097324 -0.25066108 0.20539410 105 146 0
0.41858563 -0.25138381 0.21124737 146 201 48
0.41378847 -0.25594971 0.21032979 136 188 51
0.37534454 -0.27660498 0.16889293 97 107 70
0.36759493 -0.26625052 0.17589076 97 125 23
0.39259830 -0.24039473 0.21488178 164 216 45
0.39766195 -0.24783368 0.20418166 161 206 17
0.38184428 -0.24654001 0.20350769 168 186 50
0.42092016 -0.24739231 0.20509382 115 156 0
0.38310173 -0.27593675 0.18980454 129 166 1
0.36708418 -0.29750299 0.15027356 61 92 0
0.36397988 -0.29444897 0.15150177 69 103 16
0.38287076 -0.28217927 0.18206267 60 104 0
0.39314950 -0.23461013 0.21178161 94 121 8
0.37889177 -0.25499016 0.20033175 97 146 5
0.37738159 -0.25590736 0.19892940 85 131 0
0.37758696 -0.25589126 0.19903348 93 139 5
0.39142162 -0.24546717 0.20689002 90 108 24
0.39794028 -0.24572696 0.20305605 132 171 4
0.42072621 -0.25982627 0.20584923 135 151 102
0.37078106 -0.28194600 0.15913484 121 143 70
0.40101451 -0.23381306 0.21138681 122 180 33
0.38315102 -0.26923946 0.18440346 136 179 1
0.42304838 -0.23253973 0.20313272 178 199 10
0.42599225 -0.23292546 0.20368609 117 152 0
0.41793713 -0.25915337 0.20838161 125 175 54
0.41860861 -0.26007792 0.20758389 125 172 58
0.42212117 -0.25857088 0.20754768 126 175 50
0.39972323 -0.24154744 0.21425156 150 200 49
0.42812976 -0.21776605 0.20657484 171 204 61
0.37658063 -0.29016069 0.15513679 129 142 62
0.40543509 -0.23984124 0.20228072 134 168 9
0.39119852 -0.27486312 0.19735326 129 173 0
0.37312636 -0.26477200 0.18643226 85 133 34
0.37436655 -0.26221469 0.18732496 93 130 27
0.37691414 -0.25455713 0.19900253 73 121 1
0.37775198 -0.26359078 0.19202805 99 146 16
0.37360898 -0.26287648 0.18526191 111 154 46
0.38251522 -0.25376576 0.19621187 190 214 40
0.38737053 -0.25439960 0.19554599 153 184 46
0.39157644 -0.24974285 0.20151976 126 152 61
0.43212861 -0.21164387 0.20724519 126 173 0
0.39396262 -0.25275776 0.20269665 89 112 42
0.38844380 -0.24776460 0.20353399 120 151 34
0.38657421 -0.25460649 0.19470645 101 134 27
0.38657945 -0.25406149 0.19525465 135 167 32
0.39939621 -0.24236451 0.20171189 100 134 13
0.42984286 -0.21714458 0.20705678 163 195 0
0.43100414 -0.22066355 0.20666592 168 200 3
0.39931861 -0.23618490 0.20405883 108 137 29
0.41215944 -0.24063882 0.20156953 188 221 8
0.42299119 -0.25485763 0.20816699 141 188 50
0.40906262 -0.26460466 0.20681754 158 199 7
0.38027421 -0.28479144 0.16961749 114 144 14
0.38133574 -0.28239039 0.16535936 101 137 13
0.37525779 -0.26065710 0.18387747 75 104 0
0.41859096 -0.23593760 0.20217076 206 218 14
0.42055511 -0.23412986 0.20279185 182 205 1
0.36249927 -0.27114719 0.17222066 120 149 43
0.36213174 -0.27191621 0.17153831 125 152 45
0.42393950 -0.23460025 0.20355453 114 148 0
0.41384742 -0.23739403 0.20057163 194 211 17
0.41085580 -0.23110728 0.19987133 170 198 35
0.42537278 -0.21851569 0.20322557 145 182 6
0.41617987 -0.26303190 0.20254076 112 162 11
0.41262123 -0.26220718 0.20828338 141 192 71
0.38384071 -0.25645179 0.19120789 114 131 60
0.38309455 -0.25724372 0.18920977 93 112 48
0.40911233 -0.23290038 0.21206339 160 204 33
0.38450763 -0.27090278 0.18917553 172 216 31
0.39473024 -0.23399468 0.20987643 122 145 5
0.36318588 -0.28618890 0.16193581 56 92 20
0.37126115 -0.29455724 0.15013333 69 94 0
0.37055135 -0.29519126 0.14968526 61 94 0
0.37872615 -0.26213205 0.18191832 102 118 55
0.39167202 -0.24044107 0.20454541 174 191 37
0.38083562 -0.28502494 0.17366630 75 112 0
0.39030221 -0.24174850 0.21073852 118 144 21
0.37166837 -0.26447994 0.17787817 122 144 36
0.41627729 -0.25930110 0.20363396 117 163 3
0.40799770 -0.25468972 0.20487125 104 154 7
0.42108905 -0.24991779 0.21165061 160 213 47
0.41045365 -0.26892707 0.20591038 98 135 0
0.45009768 -0.22954151 0.20863979 162 190 7
0.44082090 -0.24318299 0.21754371 100 113 25
0.48794645 -0.20098802 0.18951602 160 185 39
0.39344028 -0.26896551 0.20022483 125 163 0
0.43222681 -0.24569681 0.21006203 181 207 22
0.43149984 -0.24530199 0.20966592 157 181 9
0.42766967 -0.24734156 0.20933627 131 167 0
0.38988650 -0.26254043 0.19985850 121 159 58
0.38679999 -0.26448733 0.19748461 114 159 56
0.44665456 -0.23625365 0.21615759 146 181 51
0.49011385 -0.19237763 0.18241480 142 176 4
0.49097008 -0.19359459 0.19147575 192 218 69
0.49124014 -0.19260390 0.19061996 178 207 63
0.39854163 -0.25790629 0.20390558 81 119 6
0.47025526 -0.20841691 0.19954424 99 125 16
0.47403529 -0.20511070 0.19843255 109 134 30
0.43038067 -0.22711203 0.21376239 162 202 90
0.44457647 -0.22968298 0.20979103 159 190 8
0.50043380 -0.18856256 0.17698894 123 154 17
0.50106829 -0.18824364 0.17580253 111 142 4
0.49993956 -0.18388925 0.17945437 146 179 10
0.44104567 -0.23022297 0.21002907 144 180 10
0.39408752 -0.25661868 0.20666501 140 189 46
0.39059621 -0.25540778 0.20631166 158 206 32
0.38871017 -0.25157389 0.21077073 111 157 23
0.46675164 -0.21001706 0.20331566 76 106 10
0.45955777 -0.21536960 0.20727353 114 146 45
0.46174875 -0.21481223 0.20397349 98 126 26
0.49054655 -0.19318041 0.18573248 141 168 0
0.49078813 -0.18894982 0.18813676 168 210 66
0.49041611 -0.19180237 0.19038606 178 212 63
0.39963222 -0.25636047 0.20575824 84 128 7
0.43515280 -0.22683458 0.20722601 156 187 24
0.44609874 -0.23768778 0.21626464 130 158 13
0.43584448 -0.24598490 0.21164037 145 180 16
0.48740029 -0.19577324 0.19290622 167 192 62
0.47907203 -0.20122103 0.19673385 142 173 44
0.48580447 -0.20139056 0.19140948 150 177 36
0.44087273 -0.23927565 0.21214421 144 172 9
0.39357901 -0.27369019 0.20535825 176 227 60
0.40165272 -0.27435157 0.20793484 158 173 68
0.43687236 -0.23994389 0.21052623 139 173 1
0.44498521 -0.23764013 0.21424422 141 173 14
0.39746970 -0.24731143 0.21265985 165 212 54
0.39707428 -0.25315198 0.20861700 132 177 48
0.45399931 -0.22430748 0.20642443 139 176 0
0.45456195 -0.22139724 0.20578772 134 177 0
0.39509237 -0.27469066 0.19935840 112 156 0
0.39312798 -0.27199224 0.20436460 118 170 44
0.39642483 -0.27468076 0.19985548 136 177 13
0.40329668 -0.26786795 0.20448074 111 154 2
0.39989072 -0.26783285 0.20392871 161 199 15
0.39727330 -0.27628615 0.20090103 161 192 10
0.39703688 -0.27036354 0.20175676 123 165 5
0.43522471 -0.23930274 0.20936389 155 193 12
0.43391672 -0.23736082 0.20753764 144 182 0
0.39830974 -0.26376191 0.20456792 138 177 8
0.41012186 -0.26886353 0.20573799 99 140 0
0.38930318 -0.24712791 0.21310666 139 188 45
0.39298880 -0.24384069 0.21429834 156 217 52
0.38761362 -0.24571565 0.21344540 113 132 25
0.43254557 -0.23932146 0.21681722 191 240 50
0.41582754 -0.24105933 0.21209192 160 204 91
0.41932330 -0.23680930 0.21259250 146 192 84
0.41856977 -0.23221210 0.21289974 175 212 70
0.41680646 -0.23490377 0.21260598 194 231 73
0.41468051 -0.24494269 0.21195762 143 194 53
0.42060453 -0.24211754 0.21304461 157 207 48
0.39230976 -0.28061166 0.19690819 124 161 3
0.43893087 -0.22492260 0.21509163 168 204 106
0.42630410 -0.23909092 0.21409330 156 206 57
0.43100649 -0.23012781 0.21447060 167 206 99
0.42944518 -0.23001193 0.21405390 172 212 116
0.43799287 -0.22742380 0.20927648 106 136 0
0.44620189 -0.22340865 0.21413198 143 187 76
0.44124505 -0.22681352 0.21575736 156 201 84
0.44293383 -0.21410426 0.21408625 148 189 71
0.42612579 -0.24346142 0.21383280 146 200 44
0.42840135 -0.24387956 0.21456942 172 223 40
0.48177174 -0.19835371 0.19550943 148 181 50
0.39471701 -0.26415050 0.20007236 89 133 10
0.43586898 -0.24866417 0.21213818 113 147 0
0.40381667 -0.25316894 0.20764168 140 192 56
0.40871528 -0.24696095 0.21129303 152 198 89
0.40649423 -0.24816623 0.21076351 143 190 78
0.40166831 -0.25438324 0.20709558 143 192 66
0.40823597 -0.24902573 0.20991613 152 203 74
0.43381342 -0.22042218 0.21393290 161 201 79
0.43350497 -0.22082905 0.21389192 161 199 77
0.43159458 -0.22907315 0.21442494 168 204 104
0.44401452 -0.23761091 0.22069360 157 202 49
0.43279275 -0.24922973 0.21277463 192 209 115
0.43435150 -0.24939916 0.21246153 124 159 3
0.44110781 -0.23617323 0.22083215 160 212 42
0.43571484 -0.24528475 0.21745190 217 252 98
0.43297955 -0.23939778 0.21713026 188 237 47
0.43814293 -0.21865557 0.21430480 169 209 84
0.43694612 -0.21799378 0.21460102 163 198 82
0.41702038 -0.24647853 0.21190579 144 197 53
0.44148335 -0.24159266 0.22152674 83 94 15
0.43595347 -0.20464195 0.21324147 137 172 46
0.40052041 -0.27206752 0.20213164 122 169 5
0.43567392 -0.23157386 0.21587928 160 203 70
0.43353328 -0.23394430 0.21562958 166 211 56
0.44898081 -0.21672776 0.21267214 159 195 108
0.45086154 -0.21832122 0.21239345 150 195 78
0.44931391 -0.21197578 0.21317825 152 191 76
0.44042212 -0.24300493 0.21555051 170 185 44
0.44359386 -0.23106137 0.21784124 153 194 53
0.44053331 -0.23334867 0.21954635 163 210 52
0.42639202 -0.22340250 0.21041210 147 189 45
0.42339742 -0.23001274 0.21288183 168 208 59
0.39275369 -0.26712155 0.20198406 125 177 14
0.44581881 -0.20386942 0.21589898 188 222 75
0.44234326 -0.20439561 0.21509761 195 217 70
0.38901022 -0.26921013 0.19770159 103 155 21
0.38880512 -0.26652554 0.19810948 108 157 32
0.44070166 -0.20158540 0.21306932 175 194 43
0.45474824 -0.22449221 0.20828533 77 105 21
0.45158312 -0.23069195 0.20891792 130 166 0
0.45810071 -0.22014453 0.20553109 106 131 27
0.44559240 -0.20236349 0.21527481 182 206 6
0.44355908 -0.20821331 0.21496810 187 212 6
0.45570204 -0.21344194 0.21038868 161 201 104
0.45466688 -0.21038607 0.20993382 129 164 72
0.45905888 -0.20767751 0.20814849 124 156 73
0.43611041 -0.23141971 0.20836696 141 172 17
0.48933271 -0.19977319 0.18994194 138 171 40
0.49033582 -0.19444846 0.19186173 189 213 53
0.44903162 -0.20700334 0.21466692 163 192 52
0.44241640 -0.23354873 0.21919990 175 221 71
0.43984416 -0.20688738 0.21040419 162 198 0
0.43923807 -0.20639603 0.20967658 150 194 0
0.40998521 -0.26254556 0.20928891 130 180 47
0.43309736 -0.21663491 0.21225242 154 191 62
0.40596753 -0.26809448 0.20559689 126 170 0
0.45428452 -0.20798717 0.21171905 147 181 68
0.45268840 -0.21048908 0.21129313 143 180 75
0.38950247 -0.27264091 0.19955610 93 142 24
0.39058620 -0.27141953 0.20067443 96 147 26
0.40553278 -0.26826760 0.20940690 165 220 64
0.43030718 -0.24161687 0.20703328 138 181 6
0.39050362 -0.28197205 0.19760729 123 158 16
0.49794403 -0.19426383 0.18687296 154 176 13
0.49946961 -0.19345248 0.18527082 153 176 23
0.39718249 -0.27873009 0.20431615 129 153 31
0.45629334 -0.21891402 0.21026176 119 156 60
0.45732507 -0.21759787 0.20937841 116 154 53
0.44812417 -0.22935833 0.20907564 184 212 13
0.40050063 -0.26883522 0.20846169 181 233 71
0.42976016 -0.24706116 0.21510892 152 211 43
0.42873403 -0.24618764 0.21444409 156 212 43
0.38648182 -0.25351816 0.20716710 142 188 37
0.49248108 -0.19242416 0.17916425 159 190 11
0.47793359 -0.20552860 0.19382840 146 169 37
0.47609785 -0.20497030 0.19654424 118 144 35
0.49019605 -0.19906758 0.18750824 162 190 43
0.49082658 -0.19833082 0.18726416 147 174 17
0.44563547 -0.23423277 0.20999335 161 193 20
0.43212882 -0.24257761 0.20915334 163 199 15
0.39930466 -0.26298478 0.20616183 165 222 45
0.40733266 -0.26110509 0.20854531 131 185 63
0.40141395 -0.26054394 0.20626159 171 225 41
0.44913563 -0.23135388 0.21461906 118 159 67
0.44827607 -0.23250815 0.21582559 112 152 64
0.44507873 -0.20654039 0.21590441 165 200 72
0.45326933 -0.20520641 0.21498516 159 186 53
0.43698078 -0.21452256 0.21409507 161 194 63
0.43760726 -0.20856710 0.21397565 152 189 58
0.49945089 -0.18772675 0.18140955 154 182 10
0.50022185 -0.18933640 0.17904128 153 183 25
0.40730754 -0.24295782 0.21292886 182 226 41
0.41222590 -0.24322119 0.21192838 147 190 83
0.40902838 -0.23882431 0.21302566 169 209 58
0.40293631 -0.24427941 0.21365353 147 195 47
0.48602891 -0.19120884 0.19130684 159 203 80
0.48044863 -0.19435455 0.19499172 142 177 87
0.41285565 -0.23303542 0.21279003 190 228 65
0.40323249 -0.24091537 0.21391958 179 222 47
0.48446402 -0.18970874 0.19080499 152 193 97
0.47979459 -0.19422430 0.19526930 147 180 99
0.39512020 -0.27602535 0.20642887 170 220 59
0.40568516 -0.25499320 0.20815709 127 181 43
0.40992376 -0.25564986 0.20977628 123 175 41
0.40961236 -0.25614306 0.20961778 130 183 39
0.40809342 -0.25204751 0.20931947 141 197 62
0.39585483 -0.26419610 0.20469908 134 188 32
0.39605069 -0.26327685 0.20466018 120 174 34
0.51625645 -0.13751625 0.06751819 245 231 194
0.51397341 -0.13951661 0.06753335 246 231 202
0.51687914 -0.14455096 0.06573346 237 225 203
0.51886415 -0.14325967 0.06608527 240 228 206
0.52193069 -0.14532979 0.06427868 239 223 197
0.51898724 -0.12230112 0.07376858 253 253 253
0.52703154 -0.15687057 0.05977347 214 205 190
0.52236181 -0.13969274 0.06502844 24 24 14
0.52154839 -0.13657065 0.06529233 20 24 9
0.51547748 -0.12933722 0.07224515 255 248 238
0.51696265 -0.13308756 0.06946935 45 38 30
0.51922077 -0.13771681 0.06704123 10 2 0
0.53703326 -0.15398970 0.06466357 203 184 151
0.54124588 -0.15339439 0.06316610 208 191 165
0.51737732 -0.12416256 0.07345184 252 253 248
0.52290881 -0.12176421 0.07048851 135 131 120
0.52903229 -0.15365387 0.06271316 48 35 19
0.52344799 -0.15036540 0.06170499 233 219 193
0.53423607 -0.15531717 0.06296335 207 187 150
0.53463125 -0.15546273 0.06264948 206 186 151
0.53955841 -0.15697452 0.05931282 216 196 163
0.56059998 -0.12217183 0.15748481 125 161 65
0.54878640 -0.13629717 0.14335811 59 99 10
0.58283061 -0.10097463 0.17009538 162 210 88
0.58078969 -0.10107230 0.16952680 92 137 46
0.57407969 -0.10800225 0.16666122 140 191 98
0.54516566 -0.12978305 0.15283869 95 139 42
0.56813002 -0.11596019 0.16075863 136 184 62
0.58958429 -0.10124024 0.17475682 87 137 2
0.58706164 -0.10165887 0.17309418 150 200 25
0.57193625 -0.10017528 0.16498427 144 192 57
0.55211031 -0.12824823 0.15197061 140 182 20
0.58549225 -0.10335619 0.17228045 134 185 46
0.57689559 -0.10609026 0.16818158 141 192 73
0.57116878 -0.11342942 0.16376930 135 181 56
0.58766943 -0.10050007 0.17680207 129 175 43
0.58515978 -0.09722045 0.17123741 171 215 117
0.54280537 -0.13353372 0.14112802 131 160 78
0.54562384 -0.13609877 0.14290529 104 143 0
0.54390049 -0.13979506 0.13992639 109 147 38
0.57934976 -0.10677104 0.16909401 116 171 17
0.55626440 -0.12186284 0.15897241 180 195 166
0.55696493 -0.12120293 0.16158617 140 182 80
0.56131774 -0.11969789 0.16451108 146 191 72
0.58706844 -0.09638496 0.17197864 129 178 52
0.54071748 -0.13880700 0.13693714 125 149 51
0.56288284 -0.11894925 0.16559455 140 186 62
0.56242990 -0.11554764 0.16567005 155 191 91
0.54335344 -0.13043956 0.14390098 94 126 41
0.57110691 -0.10444708 0.17201856 101 135 38
0.56750184 -0.11927155 0.16535641 148 186 67
0.54666209 -0.13457586 0.14488246 78 118 0
0.59277272 -0.09916148 0.17641760 113 159 11
0.55410492 -0.12337092 0.15723269 170 189 144
0.54841882 -0.13052823 0.14974907 113 155 9
0.55453241 -0.12182036 0.15975553 117 157 61
0.57027453 -0.10876960 0.16251001 143 199 46
0.57675540 -0.10671636 0.17278489 134 174 39
0.53965092 -0.13844573 0.13631591 90 113 43
0.54143560 -0.14230640 0.13577709 120 150 38
0.53329474 -0.13915837 0.13222706 58 95 17
0.53638786 -0.14093147 0.13455383 69 107 24
0.54652047 -0.13496941 0.14806108 101 142 36
0.54715437 -0.13723865 0.14514937 75 102 25
0.53547436 -0.13727672 0.13625206 58 100 14
0.54002535 -0.13632683 0.14187095 86 123 28
0.53711623 -0.14531210 0.12945957 82 109 30
0.54541856 -0.14003493 0.14103784 71 105 21
0.53614193 -0.13877386 0.12738761 85 98 55
0.57701761 -0.09854244 0.16841207 150 198 34
0.54915559 -0.13446878 0.14905980 74 111 8
0.54174012 -0.13750657 0.14245187 117 154 59
0.55192453 -0.13251559 0.15233579 82 116 21
0.55527079 -0.12917966 0.15698184 116 153 57
0.57301319 -0.11371210 0.16589837 173 217 104
0.54194748 -0.14004746 0.13994080 100 143 35
0.54486239 -0.13251291 0.14470246 98 132 22
0.55189955 -0.12779151 0.15738106 143 188 85
0.54416597 -0.13378339 0.14299539 108 143 27
0.55248761 -0.13080260 0.14966434 99 140 2
0.53581500 -0.14664705 0.12835893 80 111 35
0.58001667 -0.10034817 0.17614545 159 199 84
0.58204013 -0.10019401 0.17675480 149 191 67
0.57710075 -0.10820861 0.17065080 88 125 11
0.58366299 -0.10309330 0.17477117 119 155 31
0.55482954 -0.13043025 0.15238962 135 177 51
0.56325769 -0.11427414 0.15943943 143 169 124
0.56114614 -0.11704828 0.15937564 141 154 134
0.56493515 -0.11970127 0.16602628 144 185 65
0.55076283 -0.13420443 0.14727664 57 92 28
0.56223398 -0.12343648 0.16228268 106 132 31
0.53852320 -0.14235961 0.13523160 86 125 42
0.57344103 -0.10962294 0.17075528 135 172 43
0.57202065 -0.11104979 0.17023879 139 178 51
0.56466007 -0.11270131 0.16736974 147 181 84
0.56699663 -0.11639955 0.16798851 141 186 57
0.53501081 -0.14336592 0.12282066 71 87 24
0.53440958 -0.14523093 0.11936293 133 144 102
0.54717588 -0.13775685 0.20916620 183 207 21
0.56606334 -0.13518828 0.23136486 153 200 26
0.53654188 -0.15455928 0.17738211 151 171 46
0.54956192 -0.13187063 0.22492267 181 215 33
0.57403368 -0.13250743 0.22721788 158 182 46
0.54606974 -0.13165128 0.22115520 131 155 5
0.54089636 -0.13180353 0.21586385 170 205 17
0.52734768 -0.13935691 0.20491509 155 185 3
0.52188796 -0.14476335 0.17578551 102 129 12
0.52575105 -0.14531164 0.17386603 136 161 33
0.52166802 -0.14720303 0.16742338 94 117 11
0.51899016 -0.14824380 0.16816707 119 140 49
0.52661771 -0.14521709 0.18676783 157 177 64
0.53360498 -0.14929092 0.18117628 146 169 1
0.53219992 -0.14845781 0.18075176 164 187 34
0.51449013 -0.14469916 0.18759088 118 144 45
0.51547933 -0.14421263 0.18404205 84 110 11
0.53575408 -0.15166326 0.17748366 111 137 27
0.53628206 -0.13978328 0.21049140 165 195 1
0.53484434 -0.14013381 0.20891832 167 198 8
0.53360945 -0.14934018 0.18096024 146 169 1
0.51488554 -0.14388913 0.19620663 98 126 7
0.51729906 -0.14320540 0.19681668 132 164 37
0.53290641 -0.15009870 0.17174311 104 134 2
0.52719760 -0.14562713 0.17473699 155 177 51
0.52679694 -0.14550516 0.17290226 153 178 51
0.53070140 -0.14658782 0.18655334 174 191 61
0.55165732 -0.14316531 0.20561831 179 202 10
0.53034633 -0.14856257 0.16364622 125 150 33
0.53078896 -0.14887191 0.16162303 114 139 22
0.55469686 -0.13692991 0.22091964 184 212 5
0.56974387 -0.13596413 0.23312052 162 210 40
0.56779373 -0.13088585 0.23202781 131 167 7
0.56143558 -0.13942669 0.22927539 190 229 62
0.54157007 -0.13182758 0.21632993 166 203 0
0.53616774 -0.13594680 0.21290711 174 205 26
0.56483018 -0.13090011 0.23104799 137 174 8
0.52525425 -0.14648820 0.15712145 128 145 39
0.55678785 -0.13715866 0.22002487 175 203 0
0.55964410 -0.14146027 0.21596727 175 199 25
0.52139413 -0.14454095 0.18111987 95 122 15
0.52379608 -0.14485741 0.18210821 94 119 15
0.52624059 -0.14566545 0.13493252 112 133 16
0.54491961 -0.15471184 0.19741051 176 202 5
0.50863039 -0.15508743 0.20994605 110 139 13
0.57467479 -0.13298412 0.22388066 148 170 62
0.54982108 -0.13085069 0.22328402 138 162 22
0.53764325 -0.13707837 0.20387278 191 212 47
0.52687627 -0.14348635 0.19872548 174 203 27
0.53211075 -0.14175291 0.20432927 172 199 22
0.53667235 -0.14778897 0.19300362 180 202 57
0.53498709 -0.14654024 0.19696361 163 185 38
0.53914303 -0.14561155 0.19978741 149 175 14
0.58055586 -0.13775328 0.22224301 99 124 6
0.54085016 -0.15191589 0.19079810 138 158 59
0.55504966 -0.14755885 0.20696345 172 192 17
0.51515812 -0.14907342 0.17615661 88 114 5
0.54383987 -0.13409129 0.21776894 187 214 37
