0.67192858 -0.10959373 -0.36866659 108 107 17
0.67210293 -0.10226854 -0.34229347 155 157 30
0.67469102 -0.09537587 -0.33032769 185 183 13
0.67221695 -0.11113718 -0.37722057 130 128 27
0.67094648 -0.10645433 -0.35120517 140 144 34
0.67065281 -0.10523348 -0.36099342 113 112 29
0.67304760 -0.09616084 -0.33215407 176 178 6
0.67012578 -0.10267913 -0.35995623 125 129 19
0.67228156 -0.09614787 -0.33457464 171 174 9
0.67117661 -0.09878159 -0.34419623 151 159 0
0.67545295 -0.11358687 -0.38298032 111 109 8
0.67138773 -0.09814712 -0.35056877 112 121 0
0.67290550 -0.11001711 -0.38365436 118 118 22
0.67300135 -0.10894046 -0.37783989 147 136 56
0.67041522 -0.10799800 -0.37460500 123 130 35
0.67441392 -0.10998833 -0.39339128 150 155 63
0.67318743 -0.10613275 -0.39281294 139 135 72
0.59675658 -0.22644870 -0.30297989 111 133 61
0.59398973 -0.23097229 -0.30029321 100 116 51
0.62476766 -0.19879499 -0.30927137 126 153 60
0.60890806 -0.21858633 -0.30574527 161 188 55
0.60291791 -0.22366343 -0.30492628 127 154 59
0.60380667 -0.22473995 -0.30423221 121 147 38
0.59625101 -0.23010579 -0.30159345 138 149 81
0.59839290 -0.23025744 -0.29858521 112 151 60
0.59750187 -0.23179759 -0.30084890 107 136 43
0.61794639 -0.20988351 -0.30485326 142 169 66
0.67197818 -0.11647786 -0.37617925 125 124 18
0.66367930 -0.13526379 -0.34331244 142 162 15
0.66037363 -0.14315403 -0.33459488 145 170 14
0.65282995 -0.16007656 -0.32685235 124 152 7
0.65640402 -0.13881309 -0.33836132 137 175 2
0.66812307 -0.12741710 -0.35414168 139 157 0
0.67001963 -0.12234946 -0.36458093 93 110 0
0.66139966 -0.13954972 -0.33943042 141 158 17
0.66246516 -0.13657375 -0.34139147 155 181 19
0.65433514 -0.15085585 -0.33096471 113 154 22
0.65110081 -0.16815847 -0.32256544 115 154 35
0.65968895 -0.14457408 -0.33430284 129 171 11
0.65180415 -0.14697161 -0.33189058 140 178 7
0.65229666 -0.15059592 -0.33199289 96 120 0
0.64221376 -0.18114941 -0.31758928 82 118 20
0.65967256 -0.13533130 -0.34426925 145 167 30
0.66007942 -0.13773644 -0.34206346 128 148 15
0.64558119 -0.16314335 -0.32375011 97 125 15
0.66494936 -0.12870313 -0.35357794 144 164 31
0.64916039 -0.15485874 -0.33050022 158 183 21
0.64525813 -0.16866203 -0.32190976 68 91 9
0.65644461 -0.14595418 -0.33455390 110 139 13
0.65001029 -0.15822531 -0.32484192 99 135 9
0.65426487 -0.14063409 -0.33547553 141 179 0
0.64203846 -0.17558794 -0.31694657 76 110 0
0.66529262 -0.12695523 -0.35527578 138 157 29
0.65516633 -0.15568645 -0.32928550 165 196 41
0.63868976 -0.18072355 -0.31602928 92 116 2
0.64768010 -0.15018880 -0.33443904 148 174 25
0.64637226 -0.15614390 -0.33003891 81 108 3
0.65177035 -0.16224019 -0.32542273 112 152 27
0.67859548 -0.06500582 -0.28370818 117 136 29
0.68074852 -0.05970800 -0.27273157 122 137 36
0.65675247 -0.09333224 -0.33827901 117 135 1
0.66358989 -0.08436341 -0.32828104 158 186 16
0.66836667 -0.08269203 -0.31764701 120 146 0
0.67023075 -0.07176562 -0.29047689 90 113 0
0.67028266 -0.10277624 -0.34670839 141 155 0
0.67956096 -0.06150429 -0.27710745 111 128 32
0.67725140 -0.07067723 -0.29236037 114 137 20
0.66457570 -0.10797089 -0.35419935 94 107 2
0.66400588 -0.08113433 -0.32535383 133 160 3
0.67503619 -0.08357712 -0.31501359 121 147 0
0.67770630 -0.08180692 -0.31028950 140 164 18
0.65398079 -0.09580742 -0.34043202 138 159 2
0.67632723 -0.09779438 -0.32571816 147 162 19
0.66519815 -0.09093459 -0.33840531 145 162 4
0.66434497 -0.09231708 -0.34234887 122 141 0
0.67313111 -0.07948870 -0.30775857 113 143 9
0.67413688 -0.07436801 -0.29685265 116 140 18
0.68170643 -0.09127488 -0.32415098 175 162 21
0.66786528 -0.09328488 -0.33428556 124 150 0
0.66823661 -0.08817410 -0.32620174 125 156 3
0.67800134 -0.08569904 -0.31596231 125 154 2
0.67424119 -0.08571155 -0.31761608 126 153 0
0.65770382 -0.08290960 -0.33234227 189 182 156
0.67182124 -0.09258763 -0.32578224 147 170 0
0.67240745 -0.09690011 -0.32939383 147 171 0
0.67841136 -0.07346638 -0.29665756 133 155 31
0.67605913 -0.06975141 -0.29074845 116 140 18
0.67999274 -0.08649361 -0.31850398 176 182 46
0.67085403 -0.10317374 -0.33823073 142 157 2
0.66834676 -0.07302064 -0.29325613 78 100 0
0.66979355 -0.10877535 -0.35732919 118 123 41
0.67167038 -0.10147499 -0.33282763 148 167 0
0.66841185 -0.09551182 -0.33773988 134 155 0
0.66785771 -0.07448709 -0.30240789 89 117 0
0.67507845 -0.06763011 -0.28625715 107 127 14
0.67112815 -0.10234571 -0.34193113 124 142 0
0.66943032 -0.10837269 -0.36610705 115 118 41
0.64817578 -0.16771941 -0.32305872 121 148 17
0.60995144 -0.20940655 -0.30635297 111 147 75
0.62275690 -0.20157756 -0.31054959 63 98 18
0.61584532 -0.20605537 -0.30852586 114 145 75
0.63293135 -0.18910719 -0.31309539 74 104 8
0.64823806 -0.17498569 -0.32086554 112 140 3
0.64195681 -0.17736377 -0.31840923 97 123 16
0.60037810 -0.22152157 -0.30060852 101 131 71
0.60908598 -0.20971034 -0.30630058 110 143 74
0.62442648 -0.20174320 -0.30997935 91 128 23
0.63516510 -0.18806876 -0.31511319 77 106 14
0.64563066 -0.18029554 -0.31934991 100 128 17
0.61708272 -0.02851589 -0.37233809 136 135 130
0.62035316 -0.03783900 -0.36642331 123 139 51
0.64875275 -0.07220137 -0.36719155 88 128 5
0.65347874 -0.08056493 -0.37219253 81 111 0
0.63694543 -0.06114503 -0.36642617 115 183 82
0.61669761 -0.03256562 -0.37003246 115 116 84
0.64975840 -0.07917905 -0.37407401 133 111 61
0.64561445 -0.07640073 -0.37107822 168 172 135
0.65111595 -0.07324738 -0.36860889 82 109 0
0.63835472 -0.05749482 -0.36451769 122 191 82
0.65132099 -0.07153355 -0.37055692 175 177 104
0.62243897 -0.03391827 -0.36654428 184 190 84
0.64298946 -0.06322486 -0.36407778 132 183 56
0.63600034 -0.05606613 -0.36400485 137 205 94
0.63323337 -0.04822081 -0.36235622 204 244 147
0.65189737 -0.07972506 -0.37344930 125 124 18
0.67709792 -0.11291746 -0.39718106 136 134 47
0.67728370 -0.10848861 -0.39654335 126 122 31
0.67333716 -0.11593618 -0.37271789 117 116 36
0.75409240 -0.15870956 -0.39843252 189 112 92
0.66461509 -0.09312336 -0.38324118 105 110 56
0.67297542 -0.10483429 -0.39293990 128 167 84
0.66864544 -0.10143646 -0.38791588 105 111 23
0.66875494 -0.10096902 -0.39061791 189 180 139
0.63845146 -0.05629905 -0.36792263 173 151 102
0.62706912 -0.04212433 -0.36481848 161 198 84
0.61533546 -0.02480268 -0.37326348 163 163 101
0.61991411 -0.02994186 -0.36926091 96 103 62
0.64867973 -0.06904042 -0.37093371 145 127 139
0.63792109 -0.06514712 -0.37051257 163 148 155
0.63765073 -0.05310287 -0.36526135 199 181 99
0.63322246 -0.04843063 -0.36576843 188 169 75
0.65590400 -0.08242886 -0.37521467 99 106 3
0.64210439 -0.05887334 -0.36699295 231 203 129
0.65950584 -0.08782642 -0.37878585 77 87 0
0.63798261 -0.06404634 -0.37041169 161 146 151
0.61283189 -0.02577329 -0.37133935 220 229 112
0.61975604 -0.03263055 -0.36687848 186 204 92
0.64330018 -0.07427236 -0.37082711 142 139 108
0.67647499 -0.08300659 -0.31774893 174 185 0
0.66318291 -0.08412702 -0.33642277 176 189 0
0.66530687 -0.08347878 -0.33055612 182 187 6
0.66116786 -0.09015986 -0.34327516 132 130 91
0.68038744 -0.07715590 -0.31182399 149 172 6
0.66737866 -0.08818812 -0.33211529 171 179 5
0.65979826 -0.09756253 -0.34833571 139 130 61
0.66278368 -0.10071855 -0.35367367 172 151 72
0.65870619 -0.08697128 -0.33907774 185 171 171
0.66572601 -0.10095929 -0.35610446 149 167 33
0.66824478 -0.09238327 -0.34187570 163 176 8
0.67575806 -0.07782304 -0.31201902 154 176 3
0.66505289 -0.09567580 -0.34525022 134 154 0
0.65963095 -0.10356609 -0.34640223 111 133 0
0.66845834 -0.07105289 -0.30374590 134 154 119
0.66099709 -0.10418390 -0.34901619 116 132 25
0.65904981 -0.09867584 -0.34373081 120 142 0
0.66453952 -0.10459913 -0.35093305 98 123 0
0.67114115 -0.07819062 -0.31030613 150 177 0
0.66894156 -0.07064041 -0.28987220 100 117 2
0.67882252 -0.07590920 -0.30574378 112 135 53
0.66573346 -0.10638658 -0.36275476 123 122 39
0.67620337 -0.06137037 -0.27796936 105 125 10
0.65828854 -0.08839349 -0.34054077 147 139 120
0.67715180 -0.06814519 -0.28881192 110 135 17
0.66988480 -0.07114401 -0.30687055 136 169 0
0.67517066 -0.07094559 -0.29815876 144 168 30
0.67040330 -0.07410537 -0.30748266 161 182 0
0.66690594 -0.07724557 -0.31373930 132 152 19
0.67122918 -0.08548113 -0.32473582 148 160 0
0.67705148 -0.08639131 -0.32177529 182 181 5
0.68086994 -0.07942360 -0.31238821 147 156 37
0.67321581 -0.08722110 -0.32562754 178 178 4
0.66689473 -0.07380230 -0.30750716 72 104 7
0.66974866 -0.08931449 -0.33303228 138 153 2
0.66183001 -0.09437691 -0.34721994 151 166 47
0.66882849 -0.09950483 -0.35472172 151 161 46
0.66747582 -0.07283965 -0.29268056 78 105 0
0.67515737 -0.07391405 -0.30568179 138 171 4
0.66672027 -0.09797972 -0.34844518 151 166 21
