0.37989646 0.31196591 0.26154748 117 135 75
0.37682724 0.31342897 0.26469871 138 153 72
0.37727913 0.31412810 0.26498795 138 154 79
0.38803506 0.27686810 0.24203037 88 111 3
0.38457793 0.27897421 0.24367662 39 72 1
0.38920078 0.27803159 0.24283962 112 143 5
0.36821356 0.44273618 0.28181970 132 148 24
0.37310109 0.30643871 0.26251721 185 195 80
0.37101823 0.30385935 0.26603708 105 117 43
0.37953600 0.28685606 0.25737444 46 80 0
0.38138318 0.28417155 0.25907677 41 71 0
0.38047123 0.28503621 0.25912341 39 70 0
0.37730014 0.33810917 0.28818697 104 138 43
0.38103780 0.32842326 0.28904286 81 111 21
0.37868872 0.33583629 0.28945428 161 183 40
0.35404405 0.39524949 0.29715994 184 213 35
0.38042396 0.32073116 0.27056116 121 149 47
0.37810227 0.31922171 0.26955321 111 127 52
0.38100088 0.30601266 0.25788808 222 239 111
0.37995225 0.31667280 0.26721630 99 118 52
0.37952715 0.31528810 0.26547578 96 117 52
0.37475523 0.31990194 0.27019888 120 137 59
0.37200233 0.31842262 0.26951453 116 129 41
0.38321149 0.31550395 0.26620635 126 150 56
0.38307482 0.30960998 0.26237696 189 219 61
0.39791250 0.26147637 0.23296368 88 122 35
0.37176856 0.30745372 0.26449898 188 197 78
0.36888498 0.31572485 0.26829517 140 150 54
0.36952186 0.31204858 0.26761401 119 132 40
0.38753417 0.36038920 0.27880394 187 201 20
0.38792324 0.36487335 0.28005931 129 158 8
0.38900265 0.31156445 0.26644260 119 167 5
0.39183643 0.28760913 0.24914970 153 197 12
0.39022353 0.28616908 0.24948700 146 186 2
0.38486451 0.26718897 0.23981784 111 151 26
0.37271339 0.29642767 0.26372561 155 156 99
0.40829390 0.32020965 0.27658525 132 178 30
0.40780005 0.32046711 0.27648628 124 170 20
0.39486879 0.27330396 0.23758826 54 86 0
0.39346081 0.26983333 0.23455164 109 144 18
0.40162823 0.33060598 0.27510169 98 125 48
0.35996607 0.43787032 0.27858463 126 155 47
0.35838482 0.43530920 0.27939668 159 189 57
0.35275382 0.41035515 0.29263082 180 194 106
0.35367441 0.41332367 0.29177952 130 146 101
0.39100966 0.29400626 0.25627771 168 209 7
0.35417548 0.41603348 0.28641674 122 146 86
0.35438934 0.41648376 0.28809655 145 166 91
0.39937878 0.27263489 0.23589690 147 185 37
0.38610944 0.38497409 0.28523585 129 159 1
0.38644958 0.38546818 0.28552720 176 200 16
0.37617001 0.32564157 0.27202076 135 157 56
0.37521324 0.32106081 0.27056730 95 112 41
0.40432462 0.32275051 0.27576700 81 132 14
0.35613543 0.45069093 0.24073751 125 160 18
0.35663298 0.44998717 0.24128866 111 141 19
0.34926102 0.45544958 0.26138389 89 119 5
0.34962967 0.44498923 0.26703331 156 180 30
0.35015169 0.44766101 0.26535422 140 165 22
0.34865636 0.46141815 0.25893542 177 186 123
0.34842217 0.46041620 0.25975373 121 142 11
0.35282105 0.44465572 0.26210451 124 147 13
0.35315275 0.44445869 0.26161778 109 136 0
0.38814455 0.29272741 0.25176048 100 142 14
0.38423666 0.29340053 0.25174841 55 91 3
0.38628569 0.29718670 0.25275701 129 175 6
0.37196958 0.44354013 0.24170506 118 144 53
0.37295434 0.44534543 0.23963363 99 125 36
0.37202042 0.44591609 0.23869732 77 102 18
0.38181666 0.29237008 0.25254682 119 158 7
0.35317490 0.45039713 0.25927764 76 105 0
0.35454774 0.45049211 0.25502223 72 101 0
0.35109022 0.45907584 0.24877702 95 125 13
0.35003966 0.46030405 0.24838497 106 135 16
0.35401329 0.45664006 0.24484971 82 114 0
0.38367450 0.25592813 0.23274620 58 88 0
0.38534117 0.25531250 0.22809632 95 128 21
0.40795991 0.37368292 0.29181769 185 205 58
0.38383582 0.26704368 0.23807293 105 139 18
0.38133779 0.31475163 0.28737319 135 166 37
0.38089022 0.32361472 0.28710416 158 185 54
0.40254772 0.31556126 0.27051929 60 101 9
0.38319060 0.32319248 0.29226688 118 152 65
0.35233364 0.45128772 0.26044157 108 139 19
0.35256910 0.45209509 0.25907668 107 142 14
0.34958574 0.45871270 0.25476944 102 138 4
0.34974825 0.45790711 0.25650063 69 102 0
0.36811027 0.36739632 0.28605595 164 187 19
0.36940169 0.36943987 0.28356996 139 178 23
0.38265926 0.34328827 0.27171436 89 125 19
0.38278821 0.34421176 0.27120045 97 129 18
0.37801403 0.34708235 0.27436835 145 185 27
0.38058773 0.33928141 0.27533644 136 165 23
0.39597151 0.27866140 0.24188444 73 101 0
0.35457483 0.45411789 0.24909493 92 124 0
0.35646927 0.44957986 0.24926053 120 148 12
0.35531336 0.45233977 0.24918708 134 167 28
0.35552788 0.45178679 0.24218127 91 124 0
0.37016487 0.36106122 0.27854365 123 163 31
0.37852234 0.33991209 0.27634588 158 184 33
0.37967658 0.33895597 0.27602023 139 163 23
0.38035154 0.33788717 0.27594370 112 142 8
0.37634224 0.34651357 0.27588922 138 168 38
0.35166740 0.45915008 0.24518770 81 111 0
0.35338962 0.45807198 0.24259111 107 141 3
0.35012341 0.46112534 0.24634986 112 140 21
0.38030446 0.32845926 0.27370977 108 131 49
0.36624509 0.37917924 0.28956717 111 139 18
0.34880531 0.45817903 0.27136502 79 109 9
0.34842706 0.45657781 0.26852721 82 110 10
0.34874323 0.45959055 0.26650083 111 138 9
0.38097540 0.32399359 0.27262959 130 155 54
0.34829667 0.45662442 0.26730272 68 95 0
0.38962120 0.29624739 0.25558546 144 187 12
0.38804749 0.29914907 0.25727332 92 144 0
0.34846869 0.45000201 0.27503893 124 137 6
0.34856221 0.45250911 0.27361465 109 135 2
0.34884575 0.44749889 0.27275944 72 87 0
0.39964223 0.33740500 0.27461460 147 181 25
0.35280085 0.39762518 0.29120857 110 132 21
0.35282093 0.39412189 0.29013523 160 192 33
0.40090841 0.27254215 0.24527691 84 119 37
0.40015465 0.27487946 0.24524128 59 91 8
0.37375575 0.34848374 0.29631880 184 212 75
0.37590945 0.34441808 0.29531264 122 150 27
0.37690976 0.34183860 0.29336306 130 162 37
0.37810516 0.34058014 0.29494554 117 147 33
0.34785825 0.44772160 0.27717057 126 143 11
0.37233970 0.35066742 0.29757443 133 161 51
0.37061703 0.34786418 0.29329386 155 189 94
0.40319771 0.36301586 0.28863987 164 204 69
0.40643531 0.35833502 0.29062295 118 164 40
0.37284532 0.44139883 0.28016084 84 122 39
0.37564513 0.37048504 0.27881879 149 189 31
0.37697041 0.37037280 0.27860305 135 171 21
0.36493173 0.35389405 0.29628119 126 162 66
0.36889011 0.35085654 0.29553771 116 147 53
0.35466662 0.40644908 0.29740095 140 172 61
0.35455474 0.40164033 0.29691440 137 163 27
0.37842816 0.44380441 0.25216392 6 36 10
0.40362662 0.38519105 0.29362053 89 140 35
0.40414077 0.38529778 0.29254150 134 188 40
0.37094584 0.32167637 0.27683499 166 175 86
0.36960143 0.31986335 0.27606311 108 120 44
0.41151959 0.36673167 0.29860574 140 181 51
0.38676253 0.25348386 0.22828177 57 93 0
0.38832712 0.41405231 0.27315512 86 124 37
0.39010170 0.41231048 0.27618250 91 138 24
0.39786321 0.34435064 0.27880880 148 182 44
0.39776948 0.34403765 0.27866942 138 171 41
0.39441699 0.34919164 0.27814859 171 194 28
0.40945235 0.31502974 0.27425131 116 165 13
0.40835744 0.31555942 0.27355522 114 159 14
0.37192672 0.34382212 0.28646123 79 112 33
0.37530318 0.33541828 0.28247136 78 111 54
0.37416494 0.34193826 0.28722316 93 123 49
0.37342334 0.34057513 0.28513440 65 96 29
0.38289261 0.36346027 0.27544713 126 159 18
0.38030714 0.35989028 0.27459452 148 180 45
0.40461275 0.39562824 0.29290840 86 129 24
0.36001965 0.42139480 0.28345889 129 150 73
0.36010537 0.42374197 0.28223062 155 175 88
0.41166982 0.32375327 0.27654257 125 159 23
0.39322239 0.31696501 0.26642787 187 215 34
0.39475381 0.31643942 0.26633999 97 134 2
0.40202722 0.31863925 0.28643692 179 219 61
0.40355945 0.31616732 0.28635207 107 150 35
0.37497723 0.31282279 0.28150770 142 177 97
0.37882769 0.39336780 0.28234068 99 135 9
0.37177265 0.35305187 0.27791902 144 181 23
0.37211579 0.35112569 0.27859941 177 215 40
0.36828703 0.35447413 0.28108695 91 121 0
0.40158445 0.34616163 0.28275299 176 185 58
0.40033495 0.34848833 0.28199089 110 164 53
0.36619663 0.35522515 0.28628874 133 166 15
0.36568156 0.35831350 0.28741038 190 214 28
0.34982321 0.45882508 0.27867869 177 193 95
0.34983635 0.46184579 0.27294886 154 180 70
0.35752791 0.45223704 0.28061673 118 154 64
0.36493164 0.35825074 0.29147610 137 171 22
0.36357507 0.35560003 0.29415813 173 190 62
0.36344665 0.35713431 0.29458946 154 172 62
0.36767042 0.38491470 0.28480187 102 133 16
0.36793801 0.38146120 0.28734195 130 157 16
0.36006853 0.46243885 0.27700767 88 132 55
0.36059114 0.37712127 0.29194018 191 207 38
0.35463098 0.44126675 0.25979063 76 101 0
0.36104554 0.43821207 0.25351653 76 104 4
0.35683295 0.44118071 0.25672862 129 154 27
0.35870233 0.43812111 0.25694713 65 92 0
0.40469065 0.38938171 0.28837755 174 201 70
0.39857730 0.32557082 0.28979543 123 162 45
0.39881438 0.32454148 0.28970453 122 161 46
0.38176107 0.33227074 0.27608383 167 191 41
0.34885404 0.46176657 0.26134780 154 162 102
0.34921318 0.46268475 0.26348689 185 209 71
0.38990906 0.32539722 0.26744083 105 135 1
0.38284248 0.32912475 0.29388323 108 139 59
0.35255268 0.46417740 0.27137825 92 127 59
0.35171908 0.46400940 0.27174377 110 144 57
0.35080251 0.44413435 0.28051424 143 167 55
0.34961081 0.44654545 0.27928790 160 178 68
0.39596674 0.32500109 0.29074469 90 140 69
0.39451662 0.32242137 0.29104823 113 164 85
0.40384251 0.38504884 0.28674790 184 215 75
0.38878426 0.32332122 0.29198685 126 164 79
0.38981023 0.32360068 0.29214129 126 160 84
0.40140605 0.32338265 0.27491310 93 127 53
0.39906561 0.32601050 0.27365655 169 198 79
0.38597164 0.32661611 0.29459828 114 156 54
0.35931581 0.40487358 0.27539837 138 159 22
0.35881484 0.40078738 0.28019583 176 192 31
0.36155680 0.40171543 0.27714545 169 193 35
0.35870442 0.40208727 0.27887097 153 175 15
0.38449657 0.28043261 0.25385103 33 65 0
0.38259834 0.28399718 0.25579587 50 88 5
0.38428438 0.28219536 0.25252217 47 86 7
0.38901651 0.43603709 0.25788677 186 202 165
0.37328115 0.30847934 0.26237541 127 138 46
0.37091434 0.31283376 0.26573282 209 210 90
0.37376297 0.30955100 0.26307648 162 171 66
0.38745558 0.43619734 0.25784862 124 140 127
0.36580053 0.35087553 0.28997770 141 168 55
0.36456266 0.35280013 0.29343781 117 150 20
0.37184301 0.34483829 0.28927091 95 126 46
0.37340876 0.34283063 0.28727508 84 114 40
0.37298483 0.34173399 0.28070736 135 161 51
0.37322456 0.34228387 0.28028202 157 178 59
0.37614936 0.34053731 0.27735373 74 110 10
0.37119570 0.34228528 0.28263694 71 99 25
0.36900809 0.34592104 0.28420416 128 154 31
0.37311500 0.34855029 0.27873325 166 204 33
0.38929054 0.40368614 0.28074497 78 115 19
0.38940379 0.40412971 0.28065589 77 114 19
0.35571042 0.44241589 0.28004703 106 139 48
0.35356790 0.44266602 0.28036556 121 156 56
0.35997665 0.40469086 0.29699761 132 171 42
0.37014371 0.43486398 0.28273484 132 161 71
0.38401374 0.43437135 0.25492057 156 184 74
0.38489807 0.43475693 0.25471035 104 128 40
0.35734287 0.40674573 0.29713181 130 169 60
0.38580203 0.39809227 0.28126657 103 134 7
0.39121976 0.39327410 0.28489888 134 165 36
0.39274997 0.39530998 0.28454375 110 143 39
0.37589240 0.29476342 0.25606990 98 109 53
0.37484160 0.29264385 0.25505546 101 103 90
0.36529642 0.41777632 0.26293248 71 96 15
0.36136535 0.41779411 0.26593605 162 194 33
0.36126506 0.38067397 0.29065460 112 133 16
0.36165577 0.38348815 0.28848770 212 227 38
0.36392480 0.37971225 0.29061669 210 225 22
0.38108352 0.39404929 0.28250110 174 197 27
0.38200063 0.39632764 0.28166661 104 136 11
0.36777043 0.42103234 0.28435519 125 145 58
0.39080521 0.43394703 0.25947133 99 133 59
0.38961574 0.43174040 0.26199615 97 138 46
0.38016447 0.38806027 0.28291360 120 150 36
0.38392889 0.38916841 0.28474894 104 134 4
0.38437206 0.38510478 0.28452307 197 228 36
0.37648979 0.31832591 0.28173301 138 171 92
0.37711763 0.32001165 0.28173700 135 163 78
0.38502553 0.40691447 0.27572101 141 178 38
0.38332403 0.40237305 0.27818891 165 192 27
0.38074088 0.40702483 0.27468598 185 205 32
0.37540996 0.41276535 0.26789987 141 176 30
0.37612060 0.41482258 0.26680538 154 189 33
0.36592600 0.44567549 0.24035549 110 139 33
0.36671221 0.44601935 0.23913471 85 115 15
0.39266777 0.40280411 0.28202987 78 122 24
0.39204881 0.42230657 0.27034104 101 145 32
0.39236367 0.42250109 0.27043307 102 144 32
0.38189462 0.41625851 0.26719582 185 204 35
0.38421747 0.41531649 0.26830950 97 136 17
0.38527545 0.41751149 0.26551032 115 146 29
0.38587865 0.41360471 0.27041396 168 205 47
0.37015164 0.44182482 0.24485181 83 103 42
0.36641672 0.44359687 0.24418791 104 131 38
0.35878947 0.45607126 0.22744061 90 123 19
0.35502392 0.45615372 0.23104866 136 162 35
0.35547721 0.45152441 0.24029687 123 157 19
0.36164770 0.39301139 0.28397626 171 191 32
0.36494708 0.39827436 0.27822199 94 115 0
0.36284715 0.39416268 0.28226656 103 124 0
0.35727724 0.40987584 0.29401991 110 152 50
0.35422966 0.45790952 0.23300424 130 163 32
0.35376835 0.46291924 0.23545922 85 115 29
0.35400566 0.46080798 0.23678665 98 131 14
0.35540536 0.45170885 0.24073491 103 138 0
0.35298383 0.46331149 0.22928271 89 116 11
0.35436451 0.41100544 0.29374725 141 166 100
0.36237165 0.42683178 0.28121939 120 144 60
0.38978788 0.40817881 0.27876753 98 139 37
0.39010891 0.40836114 0.27895555 93 136 28
0.38855794 0.41883001 0.26840317 84 119 37
0.38996530 0.42066538 0.26942384 87 132 31
0.39467865 0.41611177 0.27626592 121 165 30
0.39459154 0.41898003 0.27377057 118 166 28
0.38343599 0.26155102 0.23921572 103 143 31
0.39285672 0.42869338 0.26697677 94 128 42
0.39523366 0.41436648 0.27802441 132 167 25
0.39620942 0.41474807 0.27805263 160 196 24
0.39481291 0.34187779 0.27169189 96 131 29
0.39319098 0.34335655 0.27115431 168 191 48
0.36894837 0.43561870 0.28174832 106 133 40
0.36765808 0.43153223 0.28238776 200 214 43
0.37157848 0.39219463 0.27911356 134 158 64
0.36953518 0.39286357 0.27896231 84 107 35
0.36872154 0.39373976 0.27853188 55 85 11
0.39551073 0.40619946 0.28251413 156 191 39
0.39520514 0.40408719 0.28292981 93 131 12
0.37319306 0.44531551 0.24582466 25 61 0
0.38828588 0.42616650 0.26335338 93 127 50
0.38791123 0.42347208 0.26361650 115 146 66
0.35774520 0.45204553 0.23316047 96 126 28
0.35925904 0.45131063 0.23291509 98 129 26
0.36183169 0.43074971 0.28008911 101 131 35
0.36255810 0.43907294 0.27785078 181 201 67
0.39314085 0.43440589 0.26489273 175 200 106
0.35480466 0.43761271 0.27950916 143 179 69
0.35863984 0.44799227 0.28029907 160 194 84
0.36154175 0.44425064 0.27940115 121 150 34
0.36200944 0.45288759 0.28057641 102 138 38
0.35349587 0.44634348 0.28066915 116 151 49
0.35182580 0.45252660 0.28086588 149 174 56
0.35466424 0.44626680 0.28065041 137 175 64
0.36545435 0.44962427 0.28118187 90 135 50
0.36357543 0.45721072 0.27954125 118 155 60
0.35921639 0.45877299 0.28019363 135 179 68
0.35622936 0.43386212 0.27888098 128 159 55
0.35587975 0.46136913 0.27864805 118 162 83
0.37420893 0.41751179 0.26398042 146 182 34
0.37191567 0.41716227 0.26310715 105 139 18
0.37083086 0.41886395 0.26111317 90 126 20
0.36965099 0.31288067 0.28185096 201 213 85
0.39791486 0.38475925 0.28277719 150 181 62
0.39585090 0.38942710 0.28337917 132 165 22
0.39790455 0.38802207 0.28328353 116 149 44
0.41049179 0.32559073 0.27760932 112 140 17
0.37680075 0.29039305 0.26651904 72 109 3
0.37756810 0.28822511 0.26227158 60 94 0
0.34891012 0.45056650 0.27040595 102 126 12
0.37100801 0.39532986 0.27769825 120 147 52
0.37240893 0.39541411 0.27857482 81 112 19
0.39991978 0.36208212 0.28500628 71 114 24
0.39928097 0.35779080 0.28347617 137 182 65
0.39955679 0.35867816 0.28397870 87 129 29
0.35487437 0.41712242 0.27916655 194 217 135
0.40412998 0.31576550 0.27092010 87 132 13
0.39252388 0.32650751 0.29320866 131 167 97
0.39347628 0.33004671 0.29435542 123 168 85
0.37294564 0.40883088 0.26925996 145 179 23
0.36963317 0.40225944 0.27369300 126 153 48
0.35417831 0.39018926 0.30020350 134 148 34
0.35515290 0.39131314 0.29817671 173 193 59
0.35437596 0.38876441 0.29644576 65 90 6
0.35425502 0.40533382 0.28517815 116 139 5
0.35358137 0.40374348 0.28830364 165 190 26
0.35588878 0.38359830 0.29222184 83 111 0
0.35557246 0.38413119 0.29394904 147 181 24
0.38702667 0.31790170 0.26646248 138 179 12
0.37681019 0.38598797 0.28168386 133 162 46
0.37797120 0.31300202 0.28325149 175 204 86
0.36692044 0.39263853 0.28001156 123 160 21
0.36829740 0.38604325 0.28375775 135 170 40
0.36713779 0.38709205 0.28360072 101 130 11
0.40800300 0.32910210 0.28025573 182 224 54
0.35911024 0.44763955 0.23918808 119 145 44
0.35796514 0.44769868 0.24682730 130 157 26
0.35348487 0.42545789 0.27101725 163 188 24
0.35283315 0.42346901 0.26960021 116 141 0
0.39040670 0.33633801 0.27086589 185 196 42
0.38696659 0.33922616 0.27134994 152 180 43
0.38337019 0.32796237 0.27221060 148 181 40
0.38992804 0.33581343 0.27164498 188 199 35
0.35503849 0.38637102 0.29031953 78 111 7
0.35438150 0.38836029 0.28952906 119 148 20
0.35431451 0.41210467 0.28146252 188 212 102
0.38660714 0.33601746 0.27339920 162 191 13
0.38425225 0.33453277 0.27471212 156 204 24
0.35736170 0.42719749 0.27977833 137 160 80
0.35076651 0.44059870 0.27944130 155 176 81
0.34879476 0.43898055 0.27623358 71 91 0
0.35537019 0.42566955 0.27768058 123 152 68
0.35530382 0.42219126 0.27580464 152 174 92
0.35386884 0.42760921 0.27642930 123 147 51
0.39690164 0.32647109 0.27135965 190 214 28
0.39676616 0.32513312 0.27037561 178 202 26
0.38528210 0.36367097 0.27800485 164 193 25
0.38777635 0.35809863 0.27841789 146 182 20
0.38334844 0.36115167 0.27489808 145 181 19
0.39438412 0.33675420 0.27109662 167 187 38
0.39732426 0.33223778 0.27291611 153 184 18
0.34848100 0.43938726 0.27305111 99 121 0
0.34823990 0.44281769 0.27148455 112 133 14
0.39854845 0.33049396 0.27361488 150 187 29
0.38797283 0.35474464 0.27500620 194 199 19
0.38811949 0.35577995 0.27631250 145 171 22
0.39535865 0.31983343 0.26666194 187 216 36
0.39706916 0.31910217 0.26777631 156 182 11
0.39513627 0.31922448 0.26641050 151 181 23
0.39030799 0.34874842 0.27122715 152 171 20
0.38738972 0.34751332 0.27096486 103 138 18
0.38749763 0.35054281 0.27163199 124 156 19
0.39353189 0.34646481 0.27171072 162 183 20
0.39398158 0.35865739 0.28015360 171 199 26
0.39619559 0.35361597 0.28031382 127 164 25
0.39294666 0.35083807 0.27793014 120 160 25
0.39107609 0.35325485 0.27774841 151 182 26
0.37414631 0.39979532 0.27808166 129 162 19
0.37224588 0.39898124 0.27784961 91 119 9
0.37256783 0.40169796 0.27575439 121 157 23
0.39435586 0.43079284 0.26761448 77 116 23
0.40122166 0.27334478 0.24324311 58 90 17
0.40484011 0.27066746 0.23816611 104 139 57
0.39134899 0.32969701 0.27046511 108 140 17
0.39197254 0.32771799 0.26927367 230 246 33
0.35245362 0.40725186 0.29211098 208 217 126
0.35181522 0.40892056 0.29024345 155 175 88
0.37078154 0.30245543 0.26826921 72 79 45
0.39364696 0.33256140 0.27024472 171 195 39
0.39430368 0.33204117 0.27084076 141 167 31
0.37301040 0.44317850 0.24357213 109 135 46
0.37024346 0.29902554 0.27238581 176 180 93
0.40244299 0.33183989 0.27549660 100 131 64
0.38289544 0.43886378 0.25675994 18 61 0
0.38306758 0.43740484 0.25604427 142 166 118
0.40066451 0.30498445 0.26399216 124 152 75
0.40374061 0.29765481 0.25924531 61 93 10
0.39947453 0.30706635 0.26531625 138 163 69
0.39285451 0.36686555 0.28172415 195 216 33
0.39088014 0.36519608 0.28136081 200 220 25
0.37083894 0.29795006 0.26973096 181 191 56
0.37287661 0.29428723 0.26548770 112 128 0
0.37027121 0.29769549 0.27217278 170 175 57
0.37787014 0.28806272 0.25865763 52 81 0
0.37826806 0.28761891 0.25850874 45 76 0
0.40550449 0.31140560 0.26890087 128 174 42
0.38953289 0.37178656 0.28106669 97 133 0
0.38275492 0.36962497 0.27765542 117 158 26
0.36893243 0.30450538 0.27750471 114 132 32
0.36813679 0.30504331 0.27858698 55 70 15
0.36953181 0.30793485 0.28517136 155 185 35
0.36881992 0.30922431 0.28329656 239 247 110
0.36769843 0.30770317 0.28150001 129 146 34
0.39126977 0.37736037 0.28126115 153 190 0
0.39280996 0.37419620 0.28149086 169 198 12
0.36711720 0.30179229 0.28033310 98 116 30
0.36933240 0.30207485 0.27615795 95 109 56
0.38248032 0.31690332 0.28945363 158 191 48
0.38827398 0.31091255 0.26662585 113 166 0
0.38459143 0.33235568 0.27518478 120 151 31
0.36828530 0.31457692 0.27077800 177 180 73
0.36848930 0.31479228 0.26918811 89 103 44
0.39981377 0.28052527 0.25309557 56 85 18
0.39916646 0.27862886 0.24901800 86 121 19
0.35900384 0.41817918 0.26781267 176 198 35
0.35378546 0.42261726 0.26806071 97 118 0
0.35259902 0.42209223 0.26859877 133 160 21
0.39293602 0.35811418 0.27971408 141 172 6
0.38432014 0.25618833 0.22987956 64 99 0
0.35293406 0.41447678 0.27181265 80 100 0
0.35339895 0.41385773 0.27203009 83 103 0
0.38045961 0.32409334 0.28626531 163 189 54
0.36892903 0.41209969 0.26549718 99 137 16
0.37057152 0.40634325 0.27052867 120 151 21
0.36868629 0.40274167 0.27289456 140 166 67
0.36112377 0.40420797 0.27496195 137 161 23
0.36230615 0.40489563 0.27405044 162 188 39
0.36279187 0.40864676 0.27155837 123 145 0
0.36381394 0.40708727 0.27208540 166 197 31
0.37367880 0.44137153 0.24771820 135 155 83
0.37689838 0.30618918 0.25953516 132 152 65
0.38047740 0.30537093 0.25757268 110 121 55
0.40217313 0.39556855 0.28517595 106 146 24
0.37711081 0.30802402 0.28349957 182 213 73
0.36611322 0.40331346 0.27327651 90 122 13
0.36570206 0.41364312 0.26550806 77 101 17
0.36503556 0.41196540 0.26735717 64 93 0
0.36385298 0.41348878 0.26711023 113 141 22
0.40529975 0.36509874 0.28988147 152 185 32
0.38972881 0.28423190 0.24776831 115 153 8
0.38759440 0.28672713 0.24971560 55 94 0
0.38878185 0.30391446 0.26070458 88 138 7
0.39091161 0.30298972 0.26006430 167 202 0
0.37230816 0.41189533 0.26693386 119 157 20
0.37472889 0.41706035 0.26456782 146 183 28
0.39938074 0.27074435 0.23523022 97 127 5
0.40075111 0.26738063 0.23436399 80 111 17
0.38295263 0.26144123 0.23465663 166 206 21
0.38671619 0.30975860 0.26545608 112 163 8
0.39158019 0.37357584 0.28124219 186 215 27
0.39387837 0.36906117 0.28184545 147 173 22
0.37519982 0.37921712 0.28395122 102 138 30
0.37190661 0.37359899 0.28079376 154 179 75
0.38696611 0.25267097 0.23378675 76 108 7
0.38639948 0.25906447 0.23817711 125 166 34
0.35952631 0.41913244 0.26674557 112 145 0
0.35868809 0.42341018 0.26498449 154 179 26
0.35985664 0.41765839 0.26731059 94 121 0
0.40473977 0.39453489 0.29082417 106 142 36
0.39285466 0.24891880 0.22278634 119 155 7
0.37299314 0.31005749 0.28426689 168 206 97
0.36866510 0.44087124 0.24668512 79 105 18
0.36365893 0.44123682 0.24773008 76 99 31
0.36624494 0.43763897 0.25043562 84 112 28
0.36713392 0.41725639 0.26198018 117 149 38
0.36799616 0.42140055 0.25869316 108 139 19
0.38074777 0.37156194 0.27897999 66 89 17
0.37901196 0.37072265 0.27855322 135 162 33
0.37237012 0.37191859 0.27979413 99 130 27
0.37785178 0.42264178 0.26058853 121 146 44
0.38209525 0.42501342 0.25715646 93 134 30
0.37811580 0.42793995 0.25587121 106 132 33
0.38277298 0.42107767 0.26140770 131 162 25
0.37797618 0.41957760 0.26329237 123 148 31
0.37013301 0.30481797 0.27274039 117 130 50
0.37024727 0.44371605 0.28118208 142 175 58
0.35963205 0.45744291 0.22514069 72 105 14
0.35975143 0.46263421 0.21956240 105 127 26
0.35701340 0.46116740 0.22400640 120 138 64
0.36182877 0.43844020 0.25229028 102 128 37
0.36181608 0.44046864 0.25056908 103 131 29
0.36303166 0.44118914 0.24845587 65 82 11
0.38237047 0.25977272 0.23451373 114 153 24
0.36774832 0.45340270 0.27561939 124 164 32
0.36745626 0.45485383 0.27554893 113 152 25
0.40047306 0.36730224 0.28581709 91 141 54
0.40195587 0.36952233 0.28684473 93 148 28
0.38958001 0.26988965 0.23544000 84 118 0
0.39001304 0.27589113 0.24105865 117 145 8
0.37181091 0.29502118 0.27115062 106 138 11
0.37251312 0.29399464 0.26846221 98 125 12
0.40089816 0.31195980 0.26814720 103 137 40
0.40109089 0.31393361 0.26910564 125 154 72
0.35536420 0.42935511 0.26473606 123 144 17
0.35813525 0.42725909 0.26321697 146 170 22
0.35910767 0.42940786 0.26099867 72 99 0
0.38142416 0.43218556 0.25394973 123 149 40
0.37587658 0.43058977 0.25487897 95 120 39
0.37885055 0.42905313 0.25534126 112 140 40
0.37388220 0.32669497 0.27584612 155 167 57
0.36700386 0.45293778 0.27714714 115 150 32
0.36847878 0.45020759 0.27711132 163 195 70
0.35634929 0.43056116 0.26308259 138 160 17
0.35511029 0.43893388 0.26051992 58 81 0
0.35535097 0.44025740 0.25964734 50 85 0
0.35661396 0.43108886 0.26255402 172 193 28
0.36285335 0.45514604 0.28006482 128 167 76
0.38441303 0.42959157 0.25733840 153 185 52
0.38386920 0.42674798 0.25766051 192 221 53
0.35497111 0.44593054 0.25664505 60 87 0
0.35444239 0.44743693 0.25743541 73 100 0
0.35442385 0.44258890 0.25965419 98 124 15
0.36484739 0.44887644 0.23430014 93 125 16
0.36182851 0.45330358 0.22867140 94 125 21
0.36408404 0.44788721 0.23610710 98 127 21
0.35849378 0.38576624 0.28863570 204 219 38
0.35929045 0.39304143 0.28552753 166 193 26
0.36144263 0.39086181 0.28497115 200 217 27
0.35857424 0.39186826 0.28632811 205 223 17
0.35782999 0.39586669 0.28478691 172 198 13
0.36383641 0.43951434 0.27842757 161 187 54
0.36672908 0.44264176 0.28084257 194 188 42
0.36436796 0.37097359 0.29330930 212 223 23
0.36260530 0.36606783 0.29448912 104 128 16
0.36290362 0.35716340 0.29537821 222 234 106
0.36197144 0.35799703 0.29640529 165 181 56
0.36005086 0.37162629 0.29504186 129 152 10
0.35790601 0.37591642 0.29373345 121 153 10
0.35888529 0.37599701 0.29324046 157 175 31
0.37297091 0.29751173 0.25951037 115 123 74
0.37289897 0.29613283 0.25904045 136 142 96
0.38267288 0.37989450 0.28233281 193 214 61
0.38298962 0.38055834 0.28264856 192 207 56
0.35495371 0.41104785 0.27643055 86 112 0
0.35502183 0.41003987 0.27736613 106 130 8
0.35358340 0.42168388 0.27269194 113 136 20
0.35355580 0.41682005 0.27432233 225 247 136
0.35430625 0.41852188 0.27481809 210 230 133
0.35492998 0.46279958 0.27788988 105 150 59
0.39302647 0.30998936 0.26450318 218 248 28
0.35357988 0.41338071 0.27373201 124 147 15
0.35373104 0.41361949 0.27463731 105 129 5
0.35620290 0.40338960 0.28305894 98 122 2
0.35780978 0.40125617 0.28157842 118 142 4
0.35746646 0.40028572 0.28394035 160 187 20
0.35546166 0.39805275 0.28508577 145 169 11
0.40230429 0.37812656 0.28560179 100 150 25
0.39014083 0.38275528 0.28377253 184 203 17
0.39281359 0.38237587 0.28272897 152 188 18
0.34838733 0.44315517 0.27078223 116 135 17
0.40275440 0.29608792 0.25738227 68 97 17
0.39689344 0.29704556 0.25334772 165 196 32
0.38712955 0.25245470 0.23034385 90 123 16
0.37011909 0.42681581 0.28450656 119 144 40
0.36888221 0.42939135 0.28347835 160 180 29
0.39406049 0.30444080 0.26108322 174 219 14
0.40117818 0.38747275 0.28334856 105 154 39
0.36601272 0.36812812 0.28962237 174 202 32
0.36621588 0.36382487 0.28874919 117 149 6
0.36572638 0.35869443 0.28574684 156 186 30
0.36718476 0.36735991 0.28736243 176 203 28
0.36787876 0.36869439 0.28715444 216 231 40
0.37023741 0.38185751 0.28498518 82 116 22
0.37044075 0.38066727 0.28397125 81 109 25
0.39263636 0.29662850 0.25825015 161 205 20
0.37918860 0.37583360 0.28164482 148 175 36
0.38219443 0.37091628 0.27832979 139 169 45
0.36691880 0.35109639 0.28527221 123 160 20
0.36645481 0.35383308 0.28536835 93 120 7
0.40034184 0.29891261 0.25958285 120 147 40
0.39900354 0.29899356 0.25936016 139 170 17
0.37464416 0.38088569 0.28390017 97 132 28
0.36681101 0.36180598 0.28512824 113 145 12
0.39832440 0.39927611 0.28422204 140 186 28
0.39642888 0.40067527 0.28405249 105 145 20
0.37026253 0.36715198 0.28048190 69 103 17
0.37053794 0.36416563 0.27910289 72 106 19
0.38244292 0.34825027 0.27192864 124 160 28
0.38322499 0.35243627 0.27228484 133 164 27
0.37936604 0.34911054 0.27364969 157 194 37
0.37186018 0.36020708 0.27747878 86 120 8
0.37412876 0.35694697 0.27654585 158 185 68
0.35737079 0.41884565 0.28335711 147 172 88
0.37135205 0.36962703 0.27937067 124 157 44
0.37329268 0.36396256 0.27751938 99 132 15
0.40353355 0.38459235 0.29371092 75 127 19
0.40532011 0.38191336 0.29064965 157 183 58
0.40111041 0.37707421 0.28464457 73 123 24
0.40016478 0.37773085 0.28358388 87 121 45
0.39105436 0.29103050 0.25323406 154 194 1
0.39270777 0.28995311 0.25064546 102 133 0
0.37897143 0.33268246 0.28719208 115 144 28
0.38758063 0.38733944 0.28624550 128 148 0
0.38585013 0.39017794 0.28469816 108 135 2
0.38266131 0.30082828 0.25474659 130 160 2
0.38648364 0.29873347 0.25435224 114 160 10
0.38139763 0.31452119 0.28748760 135 166 36
0.38158566 0.31407642 0.28781360 118 156 43
0.37095442 0.43794990 0.28291172 107 140 51
0.37851921 0.40204376 0.27778307 156 184 21
0.37843609 0.40294972 0.27706671 174 198 24
0.40852693 0.36657381 0.29485235 180 213 83
0.38368714 0.24960454 0.21671447 109 144 42
0.39150795 0.39182851 0.28523144 138 170 35
0.39316994 0.38521546 0.28323820 148 179 16
0.39324203 0.38544866 0.28323218 159 188 20
0.37563133 0.32637703 0.27949107 137 170 63
0.37401375 0.32069242 0.27986464 117 153 55
0.34917882 0.46005899 0.27158678 109 141 6
0.34956241 0.46213311 0.27068982 148 174 49
0.38779864 0.30771434 0.26387152 134 184 0
0.38722959 0.32054117 0.29112235 143 180 84
0.40697896 0.32942900 0.27604690 111 157 32
0.34860784 0.45356971 0.27915809 135 160 32
0.39310408 0.29825276 0.25877720 182 224 30
0.39385769 0.30213168 0.25994372 157 197 12
0.38599506 0.32475761 0.26748455 129 166 8
0.36477312 0.43673387 0.27951455 124 151 44
0.37626684 0.30359405 0.25914437 180 196 71
0.38044620 0.30155829 0.25591245 139 152 62
0.39647996 0.25015250 0.22098438 80 106 17
0.38765916 0.24503781 0.22199565 116 154 19
0.37116709 0.44702277 0.27789107 127 166 57
0.38577256 0.26410043 0.23565932 162 202 9
0.39506412 0.36120296 0.28086513 170 200 40
0.39732638 0.36298645 0.28200990 163 193 47
0.38497776 0.25239447 0.22194527 158 192 82
0.38924202 0.25055131 0.22614166 88 122 2
0.37753230 0.29769987 0.25703916 119 129 69
0.37437028 0.29598534 0.25679144 98 108 56
0.38505721 0.32977849 0.29468483 100 135 45
0.38741368 0.42761350 0.26124051 122 154 71
0.38430798 0.42514500 0.25856966 188 214 52
0.40680557 0.37309298 0.29083395 132 166 30
0.40508631 0.37292627 0.28924912 124 155 18
0.35301837 0.45394340 0.28084707 140 173 69
0.35643750 0.45180166 0.28065985 118 155 60
0.39111957 0.25946084 0.23376317 159 196 18
0.40056744 0.27399743 0.25052071 61 98 18
0.40193620 0.26847988 0.24643198 75 108 39
0.39000815 0.26533070 0.23411365 141 182 15
0.38510978 0.27102554 0.23815259 84 122 37
0.39329270 0.24696533 0.21956280 86 118 0
0.37120160 0.35634175 0.27798027 128 166 29
0.37216938 0.35351712 0.27753785 109 144 28
0.36573273 0.45880714 0.27678186 74 111 18
0.35345420 0.39710942 0.29421735 169 191 28
0.36919197 0.30818909 0.27473009 116 129 50
0.36791965 0.31235689 0.27613035 118 131 41
0.35396802 0.43306285 0.26476195 120 145 15
0.35116756 0.43769255 0.26733413 133 156 26
0.35409904 0.43497440 0.26365656 100 134 13
0.39204976 0.25347683 0.22865631 123 160 18
0.38848490 0.25754157 0.23236717 69 105 0
0.38460740 0.31676653 0.29054284 126 166 67
0.37307513 0.44779855 0.24480782 1 45 0
0.37674111 0.33712009 0.28568485 152 186 76
0.37728462 0.33351171 0.28331301 98 134 36
0.39476010 0.28000000 0.24497129 78 107 0
0.39568079 0.28258047 0.24647652 102 133 3
0.39165524 0.25856301 0.23354666 148 187 0
0.39968941 0.37996417 0.28269440 102 137 37
0.39692682 0.37595192 0.28234053 152 183 30
0.35293463 0.41131875 0.28390014 153 174 95
0.35261676 0.40939632 0.28513670 177 198 79
0.39571509 0.39625573 0.28435469 93 133 37
0.39991590 0.39153686 0.28377080 88 136 24
0.35384676 0.42749736 0.26866660 126 153 14
0.38716912 0.25135386 0.22495680 59 92 0
0.38727409 0.24947998 0.22448909 92 124 15
0.40759680 0.31512630 0.27206689 105 147 19
0.35778832 0.43926412 0.27923226 124 153 35
0.39356735 0.29570010 0.25563896 119 148 8
0.39370936 0.29190207 0.25168511 110 141 3
0.38126931 0.35790581 0.27386680 85 113 13
0.38122174 0.35427082 0.27363372 159 195 35
0.38310364 0.35593125 0.27297527 140 169 25
0.37741062 0.32735339 0.28037238 114 148 74
0.35185507 0.43485874 0.26758575 125 147 2
0.35189527 0.43287998 0.26870558 172 194 21
0.34991527 0.43845728 0.26937163 66 91 0
0.35071793 0.43618202 0.27722314 175 190 95
0.35317972 0.43277642 0.27797273 141 165 81
0.34674650 0.00102979 0.00196162 75 129 17
0.34750608 0.00177916 0.00159010 81 123 23
0.36295336 0.01366529 0.04388421 96 117 42
0.35283691 0.00894128 0.00897472 67 96 14
0.35259384 0.00832524 0.01269552 62 92 20
0.35285401 0.01305919 -0.00009807 102 128 19
0.35312507 0.01173538 0.00400531 83 110 7
0.35047001 0.00546750 -0.02013283 86 101 8
0.35762495 0.01562221 0.01397529 50 78 0
0.35742512 0.01382013 0.01605688 57 92 0
0.34938982 0.00483992 -0.01007630 92 105 13
0.34715432 0.00342918 -0.01127187 66 105 0
0.34575781 0.00303869 -0.00946036 71 109 8
0.35479352 0.01485417 0.00737417 90 119 26
0.35628015 0.01066355 0.01724315 40 70 0
0.35242081 0.00715834 0.01790335 35 60 2
0.35188726 0.00676621 0.01823012 32 55 11
0.35440460 0.00785156 0.02271610 25 49 0
0.36422697 0.01524000 0.05508133 141 151 98
0.36427870 0.01613948 0.05860145 160 170 99
0.34965208 0.00490653 0.01840414 63 87 39
0.35518381 0.00885415 0.01916228 86 118 21
0.35348669 0.00948104 0.01063501 50 82 0
0.36296421 0.01504415 0.04856980 86 110 52
0.36151603 0.01681684 0.04404129 139 161 61
0.35991678 0.01696143 0.03587405 82 109 32
0.35512716 0.02101337 0.03578004 89 118 28
0.35613570 0.02118267 0.03919071 116 143 36
0.35772499 0.01912631 0.03836577 74 94 33
0.36961755 0.01039381 0.06427499 134 135 101
0.36853808 0.01189741 0.06369081 123 126 79
0.35860822 0.01125793 -0.02760592 64 71 20
0.35515973 0.01755378 -0.03338094 76 80 45
0.35369623 0.01877699 -0.03270319 84 85 51
0.35003281 0.01924102 -0.02245915 75 83 46
0.35263199 0.01945452 -0.02265006 67 73 45
0.35889167 0.00712397 0.03425331 53 86 0
0.34989294 0.01945780 -0.01496916 115 128 102
0.35215491 0.01968499 -0.01332964 111 118 84
0.35466033 0.00664629 0.02870779 27 52 0
0.35619462 0.00786045 0.02707945 44 74 4
0.36105543 0.01639149 0.02475300 110 125 84
0.36240241 0.01426451 0.02586328 140 159 52
0.36519876 0.02178824 0.09385767 89 117 33
0.36405560 0.02153747 0.09611353 72 98 27
0.35730964 0.00756479 0.02998341 20 45 0
0.36359543 0.00953482 0.02954267 109 125 60
0.36335725 0.01065336 0.06915750 40 79 12
0.36312175 0.01073164 0.06942929 41 82 12
0.36639199 0.01356138 0.07139058 123 138 53
0.36543339 0.01428607 0.03704204 98 120 48
0.36205134 0.01590069 0.03782463 131 156 55
0.35283956 0.01906697 -0.02785604 77 84 43
0.34392786 0.00134488 -0.00439879 71 109 22
0.36450174 0.00784793 0.06509275 73 102 10
0.34821576 0.00382391 0.01697246 66 89 33
0.35090294 0.00611231 0.01243089 50 78 4
0.36043993 0.00270011 0.05610978 72 95 25
0.36299419 0.00492035 0.06208375 73 97 11
0.35652488 0.00476282 0.04180558 82 111 21
0.36588761 0.00752779 0.03571714 150 159 140
0.36779341 0.00697146 0.05322969 88 110 35
0.35908550 0.00259374 0.03859524 46 68 4
0.35320145 0.00538659 0.03234103 54 81 2
0.36540949 0.01197190 0.04308446 95 116 51
0.36629698 0.01332999 0.03963828 122 147 55
0.35777003 0.00410163 0.03842784 47 72 4
0.36855307 0.00230268 0.05490359 114 128 77
0.35822168 0.01704856 0.01810260 139 157 117
0.35096771 0.00859844 0.00115183 56 78 3
0.35273975 0.00951061 0.00686655 62 97 5
0.36167514 0.00123342 0.04353007 62 77 10
0.36074519 0.00073201 0.04717521 66 97 27
0.35721019 0.00347426 0.04941434 46 75 0
0.35887846 0.00224687 0.05045286 72 102 30
0.36621663 0.00741014 0.04745065 85 103 65
0.36906770 0.00872234 0.05731905 77 95 47
0.36751848 0.00554259 0.04980914 78 99 32
0.35786980 0.00821721 -0.02217401 51 59 2
0.36098063 0.00112564 0.05017952 76 103 22
0.36633158 0.00920758 0.04107868 90 114 30
0.36752862 0.00523973 0.04433829 94 115 82
0.36708018 0.01019512 0.05431543 138 158 99
0.36807367 0.00256146 0.05560047 81 93 45
0.36665934 0.00110734 0.05298496 147 168 67
0.36483908 0.01024503 0.04903868 119 141 79
0.36518547 0.00369060 0.04083873 139 136 105
0.35947070 0.00581353 0.03699861 57 80 8
0.36139771 0.00217062 0.03893696 28 52 0
0.36737436 0.00737897 0.06260395 91 83 46
0.36657822 0.00856820 0.03871634 90 111 52
0.36261505 0.00471635 0.03669155 39 58 2
0.36175013 0.02026205 0.08795673 86 115 35
0.35984802 0.01914021 0.08749276 58 82 32
0.35994634 0.01721749 0.02787977 94 114 51
0.35971811 0.01739588 0.02821742 91 111 48
0.36644077 0.00178543 0.04514914 88 139 98
0.35543871 0.01875955 0.01591642 106 129 73
0.36219341 0.00650825 0.03329787 37 61 3
0.35026097 0.01913984 -0.02734088 74 78 45
0.34858537 0.01926694 -0.02671782 88 96 49
0.34789652 0.01681113 -0.02561453 113 126 56
0.35843724 0.01216204 -0.03150406 49 57 10
0.35760629 0.01039372 -0.02850441 76 80 19
0.34516895 0.00034684 0.00302119 89 136 34
0.35845232 0.01112025 -0.02123192 57 66 9
0.35805738 0.01894367 0.09083869 84 114 18
0.35705346 0.01762642 0.08571551 58 88 26
0.35698780 0.01818567 0.08807515 62 91 27
0.35874122 0.01819335 0.02581003 77 97 36
0.35687572 0.01928915 0.02589476 85 109 35
0.35450366 0.02156652 0.03425567 82 107 26
0.35926414 0.01533432 0.02039616 114 121 90
0.35051742 0.00573142 -0.00418277 85 103 4
0.35072520 0.00688164 -0.00362637 52 68 3
0.35098884 0.00727457 -0.00566831 50 65 0
0.36098981 0.01575245 0.03203100 124 151 44
0.36593759 0.00876427 0.03336400 131 142 82
0.36533350 0.02263407 0.08701339 59 84 19
0.35132030 0.00643807 -0.01183665 89 95 9
0.35128888 0.00708040 -0.01096001 63 72 0
0.35515141 0.00682296 -0.02188761 59 59 0
0.35981104 0.01629961 0.08219521 72 101 35
0.36409554 0.01406575 0.03367254 85 107 34
0.36508864 0.01170067 0.02923130 103 127 7
0.35599473 0.01174255 -0.01547918 65 84 5
0.36636150 0.01252181 0.03405465 124 149 58
0.34956038 0.00430816 -0.00044486 82 91 12
0.34939948 0.00383653 -0.00200682 68 79 11
0.35156584 0.00875329 -0.01100108 55 71 9
0.35161659 0.00975569 -0.00743704 70 93 3
0.34864396 0.01520946 -0.01561407 90 113 25
0.35452101 0.01549669 -0.00045931 66 87 10
0.35403007 0.01482616 -0.00116691 87 112 18
0.34916362 0.01744478 -0.01145778 142 163 98
0.35468283 0.01199974 -0.01073819 77 92 7
0.34494200 0.00188654 0.00773121 78 112 18
0.35532057 0.01412144 -0.00868152 56 58 34
0.34975109 0.00517460 -0.01719725 86 105 13
0.34946713 0.00521871 -0.01560664 106 122 24
0.36414713 0.02036691 0.07814344 108 118 58
0.36244157 0.01592225 0.07937051 84 111 32
0.34946293 0.01727396 -0.00760749 95 115 30
0.34673762 0.00310804 0.01143539 74 101 22
0.34348363 0.00137255 0.01112608 83 105 41
0.35127494 0.01066838 -0.02982617 68 85 17
0.34944153 0.01240286 -0.01148689 85 114 30
0.36660394 0.02454191 0.09139078 67 88 0
0.34948975 0.01187304 -0.02491769 70 94 32
0.36593747 0.01814648 0.07190885 121 131 60
0.36707950 0.01422255 0.07141356 105 122 44
0.36888051 0.01030432 0.06087945 144 156 110
0.36758196 0.01204853 0.06092374 115 128 49
0.36638370 0.01365275 0.06054122 156 173 59
0.36704966 0.01275002 0.06073158 101 111 40
0.36772859 0.02164361 0.09696028 103 129 55
0.36990055 0.02138785 0.09932905 65 94 27
0.36519912 0.02351625 0.08352687 79 97 11
0.34913680 0.01313153 -0.02732005 66 91 36
0.34961864 0.01401950 -0.03182756 48 68 15
0.36384723 0.01843119 0.07665171 85 111 38
0.36463472 0.01471768 0.07483495 74 98 38
0.35011727 0.00969718 -0.02162377 75 100 34
0.35053807 0.01391087 -0.03327116 47 67 16
0.35223588 0.00723171 -0.02540502 115 130 49
0.35340825 0.01027427 -0.03111452 90 111 34
0.35273817 0.01354340 -0.03362606 60 80 17
0.34855768 0.01475601 -0.00817053 90 118 33
0.34931353 0.01244388 -0.00769810 72 104 21
0.34846696 0.01372838 -0.02489354 99 121 56
0.44046196 0.22895518 0.37877181 179 195 27
0.43667573 0.22736095 0.37497652 211 221 3
0.43400440 0.23321356 0.38120478 189 212 106
0.43461287 0.22212961 0.36481220 199 208 17
0.42778143 0.22373305 0.33502486 94 112 12
0.42688781 0.22147204 0.33182478 73 89 14
0.44619349 0.22410163 0.37109175 165 172 14
0.44383332 0.22327672 0.36819553 172 174 11
0.44313571 0.22359899 0.36877993 180 185 21
0.43533733 0.23084174 0.37868440 177 206 20
0.45392615 0.24163590 0.38163352 150 182 37
0.45520905 0.26060346 0.38831353 148 171 3
0.45505872 0.25198162 0.38870564 150 182 75
0.45416081 0.25116101 0.38850203 173 201 88
0.45952249 0.23119925 0.37034336 134 154 7
0.44241521 0.23551449 0.38451180 220 232 98
0.44947395 0.24497440 0.38906664 195 226 97
0.44925487 0.24386336 0.38846466 174 205 76
0.45711082 0.24385816 0.38016498 179 219 68
0.44901657 0.25000721 0.39661554 175 202 71
0.45188197 0.24787165 0.38785699 175 205 75
0.44969323 0.24235545 0.38652587 195 217 80
0.45357180 0.24526298 0.38402802 151 178 45
0.45106456 0.23997277 0.38302648 191 226 61
0.44405818 0.22933824 0.36154944 118 141 11
0.43854535 0.23358119 0.38272581 191 212 55
0.46169296 0.24403021 0.37459946 160 202 16
0.44925690 0.23057023 0.36107346 40 75 9
0.45276982 0.23099421 0.36398160 91 121 35
0.44761646 0.24346510 0.38219148 130 155 1
0.45776135 0.24758559 0.37485927 170 198 2
0.45500273 0.24552304 0.37594977 172 191 3
0.44412273 0.23312058 0.35498482 74 98 12
0.42976457 0.22623789 0.34087709 99 120 3
0.43196428 0.23011766 0.34178585 106 125 0
0.43826118 0.23382297 0.34737763 83 109 18
0.43828171 0.22900662 0.35145980 99 116 4
0.43577564 0.23063837 0.34717897 113 128 0
0.44173908 0.23218055 0.35289472 74 98 0
0.44366148 0.23036452 0.35697100 117 141 19
0.45366639 0.22954306 0.36620116 74 97 27
0.45550013 0.22951646 0.36824834 89 111 28
0.44044033 0.22344558 0.36824521 168 180 8
0.44231057 0.22535457 0.37327126 181 198 6
0.43347892 0.23233046 0.34169307 66 92 5
0.46356782 0.23972717 0.37667370 192 216 30
0.46263686 0.23712789 0.37517807 121 132 30
0.43257463 0.23192233 0.34069315 62 87 3
0.44622728 0.22935545 0.35915384 108 137 11
0.44598484 0.23186061 0.35704538 49 79 5
0.43462110 0.22861646 0.34684187 67 91 0
0.45861384 0.22753525 0.37334606 78 101 10
0.44192761 0.23334518 0.35203731 103 133 35
0.42514989 0.21689644 0.33768216 98 116 4
0.42599165 0.21837166 0.33885056 82 99 5
0.42753986 0.22213896 0.33987442 99 117 5
0.42905882 0.22241923 0.34329855 96 117 14
0.42995486 0.22272253 0.34423730 100 123 6
0.45075306 0.23229925 0.36210021 81 110 18
0.45346645 0.23161246 0.36464792 85 116 23
0.43347830 0.23230766 0.34238809 82 103 0
0.44605961 0.24698234 0.38584146 192 217 2
0.44843021 0.23241451 0.36307365 65 90 9
0.45274898 0.24642798 0.37900490 206 225 12
0.46245983 0.22999306 0.37474206 215 214 121
0.43746352 0.22568731 0.37261012 220 225 11
0.43692166 0.22602183 0.37298578 231 228 3
0.45262539 0.23374616 0.37938032 217 240 87
0.45626184 0.23213184 0.37838927 203 231 7
0.45641717 0.23079094 0.37728938 145 183 2
0.42876336 0.22736052 0.33721319 78 98 0
0.44476146 0.23107079 0.35758567 116 141 14
0.44828072 0.23217708 0.36551198 133 153 32
0.44626451 0.23184451 0.36156926 106 130 10
0.45618591 0.23885016 0.37301946 162 188 1
0.45305106 0.22747211 0.37508929 97 118 0
0.45481539 0.22649643 0.37398252 83 110 0
0.45158714 0.22570308 0.37005749 86 102 3
0.45409113 0.22626750 0.37091723 101 120 31
0.45780447 0.23345900 0.37858641 145 186 0
0.45438254 0.23427942 0.37906319 148 185 17
0.43373862 0.23023346 0.34477428 120 136 1
0.45474392 0.26538491 0.39064461 174 189 12
0.45327872 0.26674932 0.39078325 152 177 11
0.44497269 0.26255870 0.39425635 190 199 0
0.44512939 0.26611078 0.39407355 205 217 9
0.45139271 0.26698104 0.39141232 160 180 5
0.44791624 0.26439783 0.39345241 209 219 11
0.45868164 0.22788237 0.37528306 70 95 0
0.46071503 0.22855352 0.37697047 180 200 67
0.45011303 0.25809941 0.39233887 170 194 0
0.43706214 0.23773722 0.38685277 198 221 130
0.44280931 0.22882596 0.35598475 89 115 8
0.43853459 0.22624359 0.35279629 96 119 2
0.44431779 0.22919393 0.35740671 112 138 5
0.45799136 0.25754288 0.39269528 109 139 41
0.45650607 0.25403097 0.38917702 100 130 30
0.45809770 0.25710219 0.39121872 93 122 32
0.42915443 0.22576346 0.36965469 162 186 88
0.43019146 0.22349803 0.36660567 181 200 12
0.42988518 0.22668648 0.37118691 161 184 93
0.42834884 0.22687222 0.37081888 160 181 78
0.44237366 0.24107268 0.37406176 178 198 2
0.44271642 0.22982967 0.36784440 161 172 8
0.44316295 0.23257154 0.36821726 104 114 0
0.45058680 0.23069887 0.37895840 167 204 65
0.44885206 0.24239513 0.37520561 220 236 13
0.44569308 0.24203166 0.37487093 208 237 7
0.45470470 0.25713855 0.38385350 158 192 17
0.45611387 0.25586444 0.38129711 160 194 11
0.44135496 0.23605455 0.38525015 168 190 56
0.44436458 0.23155048 0.38127002 194 218 72
0.43360817 0.21958207 0.35733140 106 127 24
0.44124752 0.22240978 0.36547780 97 122 21
0.44127968 0.24060427 0.38994449 179 205 56
0.44078192 0.23317225 0.38235709 219 230 89
0.46063751 0.23968486 0.37844029 182 220 39
0.45861489 0.24075882 0.37906826 169 205 69
0.45797914 0.22950095 0.37036136 83 102 12
0.46258441 0.23033908 0.37750250 219 214 120
0.46301988 0.24021602 0.37739342 202 229 54
0.44823858 0.25393769 0.38833266 212 233 4
0.45385429 0.25543243 0.38406834 158 192 18
0.45273721 0.25096571 0.38312298 102 137 0
0.44314295 0.24251837 0.37628663 228 251 13
0.44895053 0.23831564 0.38423893 144 170 45
0.44840536 0.23773581 0.38412961 168 195 62
0.44983923 0.25642508 0.39045745 188 205 11
0.45315132 0.25737801 0.38705006 154 187 12
0.45717382 0.26205292 0.38582385 147 172 10
0.45651624 0.26126441 0.38632715 151 179 19
0.42668685 0.21753775 0.34328738 97 116 9
0.42492372 0.21575646 0.33955655 87 103 15
0.44745865 0.24765156 0.38533366 210 231 12
0.45187145 0.25304389 0.38437656 134 167 0
0.45267808 0.25437552 0.38439211 120 158 0
0.44753054 0.24515006 0.38401562 219 233 22
0.43008253 0.21845320 0.35520718 145 158 26
0.43192652 0.21942843 0.35727677 100 117 15
0.44076070 0.24209492 0.39153799 220 237 133
0.45393613 0.24189132 0.37433422 161 192 10
0.44451711 0.23140329 0.36580518 135 153 19
0.44303089 0.25298008 0.38747975 196 227 10
0.44048464 0.24288677 0.38461715 239 253 8
0.44332156 0.24222514 0.37925717 217 231 12
0.44612071 0.22635509 0.37643045 145 174 6
0.45017210 0.22768156 0.37599739 152 174 27
0.44079959 0.22212788 0.36337954 96 120 26
0.43530566 0.22132774 0.35624322 124 137 31
0.43384865 0.21975820 0.35702252 116 133 27
0.44558132 0.24475899 0.39251322 140 165 35
0.44732356 0.25289434 0.38623849 222 251 13
0.44909966 0.22433805 0.37107506 141 156 11
0.44164962 0.22847103 0.35618180 121 143 17
0.46314037 0.25628936 0.38237807 151 184 53
0.46188939 0.25874785 0.38639179 136 168 41
0.46226954 0.25979629 0.38386673 107 136 30
0.46038300 0.26306492 0.38435718 142 162 28
0.46314198 0.25779623 0.38319716 156 189 36
0.45907062 0.24424122 0.37951458 144 185 53
0.45002195 0.25048426 0.39577663 137 163 54
0.45045245 0.24992631 0.39384100 111 137 40
0.45996726 0.26431954 0.38597754 153 171 27
0.45222360 0.25154772 0.39336714 147 179 70
0.42893937 0.21909237 0.34852207 102 121 13
0.42726868 0.21693605 0.35190660 138 150 16
0.44743016 0.24501775 0.39109120 161 193 50
0.44622147 0.24204408 0.38926437 201 229 59
0.44302046 0.22842412 0.35984689 135 156 25
0.42637861 0.22028974 0.33697385 91 111 14
0.42676041 0.22095299 0.33458024 75 93 11
0.45578143 0.24442413 0.38170204 182 209 70
0.43139443 0.22243993 0.36523163 165 186 21
0.43566641 0.22305015 0.36705238 193 200 6
0.44993833 0.23250169 0.36702955 89 111 0
0.45770764 0.23559050 0.37182769 182 205 11
0.45521933 0.23449892 0.37018690 167 193 6
0.43308488 0.22545026 0.34607792 92 114 3
0.43131277 0.22511791 0.34368849 89 108 1
0.44597128 0.22678867 0.36087018 74 100 9
0.44168797 0.22295405 0.36308056 114 133 26
0.44552040 0.24436757 0.38445854 169 203 0
0.43508056 0.22244787 0.35353750 80 100 13
0.43414921 0.22224659 0.35198960 77 92 7
0.44836730 0.23437147 0.36709920 120 139 0
0.44792479 0.23791064 0.36877808 114 136 0
0.46074191 0.23564823 0.37364095 174 201 26
0.45807686 0.25230172 0.38295668 156 196 63
0.45993930 0.25797293 0.38720700 107 141 44
0.45884165 0.25469211 0.38313118 171 208 50
0.46103466 0.25087035 0.38061172 156 199 66
0.46051788 0.25279492 0.37936413 134 166 39
0.46180150 0.25285646 0.37880605 133 145 131
0.45778981 0.25417289 0.38466811 132 165 50
0.45903051 0.26140302 0.38123807 133 159 0
0.45803672 0.25317091 0.37922519 127 166 0
0.44837749 0.23993200 0.37100247 177 203 16
0.43658912 0.22686695 0.35093150 102 122 1
0.46264198 0.25103912 0.37795669 107 120 92
0.46326789 0.24434599 0.37796590 174 214 40
0.46319833 0.25211683 0.37982339 159 196 57
0.42724153 0.22193761 0.34427753 107 127 12
0.42735288 0.22147889 0.34643424 101 118 3
0.43036941 0.22051069 0.34905034 137 152 9
0.42169484 0.22826235 0.34475100 88 111 3
0.42489222 0.22674088 0.35285905 99 123 1
0.42461804 0.22490127 0.34267771 73 93 4
0.47728750 0.28487384 0.42592993 227 235 64
0.46542519 0.27191201 0.41619742 211 232 115
0.46886954 0.27168092 0.41359976 144 174 24
0.46693569 0.26821408 0.41050890 142 175 58
0.43503320 0.25271660 0.39479908 200 219 6
