-0.04241019 0.13663954 -0.23355666 70 106 68
-0.13079281 0.18245107 -0.22789027 93 139 7
-0.15513575 0.22924195 -0.24502213 117 145 107
-0.07610406 0.13469486 -0.23713587 109 149 37
-0.04091362 0.11927994 -0.25286695 78 120 22
-0.06947654 0.13345982 -0.24214731 100 127 58
-0.10183170 0.18866420 -0.22133182 42 48 38
-0.06507967 0.14970878 -0.23510137 54 101 0
-0.17008604 0.23201147 -0.25447878 62 89 8
-0.02583489 0.12011371 -0.26116723 81 127 29
-0.04040738 0.10140098 -0.25656447 132 178 17
-0.08079240 0.13577566 -0.23260610 54 101 0
-0.02204315 0.09500515 -0.29518849 100 153 65
-0.09048315 0.14293022 -0.23245996 121 164 75
-0.09939832 0.15333098 -0.22274667 114 166 6
-0.08652753 0.16097872 -0.23167257 112 130 18
-0.09986953 0.14754745 -0.22310621 125 165 50
-0.09443408 0.15116782 -0.22750431 52 101 0
-0.03169909 0.08823583 -0.28777269 63 96 15
-0.08001425 0.15181793 -0.23563616 112 165 13
-0.11736137 0.18061091 -0.22347373 86 124 11
-0.14208627 0.22119732 -0.23868550 125 138 84
-0.12416873 0.17813659 -0.22830106 121 168 10
-0.16413857 0.23137932 -0.25061965 21 55 0
-0.15557747 0.21192288 -0.23511471 49 87 2
-0.04272775 0.11202903 -0.25142771 147 203 34
-0.09736041 0.18400459 -0.22161379 87 128 24
-0.05249555 0.12505943 -0.25006628 87 117 27
-0.16554441 0.21940918 -0.24194303 40 71 0
-0.15551873 0.21730977 -0.23780568 132 162 74
-0.15595947 0.22136916 -0.24024634 34 70 0
-0.05726195 0.11426568 -0.24608722 97 132 40
-0.16041645 0.21289220 -0.23559006 69 118 3
-0.12190402 0.18299673 -0.22523801 65 101 3
-0.09122968 0.15908277 -0.22886331 164 219 30
-0.05662280 0.14133115 -0.23834859 28 81 3
-0.16687371 0.21900454 -0.24123786 64 101 8
-0.04383021 0.10571937 -0.25437465 150 189 72
-0.02930635 0.12043747 -0.25283641 84 125 57
-0.03963505 0.11172206 -0.25389871 87 130 59
-0.03421170 0.11234049 -0.25834179 123 157 107
-0.08655090 0.16630487 -0.22680141 116 138 73
-0.12283929 0.17363147 -0.22736299 101 161 5
-0.02991571 0.12284444 -0.24955676 81 127 18
-0.02295174 0.10365375 -0.27830553 87 139 67
-0.03781109 0.10295401 -0.26050827 85 123 14
-0.03787062 0.11617699 -0.25229087 111 142 85
-0.01830136 0.10498245 -0.27952766 102 152 57
-0.10756078 0.18099044 -0.22379115 51 86 2
-0.01221792 0.10722983 -0.28206316 107 160 78
-0.01899911 0.10365127 -0.28172553 130 185 55
-0.15264691 0.20630307 -0.23668596 46 85 0
-0.02245504 0.10266872 -0.28159830 98 146 86
-0.14215711 0.20732154 -0.23267843 98 151 7
-0.11793070 0.17010543 -0.22120237 91 130 24
-0.12332658 0.16907004 -0.22619368 94 128 34
-0.07496236 0.14043437 -0.23108818 111 162 0
-0.07247230 0.14245825 -0.23107630 102 145 12
-0.02344105 0.08677170 -0.29525688 128 203 121
-0.09117888 0.14658061 -0.23186958 88 135 7
-0.01297091 0.10162020 -0.29027942 69 133 59
-0.02123505 0.09976681 -0.29076183 109 158 93
-0.02284620 0.09885809 -0.29051474 85 135 72
-0.00914168 0.09712953 -0.29680410 110 165 71
-0.02938607 0.11511629 -0.25974891 88 128 40
-0.12846769 0.19827634 -0.22959170 56 95 12
-0.14467728 0.21920508 -0.23699385 74 102 27
-0.13952903 0.21177228 -0.23265120 108 161 9
-0.02812961 0.10249865 -0.27365112 94 142 68
-0.02392218 0.10846331 -0.27348360 148 197 71
-0.04118524 0.10234800 -0.25609908 152 192 70
-0.07081734 0.14528452 -0.23122619 103 150 20
-0.02576607 0.11616247 -0.26526234 84 131 51
-0.02846464 0.09001725 -0.28865197 126 164 77
-0.04606666 0.11541412 -0.24940135 112 156 81
-0.01328065 0.10071377 -0.29401404 71 132 52
-0.15980753 0.22372466 -0.24257796 27 64 0
-0.12965991 0.18409936 -0.22736794 99 147 12
-0.11948971 0.18597740 -0.22408819 92 140 4
-0.15672074 0.22959402 -0.24327438 40 66 39
-0.13198285 0.17588890 -0.22879137 43 80 13
-0.05117606 0.11344913 -0.24769840 192 227 36
-0.01289829 0.10398518 -0.28312856 114 164 31
-0.03731531 0.09687413 -0.28127614 99 139 16
-0.10239526 0.18376908 -0.22175680 82 118 44
-0.07382887 0.13094017 -0.24270016 86 107 32
-0.05516177 0.11147793 -0.24929658 115 156 54
-0.07118148 0.13409869 -0.23499174 79 137 24
-0.03052611 0.09571146 -0.28455618 99 148 30
-0.08593276 0.16769236 -0.22517787 86 113 96
-0.02659698 0.08176942 -0.38567820 94 112 50
-0.03505582 0.08605003 -0.39465863 144 109 79
-0.03348154 0.08460487 -0.39313057 71 52 46
-0.00013387 0.09331533 -0.30791348 90 137 83
-0.04300596 0.08916801 -0.41273037 166 107 77
-0.01222900 0.10040783 -0.36178648 165 170 164
-0.04303604 0.09334810 -0.40978479 90 69 48
-0.01196262 0.10438439 -0.32342294 62 84 20
-0.01030680 0.09570027 -0.35419956 118 122 72
-0.00989971 0.09424880 -0.35414687 81 87 49
-0.02749819 0.10043808 -0.39381981 67 85 37
-0.03247815 0.09669538 -0.40562952 38 51 0
-0.03526920 0.08278252 -0.39697859 116 87 73
-0.02206572 0.09209891 -0.37666035 28 54 17
-0.02365813 0.09216581 -0.38111341 37 60 18
-0.01786913 0.09780384 -0.37840268 32 59 4
-0.03213224 0.08423812 -0.40200657 44 77 46
-0.02889973 0.08436103 -0.39848229 40 79 35
-0.01065220 0.09517197 -0.34338528 74 84 47
-0.00486778 0.10608389 -0.31993312 89 85 58
-0.00073614 0.10360824 -0.30559009 36 96 44
-0.00399965 0.10533675 -0.31913462 110 95 56
-0.02918460 0.09524915 -0.39650548 53 73 22
-0.01075399 0.08866196 -0.32344627 64 90 55
-0.01058535 0.09525377 -0.33010635 54 85 18
-0.03830482 0.09792792 -0.42454112 38 35 4
-0.03612742 0.09735819 -0.42100534 34 33 2
-0.00367337 0.09863058 -0.32836944 211 215 200
-0.00860554 0.10925774 -0.33302289 140 144 129
-0.03065948 0.09755515 -0.40040305 53 68 11
-0.03023685 0.09178634 -0.39282185 42 67 12
-0.02700184 0.09206226 -0.38848963 59 80 37
-0.01473098 0.10067409 -0.36780059 53 91 8
-0.01845685 0.09038202 -0.33498409 59 88 0
-0.01403397 0.10265748 -0.35552040 63 81 55
-0.01447998 0.10078442 -0.35587826 20 52 0
-0.01449336 0.10587895 -0.32828474 67 84 29
-0.01645417 0.10043229 -0.33342260 50 74 12
-0.01632365 0.10207694 -0.33158761 71 93 8
-0.01448706 0.10532377 -0.33730960 80 94 71
-0.02043306 0.08866008 -0.34417149 49 82 0
-0.01841320 0.09220539 -0.34604171 46 77 1
-0.03763638 0.09419560 -0.41162661 29 37 0
-0.01924242 0.09173647 -0.36864239 27 58 1
-0.01159982 0.10144357 -0.35289270 113 111 125
-0.01611281 0.09850205 -0.34963372 20 55 0
-0.01488305 0.10103641 -0.36375242 56 94 7
-0.01848946 0.09303405 -0.36534843 0 36 3
-0.00910300 0.10936713 -0.31984213 82 102 30
-0.01083495 0.10508030 -0.32178473 67 87 26
-0.02447689 0.08724735 -0.34870395 52 80 6
-0.02429189 0.08728979 -0.37913707 31 60 0
-0.01974924 0.09124817 -0.36867905 26 57 0
-0.00634298 0.10379106 -0.33325136 127 119 106
-0.01779726 0.08564906 -0.33101025 55 77 4
-0.02051221 0.08669362 -0.33749145 57 83 0
-0.00344708 0.08733997 -0.32412741 94 122 61
-0.00497150 0.08946499 -0.32359093 154 174 125
-0.01675672 0.09438644 -0.34398770 19 52 0
-0.00158702 0.08803093 -0.31673950 0 16 0
-0.01691208 0.08068129 -0.33147389 86 115 25
-0.01295598 0.10147452 -0.35963893 191 195 194
-0.00858835 0.09384924 -0.32632738 51 82 22
-0.03284542 0.09361001 -0.40099964 39 54 0
-0.01032324 0.11133645 -0.32711983 120 142 80
-0.03312674 0.08766320 -0.41595483 39 73 57
-0.03844445 0.08891531 -0.40896514 60 71 54
-0.04238339 0.09507389 -0.42234066 59 50 9
-0.01010274 0.09946058 -0.35066581 82 91 96
-0.02241317 0.08995179 -0.35773540 13 43 5
-0.04132508 0.09134642 -0.40516719 117 89 68
-0.04177476 0.08914988 -0.40808910 159 93 79
-0.03552206 0.08678301 -0.40995505 38 76 53
-0.00643442 0.09894063 -0.33582568 122 117 140
-0.00494174 0.09783154 -0.33007386 209 209 159
-0.00541787 0.09736135 -0.32447746 29 69 17
-0.01308186 0.10431064 -0.34442675 111 132 73
-0.01676075 0.10377470 -0.33996940 26 51 0
-0.00296922 0.10226534 -0.31537077 5 75 21
-0.02624355 0.08018837 -0.38875976 65 95 23
-0.01840466 0.08917431 -0.38818336 50 96 21
-0.02844989 0.07986823 -0.39094821 59 95 21
-0.01606949 0.09593181 -0.35221711 18 57 0
-0.01771593 0.09373024 -0.35766581 0 18 0
-0.02959345 0.08772898 -0.38779080 61 89 41
-0.02457984 0.08607095 -0.39454690 49 86 43
-0.03829214 0.08609401 -0.40442440 125 106 92
-0.03053721 0.08971038 -0.40548858 30 75 44
-0.03707377 0.08721630 -0.42047766 47 81 64
-0.00652889 0.10150275 -0.33680278 166 164 169
-0.00587174 0.10312377 -0.33218926 129 117 105
-0.04150852 0.08981278 -0.41932821 70 83 53
-0.00459771 0.10589460 -0.32314807 58 52 40
-0.03583086 0.08684786 -0.41400599 49 84 64
-0.01388625 0.09785828 -0.32594210 53 81 7
-0.01546700 0.09433310 -0.32627606 49 73 15
-0.01679416 0.09628961 -0.33835593 23 64 0
-0.01762883 0.08384774 -0.33147705 110 137 24
-0.03464517 0.08563231 -0.40655422 34 77 50
-0.00099855 0.10215033 -0.30629829 47 106 48
-0.00083981 0.09435868 -0.30862147 41 83 33
-0.19463129 0.28675571 -0.38926899 103 119 70
-0.19223052 0.28252903 -0.39173430 118 132 57
-0.19511838 0.28982708 -0.40059641 95 108 55
-0.19760238 0.29277605 -0.40548745 82 98 51
-0.19183223 0.28072423 -0.38936067 122 136 59
-0.19430020 0.28395537 -0.38186184 97 114 60
-0.19838738 0.28877485 -0.38787490 83 100 66
-0.19580396 0.28738329 -0.38713792 96 113 69
-0.19795842 0.29067901 -0.39838788 84 99 60
-0.19636281 0.27067122 -0.36571988 96 125 58
-0.19084835 0.27529851 -0.37681520 122 140 78
-0.19534312 0.27400309 -0.37668520 107 129 54
-0.19421694 0.27592555 -0.38243029 117 140 50
-0.36535898 0.31835100 -0.27730793 66 90 54
-0.36601740 0.31848240 -0.27766266 68 92 56
-0.40185896 0.32464072 -0.30145937 45 79 28
-0.36785379 0.32189107 -0.27851918 62 86 50
-0.39657414 0.32904407 -0.29888520 33 72 9
-0.38084576 0.32702196 -0.28992060 40 82 10
-0.38175738 0.32906377 -0.29064497 27 69 3
-0.35601977 0.31977010 -0.27251494 59 99 29
-0.37339473 0.32123080 -0.28264585 51 72 31
-0.37680104 0.32919124 -0.29022136 52 81 37
-0.36315820 0.31746385 -0.27565077 61 85 37
-0.36405540 0.31982413 -0.27387691 46 74 15
-0.39808813 0.32422528 -0.29916880 36 73 19
-0.38831595 0.32728651 -0.29448932 30 63 10
-0.40152231 0.32392165 -0.30419543 69 99 47
-0.40967450 0.32453319 -0.31413794 108 132 82
-0.27276585 0.29691356 -0.26491007 55 89 13
-0.35020977 0.31693259 -0.27091530 67 102 22
-0.27998203 0.29534778 -0.26517606 64 98 21
-0.33134723 0.31363574 -0.26726538 60 92 17
-0.31271625 0.30903554 -0.27120784 49 51 72
-0.29964134 0.30393749 -0.27125818 71 100 46
-0.33159283 0.31506577 -0.26846826 65 105 6
-0.35031331 0.32673863 -0.27281159 68 91 47
-0.29074797 0.30137256 -0.26913273 67 98 28
-0.34851989 0.32456815 -0.27181223 38 59 28
-0.27542004 0.30764556 -0.26805735 31 59 8
-0.32731435 0.31665355 -0.27119571 63 94 18
-0.31376654 0.31156021 -0.27307406 57 58 79
-0.28220117 0.30450869 -0.26775879 45 67 21
-0.28470469 0.30048856 -0.26772273 71 94 52
-0.27943099 0.29579166 -0.26518723 73 107 30
-0.33758435 0.32088044 -0.27000740 57 101 4
-0.34943762 0.32115328 -0.27254623 72 103 35
-0.33864862 0.32579628 -0.27260143 82 123 3
-0.34078774 0.32339928 -0.26991749 84 127 9
-0.28108251 0.30022281 -0.26742494 76 99 53
-0.33507153 0.32680368 -0.26975223 62 88 27
-0.28119060 0.29858956 -0.26380923 63 92 26
-0.34105185 0.32897311 -0.27055040 118 128 104
-0.33589175 0.32562181 -0.27211559 63 103 14
-0.29988489 0.30526426 -0.27153695 74 96 49
-0.29480419 0.30600515 -0.27002347 90 100 92
-0.22262947 0.28095636 -0.30452934 55 86 19
-0.26582110 0.29440314 -0.27012160 58 89 22
-0.26334581 0.29386732 -0.27131966 75 104 48
-0.23761366 0.28543517 -0.28592506 64 97 26
-0.23833437 0.28541893 -0.28554592 64 97 26
-0.27185109 0.29926723 -0.26745680 50 73 17
-0.26178101 0.29517815 -0.27293855 62 81 51
-0.25843015 0.29386345 -0.27480504 47 68 27
-0.24711221 0.28913760 -0.28082579 59 89 25
-0.27230307 0.29681355 -0.26775923 56 88 15
-0.22005819 0.27849787 -0.30563328 58 89 22
-0.21245311 0.27951255 -0.31500652 44 70 9
-0.23211397 0.28450122 -0.29188141 59 88 24
-0.21091029 0.27566457 -0.32119507 36 64 3
-0.24124306 0.29145190 -0.28311753 60 95 31
-0.21721844 0.27905533 -0.30839315 82 112 50
-0.21850312 0.28144813 -0.30684200 53 84 25
-0.21548544 0.28096709 -0.31081876 43 71 13
-0.20731801 0.27546376 -0.32181865 62 91 25
-0.24897531 0.29542613 -0.27719995 50 86 24
-0.24239054 0.28946611 -0.28215626 64 99 35
-0.45151624 0.14066191 -0.17352250 36 81 0
-0.48935831 0.12727790 -0.23272847 95 152 13
-0.45086205 0.14717416 -0.18356960 36 72 11
-0.46545732 0.13182451 -0.22130655 66 115 10
-0.46723720 0.13085751 -0.22771598 77 127 14
-0.45059347 0.13784228 -0.19370508 43 84 6
-0.45335653 0.13571741 -0.18901744 57 101 6
-0.45365426 0.13971221 -0.17793289 46 90 1
-0.45177180 0.13308045 -0.18445049 110 150 27
-0.45056400 0.13222051 -0.18467493 71 115 4
-0.47906521 0.11761100 -0.24102923 84 130 31
-0.43772855 0.16720301 -0.15085974 78 106 68
-0.47344330 0.13902466 -0.21100190 26 56 32
-0.46879834 0.13778618 -0.20177487 57 95 46
-0.47427738 0.13253726 -0.20868134 68 104 56
-0.44327202 0.14830717 -0.16218801 58 90 15
-0.44060281 0.14864863 -0.15602870 75 112 0
-0.44064188 0.16632442 -0.16042426 66 86 58
-0.47494540 0.12276386 -0.25347465 60 76 49
-0.43564507 0.17561206 -0.15234588 54 76 55
-0.47211859 0.12862265 -0.24034309 45 73 25
-0.46225569 0.12840649 -0.23197365 42 67 25
-0.46562454 0.12010372 -0.24167293 13 51 0
-0.46690211 0.13910106 -0.21439877 73 113 17
-0.47587940 0.12233011 -0.24065118 99 145 36
-0.48696283 0.12362223 -0.22848794 91 132 66
-0.48348013 0.12910867 -0.22166018 82 119 67
-0.42828774 0.17045523 -0.15892151 11 53 5
-0.43283811 0.17033467 -0.16154924 65 91 64
-0.44081017 0.16289173 -0.17008406 106 135 55
-0.46535775 0.12131427 -0.24107811 9 44 4
-0.45098823 0.13412406 -0.19615799 58 105 0
-0.41659325 0.16506505 -0.13366188 27 75 0
-0.48860973 0.10695682 -0.27110699 45 75 15
-0.45103005 0.13973695 -0.19278981 37 75 0
-0.42842305 0.17968222 -0.14849144 2 36 0
-0.43716842 0.15412173 -0.15151519 41 73 8
-0.43822834 0.15588424 -0.15616110 77 118 0
-0.44028348 0.16063198 -0.16254251 13 51 0
-0.42806113 0.18012553 -0.14103003 49 104 3
-0.42946318 0.17912991 -0.13859609 12 64 2
-0.46675864 0.13881652 -0.21592714 75 115 16
-0.43914515 0.15719859 -0.15873457 22 60 1
-0.43514231 0.15898439 -0.14968477 100 153 11
-0.43637758 0.15172160 -0.14915577 105 138 8
-0.43436921 0.15056174 -0.14828023 52 93 0
-0.43283138 0.17977345 -0.15306155 63 88 66
-0.42576450 0.16611147 -0.13641639 38 94 0
-0.42425507 0.16968966 -0.13261104 140 184 11
-0.42240998 0.14924879 -0.14312959 149 200 11
-0.43439418 0.17718486 -0.15407318 80 105 66
-0.48007402 0.11957222 -0.23864871 61 107 9
-0.41854799 0.15924855 -0.13604917 67 111 0
-0.42486855 0.13904785 -0.14598648 92 140 54
-0.44460431 0.15145926 -0.17359155 50 85 1
-0.44602272 0.13784754 -0.16440246 53 92 0
-0.43289229 0.17300929 -0.15210001 0 41 0
-0.44134498 0.15547533 -0.16984187 40 71 1
-0.43921751 0.15664095 -0.17048727 32 73 0
-0.49182785 0.10717037 -0.26319844 119 157 56
-0.42757592 0.17715228 -0.13204059 11 68 0
-0.44028002 0.14177138 -0.14847147 67 115 0
-0.42077813 0.15923609 -0.13713956 125 166 10
-0.43110293 0.16020478 -0.14425224 62 107 4
-0.42645797 0.17967954 -0.13321404 118 147 63
-0.42715469 0.18824263 -0.13131009 60 92 19
-0.43598247 0.15925570 -0.17019196 37 80 1
-0.45107275 0.14587303 -0.17482249 71 113 5
-0.48257717 0.11544702 -0.26324204 91 122 62
-0.42820331 0.17169845 -0.15633725 17 63 0
-0.44925806 0.14062044 -0.17039302 86 128 0
-0.42792666 0.17735589 -0.15046525 10 53 0
-0.45403442 0.14600207 -0.18432522 48 86 13
-0.44612530 0.15354693 -0.18113586 81 112 42
-0.47065073 0.13603184 -0.22007373 77 124 28
-0.43368751 0.16622356 -0.14767651 27 70 0
-0.43383595 0.17106843 -0.14827447 2 49 0
-0.48213723 0.10976411 -0.26658639 26 55 11
-0.46284401 0.12429886 -0.23472986 17 52 10
-0.41345125 0.16069624 -0.13086611 109 164 19
-0.42921633 0.17231923 -0.15547696 27 72 3
-0.42629480 0.15193173 -0.14292195 99 148 5
-0.46903801 0.12156203 -0.24897128 1 15 0
-0.46662280 0.13118291 -0.24046543 152 162 137
-0.43760392 0.16684015 -0.15844782 0 39 0
-0.48508805 0.10385231 -0.27612603 1 32 0
-0.44569033 0.13987565 -0.16463912 55 96 4
-0.41762176 0.15084352 -0.13952689 87 130 0
-0.43783683 0.16431567 -0.16339801 7 49 1
-0.43128574 0.16542828 -0.16429795 0 31 0
-0.44406903 0.14461090 -0.16084212 105 141 17
-0.40854436 0.15639375 -0.13460687 50 104 0
-0.48836458 0.12328317 -0.23429234 56 106 11
-0.46080402 0.12961771 -0.22502454 2 34 0
-0.46122780 0.13042474 -0.22244890 45 82 30
-0.44021896 0.13982232 -0.14713371 126 173 0
-0.45617709 0.14312731 -0.19800793 57 84 51
-0.48481593 0.11360712 -0.25330290 82 126 31
-0.48340476 0.11357565 -0.25953647 117 157 61
-0.48115438 0.13387640 -0.22424258 39 90 0
-0.47044146 0.13150524 -0.22479913 67 118 0
-0.43213433 0.13972688 -0.14545253 72 117 22
-0.43463987 0.14028464 -0.14646950 84 123 16
-0.44287407 0.15208206 -0.16553381 44 79 0
-0.40424606 0.15835533 -0.13539694 93 149 26
-0.44753850 0.14718793 -0.19030711 55 92 23
-0.43497211 0.16710079 -0.15968624 9 57 0
-0.48334792 0.11486156 -0.24901061 72 112 26
-0.47345594 0.13146117 -0.22461230 79 125 17
-0.45026463 0.14086618 -0.19445544 43 82 3
-0.45282343 0.13986230 -0.19756073 25 63 6
-0.48662555 0.12074123 -0.23484436 54 103 11
-0.45637688 0.14019436 -0.18456848 63 112 3
-0.46306336 0.13796474 -0.20710523 2 31 3
-0.45826453 0.14593656 -0.19534139 42 69 52
-0.43044960 0.17659584 -0.14713833 15 65 4
-0.41088390 0.16530010 -0.13445283 80 124 13
-0.47758299 0.13532367 -0.21721229 39 69 35
-0.44383889 0.13227729 -0.15284558 60 104 15
-0.48619106 0.12977259 -0.23422526 61 116 0
-0.45503777 0.14336783 -0.19759431 58 85 44
-0.47612306 0.12930870 -0.23349521 55 101 0
-0.43572050 0.16083761 -0.17146860 39 77 0
-0.47526181 0.12133928 -0.24190728 84 127 22
-0.44193870 0.15414673 -0.18028015 88 117 50
-0.43915203 0.13824026 -0.14738363 95 142 12
-0.40385047 0.16252972 -0.13564985 70 114 0
-0.42960796 0.18795112 -0.13338654 108 126 44
-0.42958498 0.18580198 -0.13456392 117 128 52
-0.44441450 0.13730218 -0.15486479 55 92 0
-0.43939391 0.16531049 -0.16767493 100 131 61
-0.48443931 0.10495003 -0.27442470 8 39 0
-0.43684030 0.16325714 -0.17072234 98 122 70
-0.47739965 0.11319407 -0.26443458 2 31 1
-0.48309946 0.12047534 -0.23476698 72 120 2
-0.47041541 0.12968642 -0.23470199 63 97 20
-0.46852890 0.13047402 -0.24112238 105 122 88
-0.42774940 0.14550468 -0.14827290 134 182 20
-0.43595812 0.14653851 -0.15060535 93 144 7
-0.44115940 0.16485621 -0.15977846 70 90 53
-0.47468781 0.12672275 -0.24325024 9 36 0
-0.42657286 0.16996261 -0.13497929 88 136 0
-0.43001947 0.16958509 -0.13947724 35 85 0
-0.43287784 0.16492373 -0.14418703 56 101 0
-0.44727057 0.14540395 -0.16758373 49 89 18
-0.43944672 0.13951083 -0.14748575 115 160 9
-0.42533877 0.14664547 -0.14586610 119 168 0
-0.48042893 0.13487805 -0.22569451 85 140 20
-0.47545269 0.13911518 -0.21601008 24 54 16
-0.42900538 0.17963400 -0.13658220 104 133 66
-0.48604774 0.11773763 -0.23773758 90 138 18
-0.47110453 0.14064360 -0.20797077 22 49 30
-0.46496058 0.14132600 -0.19920562 31 59 21
-0.43016064 0.18726358 -0.13654940 91 103 31
-0.43203008 0.18300189 -0.14030650 87 135 85
-0.43410179 0.17604108 -0.14454477 89 119 85
-0.44663250 0.14722154 -0.16759992 43 87 12
-0.41884154 0.14221850 -0.14696185 68 120 0
-0.45549330 0.13723537 -0.18878415 57 101 4
-0.44913846 0.13212037 -0.18035163 57 103 0
-0.43858904 0.14099611 -0.14849533 119 160 4
-0.44128370 0.13520817 -0.14741990 78 122 37
-0.47768739 0.12121252 -0.25253189 77 104 49
-0.42757753 0.18302764 -0.14350402 3 49 2
-0.47814855 0.12771760 -0.23793595 53 101 2
-0.41099533 0.15955234 -0.13087098 92 136 0
-0.46405461 0.13459329 -0.21364327 111 152 22
-0.45368376 0.14003214 -0.19870928 13 39 0
-0.40321845 0.15666236 -0.13866492 60 115 0
-0.43748456 0.14009035 -0.14715542 118 165 7
-0.42270464 0.14507213 -0.14251553 86 123 28
-0.41951576 0.13917844 -0.14445792 94 138 51
-0.47011793 0.14016739 -0.21544389 64 101 21
-0.43076929 0.17668313 -0.13838653 38 94 0
-0.43282530 0.14325604 -0.15170363 95 139 0
-0.43408379 0.16642340 -0.16565399 79 105 58
-0.43993109 0.15791577 -0.17724131 93 116 62
-0.44099733 0.15810817 -0.17783040 92 117 60
-0.44953501 0.14592065 -0.18809915 49 88 25
-0.48627847 0.12904216 -0.23495708 92 146 22
-0.43594390 0.14485671 -0.15114929 78 128 0
-0.20517905 0.02961496 -0.10257886 39 76 7
-0.20503424 0.03397443 -0.10418268 87 123 59
-0.20883477 -0.04035949 -0.07041308 80 113 26
-0.20250140 0.02189463 -0.10111677 73 113 24
-0.20544450 0.02309480 -0.10009931 59 104 3
-0.18892145 0.03001450 -0.08915339 119 168 27
-0.21817930 -0.06649109 -0.07102647 109 145 83
-0.20423383 0.02438642 -0.08517788 89 135 10
-0.20438758 0.02237448 -0.08553925 90 136 12
-0.20445216 0.03467960 -0.09581798 53 96 0
-0.20748574 0.04042625 -0.10312042 79 113 27
-0.20605162 0.03056313 -0.09930192 43 90 0
-0.20595372 0.04465364 -0.10709956 82 116 55
-0.20410465 0.02403449 -0.08414276 64 110 0
-0.20465460 0.01236793 -0.07919244 119 165 33
-0.19577195 0.00459382 -0.07968123 96 129 14
-0.21424304 -0.05026400 -0.07707183 109 147 88
-0.19539732 -0.00055400 -0.08271907 89 119 23
-0.22301307 -0.08670837 -0.07437146 157 175 117
-0.23787369 -0.10887378 -0.07087339 90 130 60
-0.19236603 0.00617116 -0.09153782 78 110 34
-0.20713943 -0.03754963 -0.07481229 60 92 17
-0.23485537 -0.10552385 -0.06899028 98 136 79
-0.20414670 0.04012937 -0.09559153 71 109 6
-0.20343100 0.05158460 -0.09512777 58 106 0
-0.20586197 -0.00936609 -0.08472314 77 122 5
-0.20065866 0.03602630 -0.08682648 115 168 24
-0.20001690 0.04381682 -0.08934461 115 164 23
-0.20507976 0.01877361 -0.09419847 101 152 15
-0.20472991 0.01689932 -0.09232252 61 106 0
-0.20013997 0.01705758 -0.10096789 57 95 12
-0.19731975 -0.01446364 -0.08817939 117 155 34
-0.23712775 -0.11381239 -0.07223707 80 120 49
-0.20185748 -0.00207291 -0.09466176 136 175 34
-0.20334950 0.00487634 -0.09492890 82 124 14
-0.20413978 0.02781381 -0.09041429 76 119 12
-0.20417963 0.03107979 -0.09138738 65 108 16
-0.20433061 -0.01427003 -0.08720293 75 122 8
-0.19309209 0.02012095 -0.09575664 61 89 14
-0.20120464 0.00261894 -0.09643285 128 172 35
-0.20173624 0.00084156 -0.09564898 129 169 46
-0.20384520 -0.02504413 -0.08546922 133 174 18
-0.19172427 0.01874677 -0.08615963 95 136 34
-0.19184422 0.01609005 -0.08456642 78 114 8
-0.20026979 -0.00556867 -0.09360579 99 134 8
-0.21917118 -0.07772291 -0.07906959 104 142 21
-0.21662265 -0.06976306 -0.07961132 120 162 52
-0.19662347 -0.01423902 -0.08659182 89 124 40
-0.22960262 -0.09869139 -0.06959159 115 145 85
-0.20331043 -0.02029461 -0.08523905 77 121 8
-0.20334721 -0.02675361 -0.08233374 77 114 60
-0.20784600 -0.04262240 -0.08081383 135 180 17
-0.20523344 0.00875631 -0.08329076 82 128 4
-0.20519190 0.00722082 -0.08094758 122 169 29
-0.20429587 0.02225723 -0.08712872 48 91 0
-0.20592768 0.00052483 -0.08472787 87 134 30
-0.20540935 0.00075987 -0.08684577 59 104 9
-0.19723380 -0.01797728 -0.08090365 80 115 47
-0.20916197 -0.01971384 -0.08007634 66 113 11
-0.20242728 -0.00179012 -0.09249899 82 123 5
-0.20442671 -0.00486237 -0.08892955 47 88 0
-0.20122080 0.03218730 -0.10528795 31 70 5
-0.20481527 0.01075027 -0.08701572 90 136 28
-0.20295945 -0.02702934 -0.08529910 137 172 72
-0.20988500 -0.04815901 -0.08016634 130 182 11
-0.23190752 -0.10512239 -0.07260979 86 120 36
-0.21372774 -0.05858655 -0.07888881 137 180 90
-0.19374280 0.00648384 -0.09555943 98 125 90
-0.20033215 0.03116528 -0.08414726 65 117 0
-0.20048192 0.02815991 -0.08276376 69 118 0
-0.20913129 -0.03741694 -0.07809088 79 111 61
-0.20520583 -0.04016690 -0.07893177 136 177 99
-0.19434132 -0.00131780 -0.09322198 100 133 80
-0.21421762 -0.05430222 -0.07859319 88 139 8
-0.19391745 0.00043977 -0.09361922 102 140 81
-0.20965633 -0.04685423 -0.07000960 93 130 52
-0.19292262 0.01361684 -0.09569127 53 84 27
-0.21644656 -0.06443828 -0.07476116 138 170 120
-0.21742840 -0.07739418 -0.07788511 133 174 70
-0.21830067 -0.07518414 -0.07448842 100 146 81
-0.21935989 -0.07153007 -0.07447547 112 156 97
-0.21517238 -0.06541675 -0.06561638 105 135 61
-0.22683410 -0.09618441 -0.07347136 125 129 70
-0.22675087 -0.09253624 -0.07607245 125 147 39
-0.19367278 -0.00447145 -0.08780097 83 117 31
-0.22097695 -0.07879672 -0.07232028 95 139 78
-0.22412142 -0.09199908 -0.07085323 112 143 84
-0.21277624 -0.05125355 -0.07399125 98 128 76
-0.20739567 -0.02291634 -0.08199792 61 105 7
-0.21492891 -0.05458596 -0.07732173 121 159 110
-0.20704250 -0.03461753 -0.08101725 83 124 4
-0.19088119 0.02780461 -0.09245251 99 136 0
-0.20259951 -0.01698543 -0.08309122 56 89 32
-0.21644016 -0.06162795 -0.07393633 110 143 100
-0.20282181 -0.02364990 -0.07723065 52 83 7
-0.20180301 -0.02140974 -0.07396718 108 151 10
-0.20094195 -0.02010880 -0.07353161 110 150 0
-0.19664523 -0.01195288 -0.07982684 101 133 26
-0.21488653 -0.06308109 -0.07753914 120 160 100
-0.20883745 -0.04456909 -0.07134512 101 139 56
-0.19651242 -0.00723162 -0.08007302 120 150 26
-0.20604059 -0.02787876 -0.08001032 65 95 45
-0.19530348 -0.00897130 -0.08558701 77 108 40
-0.19302355 0.02663460 -0.09409831 64 100 0
-0.33175942 0.21276413 -0.09719890 151 187 25
-0.32670653 0.21136007 -0.10194109 96 137 0
-0.41497177 0.17615150 -0.12172798 120 155 35
-0.35983503 0.19464195 -0.11178187 97 149 23
-0.36216235 0.17441991 -0.11908503 149 181 74
-0.36102894 0.19066466 -0.11788368 70 123 0
-0.34361142 0.16871896 -0.10971865 74 112 29
-0.37247080 0.17466170 -0.12000882 128 165 34
-0.37581718 0.18043812 -0.12266443 76 127 0
-0.35976398 0.19063866 -0.11838214 90 138 0
-0.35683781 0.15678923 -0.11022098 50 98 12
-0.34838620 0.15962021 -0.10991420 42 95 5
-0.38246423 0.16041583 -0.12394097 133 173 12
-0.38497585 0.16447364 -0.11006862 122 161 42
-0.39983204 0.14398602 -0.10293177 72 121 0
-0.35965708 0.18235862 -0.11911623 82 122 0
-0.36753726 0.18403797 -0.11917995 97 140 7
-0.35325873 0.21388796 -0.09820034 187 213 0
-0.34868118 0.21906734 -0.09971763 111 143 18
-0.40196258 0.17334332 -0.11968107 117 143 69
-0.34444934 0.17430784 -0.11590192 75 120 0
-0.41896510 0.17651616 -0.12381724 118 158 36
-0.38147199 0.15518500 -0.12017675 48 66 16
-0.35218695 0.16995980 -0.11447798 79 114 10
-0.34614173 0.17467919 -0.11514333 85 121 0
-0.37789208 0.16866970 -0.12276544 77 115 12
-0.36607790 0.19461660 -0.11508290 89 137 1
-0.39294711 0.17463663 -0.11523249 103 135 52
-0.34387779 0.18579160 -0.10722175 161 202 2
-0.34190375 0.18534473 -0.10668009 166 202 8
-0.34867600 0.17573433 -0.11506440 81 111 0
-0.35884643 0.16113971 -0.11458745 95 137 9
-0.39603162 0.16304144 -0.12134391 152 188 26
-0.39487189 0.16097483 -0.12190899 104 141 35
-0.36773637 0.15477826 -0.11060974 52 97 6
-0.35181385 0.18714996 -0.10931968 112 155 14
-0.34471810 0.16073425 -0.11080597 33 86 4
-0.34607840 0.15808415 -0.10987268 68 125 10
-0.37689924 0.15863401 -0.10440547 75 125 30
-0.35348189 0.19451027 -0.10388388 120 160 45
-0.40284723 0.16878273 -0.12219014 129 165 59
-0.39838651 0.16750631 -0.11909583 121 155 35
-0.41022065 0.17656994 -0.11963760 151 185 64
-0.40232164 0.16341317 -0.12513323 171 199 54
-0.40366372 0.16449375 -0.12486146 138 175 59
-0.37221074 0.16222775 -0.12204231 147 183 11
-0.42344987 0.17411098 -0.13015381 123 160 46
-0.39081812 0.16952315 -0.11335897 165 198 45
-0.38664272 0.17284513 -0.11031862 108 140 33
-0.36434758 0.17359930 -0.11912784 110 138 63
-0.33143759 0.21593311 -0.09650207 133 165 0
-0.33784074 0.21663339 -0.09666120 106 145 0
-0.34317896 0.21802323 -0.09836704 68 111 0
-0.34742749 0.16547017 -0.10981256 39 92 2
-0.40685463 0.17063929 -0.12309796 101 130 48
-0.34892312 0.18096063 -0.11072975 97 143 11
-0.36677715 0.18005499 -0.11904517 123 173 14
-0.38486663 0.14772888 -0.11078497 47 83 0
-0.35468596 0.17614855 -0.11857161 127 160 7
-0.37647110 0.15836366 -0.12078681 106 159 6
-0.34915057 0.18814388 -0.10704632 144 178 22
-0.34340075 0.18822967 -0.10565550 120 154 0
-0.34969902 0.20648254 -0.10026895 135 176 9
-0.39169812 0.15962946 -0.12453072 62 109 0
-0.38791370 0.15796085 -0.11807085 103 132 48
-0.35421607 0.18425259 -0.11560260 102 133 39
-0.36440992 0.18986541 -0.11916113 125 176 9
-0.38485917 0.14672954 -0.10919514 62 102 3
-0.41973892 0.17332856 -0.12783518 141 180 65
-0.36804107 0.15824327 -0.11143732 52 100 0
-0.35818580 0.16778304 -0.11598034 83 119 9
-0.42376125 0.17606930 -0.12812239 115 151 43
-0.35346100 0.20413457 -0.10214438 109 156 0
-0.35099021 0.19912839 -0.10237785 125 172 14
-0.38218257 0.17633404 -0.12282413 90 129 23
-0.36292353 0.16692775 -0.11843625 109 140 10
-0.37317169 0.16853559 -0.12234821 82 118 18
-0.35914505 0.16495727 -0.11689454 106 145 16
-0.36613920 0.16060606 -0.11663277 145 186 19
-0.39905173 0.17445216 -0.11790089 114 142 68
-0.40797424 0.16138437 -0.13046183 160 193 63
-0.40696973 0.15734072 -0.13368532 141 173 28
-0.42541039 0.17610697 -0.13044159 116 150 63
-0.38411200 0.17127509 -0.12249676 52 97 2
-0.42356139 0.17709020 -0.12683509 130 166 66
-0.35122123 0.16614872 -0.11344364 57 107 0
-0.39409453 0.14255483 -0.10579082 128 178 43
-0.39206004 0.15851836 -0.12257642 105 139 44
-0.34605396 0.21061563 -0.09838942 128 167 0
-0.35293272 0.21254884 -0.09768563 146 184 0
-0.35217083 0.18652184 -0.11056954 130 155 61
-0.38516152 0.15568382 -0.11728808 98 122 48
-0.36553952 0.16515514 -0.11941148 118 150 4
-0.37913954 0.14769913 -0.10808940 76 119 4
-0.38139960 0.14664108 -0.10715389 120 167 39
-0.34444201 0.17491822 -0.11494412 81 130 4
-0.35700199 0.17206697 -0.12051719 151 172 55
-0.35431567 0.16212209 -0.11063894 54 101 0
-0.38466376 0.16248406 -0.11068945 99 134 66
-0.37247142 0.18452798 -0.12025068 102 148 0
-0.38833117 0.16061668 -0.12453438 103 149 0
-0.38069823 0.16442475 -0.12381756 137 183 0
-0.39779636 0.14222363 -0.10646474 54 104 0
-0.38720518 0.15544221 -0.12146538 76 106 32
-0.01713185 0.07857796 -0.31148884 142 161 133
-0.02016410 0.08049791 -0.31149903 130 176 77
-0.03511851 0.08662643 -0.29624104 95 131 31
-0.02047287 0.08985102 -0.30870444 127 165 43
-0.01842431 0.09397061 -0.30661249 61 101 15
-0.02270281 0.08641842 -0.31020683 158 207 40
-0.02048874 0.08498794 -0.31335503 127 165 44
-0.01733591 0.08607535 -0.32059014 44 74 0
-0.00215142 0.09386057 -0.29807010 95 149 55
-0.01702677 0.09999560 -0.29800510 57 94 24
-0.00499135 0.08512820 -0.31010991 73 112 49
-0.02603710 0.10068703 -0.28540343 73 123 8
-0.03143158 0.10147865 -0.27832150 100 138 3
-0.03312000 0.09804973 -0.28145465 102 142 17
-0.03259790 0.08958542 -0.29983407 163 180 128
-0.01137761 0.07796743 -0.31805977 92 129 78
-0.03699678 0.09660058 -0.28803942 130 162 37
-0.02971982 0.08932093 -0.30161601 154 182 98
-0.00902243 0.08193773 -0.31209663 80 119 66
-0.03486609 0.11052765 -0.26069194 103 148 31
-0.03752356 0.11390024 -0.25418112 63 111 0
-0.00924485 0.08068524 -0.30769408 74 115 57
-0.00419705 0.08682922 -0.30648652 80 120 68
0.00034565 0.09055602 -0.30783322 59 100 40
-0.00737643 0.08712174 -0.30349398 52 95 50
-0.00684708 0.08859419 -0.30238780 78 120 72
-0.00733132 0.10091703 -0.28779995 130 172 88
-0.00900077 0.10134874 -0.28933826 112 145 54
-0.01059332 0.10115188 -0.29850644 97 124 17
-0.01484286 0.08261697 -0.29804522 129 179 80
-0.01798675 0.07883261 -0.32194513 166 191 87
-0.00592752 0.08500106 -0.32029694 84 119 63
-0.01024228 0.08120637 -0.32117146 75 110 52
-0.03264521 0.11017329 -0.26411778 59 104 3
-0.03409568 0.11207914 -0.26056328 87 132 37
-0.01934861 0.07966436 -0.30736980 145 165 130
-0.01884980 0.07859398 -0.31923509 140 178 56
-0.02837166 0.10612612 -0.27223229 62 108 10
-0.01974590 0.08021402 -0.29823151 124 139 116
-0.01985079 0.09398628 -0.30270433 46 88 12
-0.02323497 0.09216645 -0.30336523 76 120 9
-0.01984315 0.10381481 -0.28183544 76 119 4
-0.02759363 0.10403199 -0.27751055 85 133 21
-0.03301778 0.10487464 -0.26600567 107 149 13
-0.03812788 0.10788643 -0.25660828 89 136 0
-0.01125108 0.07867459 -0.30121624 102 147 56
-0.00069950 0.09639002 -0.30052358 52 102 51
-0.03446393 0.10101936 -0.26684582 93 131 0
-0.03179386 0.10129259 -0.27768996 115 154 9
-0.00127416 0.10371857 -0.30467212 61 114 62
-0.00788616 0.08228519 -0.31447616 85 122 71
-0.00529390 0.10154461 -0.29760057 77 113 26
-0.00205443 0.10221958 -0.29860911 96 128 63
-0.01999022 0.08010011 -0.31325185 126 174 75
-0.01437458 0.09893003 -0.31679612 87 121 26
-0.03382837 0.09381955 -0.28423825 103 148 47
-0.01393887 0.09901962 -0.30597660 77 118 24
-0.02810017 0.08854923 -0.30180275 136 166 70
-0.00998698 0.10447896 -0.31545290 61 87 14
-0.01138627 0.10165927 -0.30649918 117 151 28
-0.01214129 0.10124348 -0.31573078 101 126 35
-0.03688717 0.09210677 -0.28899479 98 135 32
-0.03678216 0.09460773 -0.29577330 137 161 63
-0.03493488 0.09112061 -0.28596234 97 140 35
-0.02788571 0.09113942 -0.30165371 95 140 21
-0.02744165 0.09627005 -0.29226592 92 139 0
-0.02987273 0.09399723 -0.29407838 84 125 7
-0.01892410 0.10060481 -0.29235524 56 95 28
-0.01628858 0.10187662 -0.29206771 71 106 16
-0.01654194 0.10149965 -0.29296464 73 112 19
-0.03622473 0.09539727 -0.29619622 117 146 28
-0.03371078 0.09586627 -0.29201081 98 140 12
-0.00511579 0.08392852 -0.31331804 71 108 57
-0.01871240 0.08104050 -0.32167920 146 183 43
-0.01739858 0.09140950 -0.31638622 84 123 17
-0.01710143 0.09059142 -0.32213506 65 95 5
-0.00256852 0.09810615 -0.29861391 54 106 57
-0.00211644 0.09921570 -0.29965511 55 105 56
-0.19141383 0.16473971 -0.14854386 154 183 17
-0.19084772 0.17299028 -0.15325207 164 199 11
-0.21098168 0.21678470 -0.20203020 104 134 4
-0.21433279 0.21552549 -0.19813600 114 141 10
-0.18978794 0.16557172 -0.15443380 125 161 13
-0.20319876 0.17738239 -0.15123671 101 132 3
-0.19086510 0.15757461 -0.15876241 128 164 2
-0.18727604 0.16288410 -0.16120706 124 161 0
-0.18695408 0.17068698 -0.16171889 111 141 0
-0.18680292 0.17242783 -0.16040336 141 174 0
-0.18913859 0.18938975 -0.16558100 119 146 0
-0.19344230 0.18794727 -0.16266116 85 114 0
-0.19138569 0.16327216 -0.15366498 101 139 2
-0.20093036 0.19760260 -0.17131491 165 189 33
-0.18012136 0.16670901 -0.16130856 109 153 4
-0.19805382 0.20138900 -0.17564560 126 158 15
-0.18109155 0.17719427 -0.16350856 177 218 52
-0.18337050 0.18508580 -0.16347645 198 226 43
-0.19324213 0.19695003 -0.17126787 111 134 0
-0.19856729 0.18586999 -0.16083539 120 147 4
-0.20322613 0.21769203 -0.20230184 101 130 14
-0.20388928 0.21664612 -0.20020868 107 135 24
-0.21531229 0.17222641 -0.14877503 120 154 0
-0.16895004 0.17203629 -0.16452070 76 86 98
-0.18274437 0.16841653 -0.16257960 137 181 34
-0.18565170 0.16774498 -0.16213095 163 201 38
-0.19489416 0.23968039 -0.24015407 116 138 56
-0.21725839 0.19713497 -0.17752863 80 115 11
-0.20774335 0.17179446 -0.14586067 162 204 8
-0.19126621 0.21032515 -0.18366855 109 143 4
-0.17832966 0.22475362 -0.18236987 134 168 19
-0.16737957 0.20236456 -0.17099968 71 83 47
-0.16963907 0.17791432 -0.16826694 227 229 218
-0.19012800 0.20872326 -0.18161950 104 138 0
-0.19654895 0.24641898 -0.23698474 64 92 5
-0.20871581 0.24429418 -0.24734002 62 85 3
-0.17235434 0.17739977 -0.16661207 226 229 212
-0.17107378 0.20927921 -0.17444745 154 175 58
-0.18441282 0.23017874 -0.19472390 175 194 42
-0.19012600 0.21854228 -0.19195941 139 169 11
-0.18457660 0.21295834 -0.18405883 180 202 42
-0.19104224 0.21031508 -0.18343957 131 160 10
-0.17459831 0.17742494 -0.16563158 158 184 75
-0.19314419 0.19751607 -0.16954829 105 137 10
-0.18771511 0.18875821 -0.16295572 113 148 0
-0.20200679 0.20287128 -0.17338371 183 217 68
-0.20195596 0.20278043 -0.17330210 183 217 68
-0.21432216 0.23803188 -0.23280714 88 107 28
-0.19737691 0.24201545 -0.25137046 114 131 51
-0.20507605 0.23861142 -0.25100967 155 182 69
-0.20235889 0.23768729 -0.23648112 82 100 24
-0.21393958 0.23982093 -0.22443771 197 201 168
-0.19604978 0.17387705 -0.15073767 100 137 5
-0.17018679 0.18819645 -0.16722690 143 157 59
-0.19732952 0.23312402 -0.22737162 109 126 55
-0.18672831 0.15878923 -0.15817027 123 165 41
-0.19869608 0.21540590 -0.18369092 94 137 6
-0.21745035 0.23834236 -0.23417786 81 103 20
-0.16572993 0.19729564 -0.16892618 99 114 49
-0.19564003 0.23947446 -0.24573548 114 131 51
-0.20985250 0.23976998 -0.23140916 62 83 6
-0.20422539 0.21944816 -0.20581526 104 133 15
-0.17960349 0.18056639 -0.16662417 141 175 0
-0.17833643 0.18456195 -0.16724016 165 193 13
-0.18816724 0.17283778 -0.15456097 143 182 11
-0.20598784 0.20205349 -0.17406759 136 184 23
-0.21015564 0.21018086 -0.17663008 121 166 21
-0.22105713 0.23800440 -0.22198473 56 80 0
-0.16916323 0.19503190 -0.16389315 102 146 35
-0.20069075 0.24174951 -0.25664303 131 153 52
-0.17195931 0.16705532 -0.15983319 53 82 15
-0.18582326 0.20466942 -0.17736146 124 155 0
-0.16912335 0.20637842 -0.16947334 169 201 92
-0.17541650 0.20840552 -0.16913234 148 181 2
-0.17204347 0.19697988 -0.16540761 114 161 0
-0.17241193 0.19968998 -0.16462241 103 148 0
-0.17897275 0.19004557 -0.17002369 143 169 7
-0.18136564 0.19764408 -0.17388561 128 158 2
-0.16857499 0.20127507 -0.16561081 104 149 6
-0.17295519 0.20509560 -0.16713548 129 170 4
-0.19141807 0.21685904 -0.18994823 99 131 0
-0.20795277 0.23763633 -0.24372828 155 179 83
-0.19267613 0.20706291 -0.18095914 89 116 0
-0.19819131 0.23369344 -0.22875375 114 132 58
-0.19609916 0.21548903 -0.19614923 81 105 11
-0.17210579 0.18617177 -0.16689937 119 154 12
-0.18842602 0.20086479 -0.17565541 169 194 38
-0.18637727 0.20118797 -0.17664094 140 164 4
-0.21211126 0.17941029 -0.15375659 105 144 17
-0.21480936 0.17754366 -0.15338555 55 93 0
-0.18440726 0.22640735 -0.19507357 171 194 42
-0.18681857 0.19599739 -0.16983730 136 172 14
-0.17050886 0.16853748 -0.16159430 94 116 69
-0.18281105 0.18817136 -0.16618273 204 238 89
-0.18600965 0.18135262 -0.15961067 143 185 15
-0.18367571 0.17997496 -0.16017716 158 198 24
-0.19355808 0.21390378 -0.19073047 98 125 20
-0.20899838 0.23334554 -0.22590981 75 96 3
-0.19196792 0.19003895 -0.16285917 113 142 34
-0.19763817 0.18373142 -0.15426680 120 154 8
-0.19411032 0.19113512 -0.16326566 113 147 11
-0.17115025 0.18713929 -0.16247690 91 145 0
-0.17189518 0.18356237 -0.16409273 129 176 8
-0.17940094 0.22562586 -0.18205644 140 169 59
-0.22091046 0.23809969 -0.22532782 66 92 1
-0.21779847 0.17159428 -0.14492670 160 206 98
-0.19071046 0.21780406 -0.19454563 134 162 26
-0.20862694 0.23766007 -0.24547663 115 142 25
-0.20251539 0.17779270 -0.15189059 88 113 0
-0.19175240 0.17362069 -0.15010454 112 146 33
-0.19093648 0.17853528 -0.15392219 115 149 28
-0.19564416 0.17986226 -0.15182428 119 154 2
-0.20754223 0.16222967 -0.14569129 98 135 21
-0.20648067 0.21647310 -0.20229879 85 114 0
-0.20780616 0.21548714 -0.20261170 105 137 4
-0.20911552 0.23604959 -0.22855809 57 81 0
-0.17283791 0.18762018 -0.16886504 114 151 12
-0.20289269 0.20933811 -0.18710533 84 117 2
-0.20702259 0.24025834 -0.24961765 87 108 5
-0.18624248 0.22374697 -0.19574150 144 158 37
-0.18091269 0.21717437 -0.18573542 159 175 42
-0.18345378 0.22158614 -0.19167477 197 205 106
-0.21391568 0.19436495 -0.17496297 201 232 68
-0.17016475 0.19136712 -0.16574536 92 130 27
-0.21332586 0.23868403 -0.23121962 38 52 3
-0.17639527 0.21986039 -0.18160860 133 165 4
-0.17723919 0.22275446 -0.18222821 142 174 5
-0.21695670 0.17500520 -0.14655535 97 142 25
-0.19610579 0.22729662 -0.21385571 110 132 49
-0.17974085 0.17091927 -0.16428998 90 126 0
-0.17518097 0.19518819 -0.16960701 188 207 65
-0.19103871 0.24196042 -0.20878899 116 135 45
-0.19243972 0.24477468 -0.21652959 110 133 42
-0.19290291 0.24492595 -0.22002615 105 126 33
-0.17656989 0.16282316 -0.15911837 88 133 6
-0.20059370 0.22926037 -0.22097021 106 128 30
-0.19143943 0.15859547 -0.15080148 69 103 0
-0.20540054 0.22801428 -0.21927312 93 117 5
-0.19206011 0.16220307 -0.14752683 123 163 5
-0.18665707 0.18813555 -0.16496408 172 202 20
-0.18190573 0.21471351 -0.18443930 196 207 87
-0.18164963 0.21350132 -0.18378688 201 211 88
-0.20421860 0.23829007 -0.23775171 79 101 18
-0.18545181 0.18979396 -0.16539140 126 162 0
-0.18500562 0.18962121 -0.16559869 126 162 0
-0.17162304 0.20058936 -0.16769035 153 172 47
-0.19910696 0.16872488 -0.14440370 130 161 0
-0.18958135 0.15540440 -0.15790527 114 153 26
-0.21280484 0.22994250 -0.21508865 82 103 0
-0.21339476 0.22542201 -0.20659274 117 142 25
-0.18988472 0.16339107 -0.16043572 100 138 0
-0.17998365 0.20333244 -0.17654598 165 196 32
-0.20356190 0.20140699 -0.17553724 141 173 10
-0.21166240 0.18024574 -0.15846038 122 155 14
-0.18969530 0.23293775 -0.20801046 165 181 74
-0.19346093 0.23888159 -0.22453746 127 151 55
-0.19526373 0.20088980 -0.17317355 114 149 7
-0.19282165 0.19941919 -0.17142801 114 145 18
-0.21212541 0.23325506 -0.22080633 74 98 2
-0.20338209 0.22846359 -0.21973808 93 117 5
-0.17607094 0.20916052 -0.16984908 145 179 5
-0.17594372 0.21260597 -0.17748483 109 150 0
-0.17327678 0.19466665 -0.17206351 155 189 43
-0.17607266 0.20795549 -0.16878603 145 178 3
-0.19836597 0.23675844 -0.23433471 111 124 52
-0.17500056 0.21128975 -0.17699493 106 124 14
-0.17984924 0.16191068 -0.15907511 112 160 14
-0.18434693 0.20769285 -0.18204436 194 211 70
-0.17984819 0.20310915 -0.17672263 168 187 43
-0.18614903 0.22267751 -0.19496119 154 179 26
-0.19694144 0.17840120 -0.15419059 147 180 13
-0.16960602 0.19765987 -0.16768698 109 130 71
-0.19222970 0.19910391 -0.17421299 133 157 11
-0.19438373 0.23451920 -0.22293010 96 119 37
-0.19377752 0.23713022 -0.22541162 100 123 32
-0.18275824 0.21601006 -0.18654835 159 183 23
-0.18121664 0.19371539 -0.17051329 160 177 47
-0.17427577 0.17607851 -0.16502313 197 211 158
-0.17670979 0.21380076 -0.18059652 163 192 16
-0.17958333 0.21703121 -0.18628378 147 173 11
-0.20070702 0.20644632 -0.18231703 109 145 9
-0.19330560 0.22622102 -0.20576148 102 127 23
-0.19145952 0.23025337 -0.20838332 155 180 53
-0.20186999 0.21565513 -0.18292448 106 147 19
-0.20039915 0.21639507 -0.18390767 99 138 23
-0.18944477 0.17922276 -0.15535405 117 153 1
-0.19017388 0.17368652 -0.15130304 105 142 11
-0.20566377 0.24017653 -0.24071169 74 98 2
-0.19083065 0.22419403 -0.20073234 107 131 9
-0.19103630 0.22863723 -0.20476478 152 174 47
-0.19891246 0.19527997 -0.16885902 116 149 0
-0.20093329 0.20284921 -0.17684205 163 191 29
-0.17036618 0.19212675 -0.16430645 102 145 37
-0.17113158 0.18406929 -0.16770446 125 149 27
-0.16916443 0.19395472 -0.16758944 106 125 93
-0.19645070 0.20436133 -0.17655469 117 151 5
-0.19557838 0.20381863 -0.17662069 111 145 9
-0.17624760 0.21074161 -0.17093855 137 174 0
-0.18902090 0.16609681 -0.15105984 98 133 0
-0.20168163 0.19073154 -0.16691443 115 139 3
-0.20751946 0.18418166 -0.16438520 96 131 5
-0.19837801 0.23737574 -0.23675384 109 126 46
-0.17359129 0.17356063 -0.16582528 156 156 148
-0.19776201 0.22306263 -0.20726906 108 126 40
-0.21081768 0.23683392 -0.22702472 74 96 13
-0.21138233 0.23103830 -0.21862906 86 110 12
-0.20734632 0.22854300 -0.21853876 83 108 6
-0.20796658 0.22078280 -0.20848936 104 131 14
-0.20896168 0.21969327 -0.20611627 94 120 10
-0.21031581 0.22128674 -0.20612350 79 107 0
-0.17451467 0.19131643 -0.17071459 157 195 24
-0.17594086 0.20352291 -0.17684995 119 154 2
-0.19474842 0.24489906 -0.23449183 97 123 36
-0.18834272 0.18292663 -0.16052616 146 177 0
-0.18453914 0.19881296 -0.17465097 179 202 62
-0.20857635 0.17848076 -0.15384489 82 119 5
-0.20540772 0.18340939 -0.16346489 81 111 0
-0.20984714 0.18394294 -0.16377622 114 149 23
-0.20664965 0.20668571 -0.18738304 90 122 13
-0.21400166 0.17046027 -0.14551312 195 235 102
-0.21043454 0.16315687 -0.14828771 95 133 12
-0.21163245 0.19183382 -0.17131755 138 169 29
-0.21036884 0.19387826 -0.17245002 178 208 52
-0.20970462 0.20414342 -0.18060613 84 116 5
-0.19891877 0.20168248 -0.17561291 122 152 6
-0.17752537 0.16583183 -0.15862416 122 172 15
-0.18200189 0.20099649 -0.17627841 173 195 34
-0.17712924 0.19316936 -0.17052972 140 160 13
-0.18064380 0.16319759 -0.15954772 87 134 0
-0.19550849 0.21101655 -0.18741056 110 131 28
-0.18631670 0.16573872 -0.16290796 134 176 0
-0.18526177 0.17106442 -0.15465079 124 166 4
-0.17441775 0.16814259 -0.16298878 116 119 108
-0.18873769 0.15833110 -0.15829052 142 183 63
-0.20487148 0.19423647 -0.17055458 131 162 9
-0.18661019 0.17198536 -0.16289937 132 165 12
-0.18552385 0.18001580 -0.16175115 172 201 31
-0.41397870 0.13432208 -0.10307259 120 173 43
-0.40277374 0.13723914 -0.10372037 101 150 43
-0.40583262 0.13750958 -0.10092439 110 163 45
-0.22532132 -0.08151919 -0.06824662 75 110 44
-0.21155509 -0.02765284 -0.07040814 113 166 34
-0.21310838 -0.03315381 -0.06989673 89 139 26
-0.19781739 -0.00828115 -0.07512259 71 111 12
-0.20574972 -0.02203198 -0.06677373 185 212 69
-0.24117784 -0.10902174 -0.07066652 108 146 45
-0.22673568 -0.07591741 -0.06670555 199 226 129
-0.22936666 -0.08020771 -0.06733626 136 174 91
-0.22131677 -0.07556982 -0.07912876 91 133 23
-0.23614722 -0.09472217 -0.06914779 89 132 16
-0.21973021 -0.05950047 -0.06515794 134 170 80
-0.22728619 -0.09370290 -0.07031686 106 149 95
-0.21381584 -0.03919872 -0.06967463 97 141 43
-0.21523191 -0.04235200 -0.06876363 113 158 53
-0.20292407 -0.02293300 -0.07185902 71 120 2
-0.20049836 -0.00552656 -0.06953288 107 145 24
-0.21567076 -0.06602432 -0.06460070 116 145 61
-0.23028648 -0.09184811 -0.06991661 94 135 93
-0.22994259 -0.08477778 -0.07230331 61 109 0
-0.20179486 -0.01633442 -0.07214943 66 110 0
-0.23576389 -0.10799655 -0.07355933 118 157 48
-0.22461537 -0.07636371 -0.07160833 68 111 39
-0.22569881 -0.07642200 -0.07618405 75 130 11
-0.23131841 -0.09109745 -0.07286476 94 145 14
-0.19688423 0.01799468 -0.07632951 118 169 12
-0.22347552 -0.07599668 -0.06736749 33 78 0
-0.21380045 -0.05072613 -0.06689135 153 186 79
-0.21054257 -0.04427126 -0.06819507 95 127 42
-0.18893176 0.02501009 -0.08615489 123 161 13
-0.23716396 -0.10121524 -0.07548510 116 165 21
-0.22283228 -0.07965195 -0.07735133 87 135 0
-0.22457121 -0.07986681 -0.07709397 115 167 23
-0.21798702 -0.06135096 -0.07718045 52 106 0
-0.22224207 -0.06964608 -0.07722866 64 122 2
-0.22549133 -0.08710169 -0.07639686 90 140 9
-0.23382716 -0.09138060 -0.07081923 70 118 0
-0.23575480 -0.09976113 -0.07595715 119 172 20
-0.19890857 0.00422824 -0.07090179 132 169 14
-0.21631461 -0.05367136 -0.07479605 53 103 6
-0.23913695 -0.11658321 -0.07419498 79 120 14
-0.19929644 -0.00792212 -0.07225032 71 116 0
-0.20693281 -0.00538210 -0.08094360 97 137 15
-0.20880724 -0.01301660 -0.07410911 62 109 0
-0.20469880 0.00019301 -0.07289745 91 132 4
-0.20906109 -0.01514836 -0.07232557 84 134 1
-0.20672028 -0.00521551 -0.07358881 114 164 17
-0.20263794 0.00920852 -0.07582200 87 128 0
-0.20031317 0.01206818 -0.07501362 122 167 12
-0.19833463 0.00705882 -0.07168376 128 167 0
-0.21190991 -0.03670485 -0.06917748 117 165 43
-0.19030748 0.01656262 -0.08007813 82 124 12
-0.19049647 0.03154348 -0.08649449 172 209 44
-0.19529124 0.00586161 -0.07927034 133 165 19
-0.21495508 -0.04400452 -0.07325938 45 92 0
-0.21437532 -0.04419015 -0.07406957 48 96 0
-0.19743754 0.00261259 -0.07707945 84 120 0
-0.24100395 -0.11167672 -0.07572081 123 158 66
-0.20726429 -0.00692490 -0.08124372 67 105 4
-0.20963323 -0.01665286 -0.07339069 93 142 17
-0.22453983 -0.07012787 -0.07028106 28 82 0
-0.22903842 -0.07730842 -0.06797506 40 84 7
-0.22323018 -0.07356784 -0.07819717 91 146 3
-0.20996447 -0.01796425 -0.07304549 77 126 1
-0.23959917 -0.10145707 -0.06922484 116 161 16
-0.19931024 0.02477081 -0.08026531 122 172 15
-0.19606549 0.03681668 -0.08456504 82 125 17
-0.19409232 0.03993633 -0.08797122 114 159 30
-0.19254313 0.03933824 -0.08900077 84 130 0
-0.22567987 -0.07424905 -0.07246214 55 108 0
-0.20780016 -0.03355525 -0.06866892 174 207 74
-0.22483021 -0.07152452 -0.06599427 202 226 132
-0.20564449 -0.01215112 -0.06866454 124 172 0
-0.19499560 0.01907733 -0.07657923 106 152 4
-0.22392248 -0.07120064 -0.07408652 27 86 0
-0.19821744 0.00738776 -0.07314979 163 200 43
-0.21882303 -0.05693159 -0.07110889 39 94 1
-0.21822277 -0.05355334 -0.07064734 54 106 8
-0.22329141 -0.06429654 -0.06760997 62 123 19
-0.21247384 -0.03309948 -0.07568821 68 111 22
-0.46566716 0.12783228 -0.20920615 99 141 55
-0.46434578 0.12758975 -0.21127874 69 111 37
-0.47791296 0.12777710 -0.21745348 81 116 58
-0.47793919 0.11867524 -0.26098946 52 72 44
-0.46619582 0.12404804 -0.22410747 32 74 11
-0.48495212 0.10287431 -0.27143133 39 77 16
-0.47232187 0.11918358 -0.23456968 42 83 27
-0.46973631 0.12505722 -0.21956849 64 108 33
-0.46856934 0.11578376 -0.23806576 32 70 23
-0.45787752 0.13055868 -0.20829684 42 85 3
-0.48512709 0.10286881 -0.27559662 39 72 17
-0.47871968 0.10836995 -0.26323760 40 69 23
-0.48850209 0.10673846 -0.26128447 87 128 52
-0.46167150 0.12801611 -0.21793242 41 83 9
