-0.69413507 0.18473718 -0.44328138 116 138 66
-0.69211113 0.18449171 -0.44516683 96 116 55
-0.67530602 0.18583187 -0.41481757 65 78 34
-0.67562193 0.18811768 -0.41891068 48 65 23
-0.67158633 0.18462503 -0.40335029 46 77 1
-0.66905427 0.15447968 -0.35325599 69 95 8
-0.66455418 0.16404940 -0.36071298 116 126 73
-0.66861415 0.17376633 -0.38236222 66 100 6
-0.67192698 0.16698125 -0.36324430 97 122 30
-0.67392600 0.16389805 -0.35782701 99 123 9
-0.69241792 0.18711448 -0.45187876 107 122 63
-0.67817420 0.18015188 -0.40912512 56 102 3
-0.68393207 0.18019825 -0.40987024 113 133 46
-0.66653013 0.16420208 -0.36455694 60 94 0
-0.66324300 0.16952467 -0.36760336 73 101 0
-0.66541618 0.14181644 -0.33796379 94 128 0
-0.66682792 0.14247116 -0.33861250 87 120 7
-0.67601800 0.17798792 -0.40208602 65 101 3
-0.66872823 0.18075417 -0.39048842 80 110 22
-0.67823446 0.17803645 -0.39029300 97 121 45
-0.67852557 0.17839947 -0.38958231 106 128 55
-0.66958863 0.14889954 -0.34631768 66 96 0
-0.66507453 0.14577252 -0.34201509 87 119 0
-0.68120754 0.18792337 -0.43180814 100 116 69
-0.68132806 0.18721014 -0.43056014 104 116 70
-0.66619760 0.15728474 -0.35511887 73 104 10
-0.68733656 0.18106179 -0.41548729 108 127 48
-0.66716385 0.15124880 -0.34820148 70 100 2
-0.69199634 0.18348835 -0.43406320 118 147 54
-0.66521311 0.14491063 -0.34103370 100 127 0
-0.66556871 0.16680762 -0.36699492 57 90 0
-0.66894168 0.15986790 -0.36107540 76 104 4
-0.68603843 0.18206638 -0.42612490 125 155 83
-0.68045968 0.18219282 -0.41980508 103 125 79
-0.69161618 0.19063847 -0.45825231 100 118 60
-0.68598938 0.18723807 -0.44168979 104 118 67
-0.69018215 0.18897679 -0.45258364 104 118 65
-0.66865182 0.16572922 -0.36504129 66 91 7
-0.69748163 -0.05556913 -0.44285983 128 146 12
-0.68790668 -0.05182069 -0.43122908 97 125 22
-0.69084269 -0.05565948 -0.44904613 97 112 31
-0.69868094 -0.05511188 -0.43606952 129 138 49
-0.69659925 -0.05108528 -0.43991691 132 136 13
-0.68972969 -0.05195352 -0.44038916 101 128 15
-0.69135815 -0.05242080 -0.44253105 117 125 13
-0.68771994 -0.06070536 -0.46337301 67 94 17
-0.68794602 -0.05586665 -0.43958047 103 135 34
-0.69708186 -0.05820409 -0.44740647 90 120 0
-0.70206618 -0.04300488 -0.40606794 145 152 72
-0.69230539 -0.04962956 -0.42640495 93 129 0
-0.69034845 -0.04854454 -0.42931968 89 115 0
-0.68944561 -0.05089577 -0.42133513 87 124 31
-0.69678861 -0.04882256 -0.41062701 77 113 0
-0.68741822 -0.06043890 -0.46287200 110 137 60
-0.69854033 -0.04945754 -0.43300629 148 155 52
-0.69831097 -0.05042304 -0.43390396 134 140 32
-0.70378953 -0.04555614 -0.41296604 185 182 111
-0.68800390 -0.05165568 -0.42943355 145 170 76
-0.69847852 -0.05093520 -0.41574377 147 168 5
-0.70044380 -0.05017890 -0.41954693 110 123 5
-0.70031905 -0.04850351 -0.42632914 123 137 58
-0.69290245 -0.04838130 -0.41869274 134 177 46
-0.70389622 0.02014494 -0.31156972 151 182 18
-0.69517487 0.07001685 -0.30805716 160 179 38
-0.69003534 0.07981941 -0.31577334 105 120 39
-0.69397092 0.07941552 -0.30470622 108 118 21
-0.68870395 0.08939873 -0.31122395 111 117 69
-0.68515313 0.08955665 -0.31040573 161 198 23
-0.68766624 0.09318471 -0.30847472 94 117 3
-0.68307596 0.09663235 -0.31006142 158 187 7
-0.69394886 0.05423123 -0.31058729 173 201 18
-0.69792676 0.06261370 -0.30960673 174 199 56
-0.69172168 0.07990382 -0.31477851 128 148 53
-0.70399761 0.01064968 -0.31654969 154 172 8
-0.68551338 0.06638107 -0.31469873 138 168 10
-0.69067168 0.06336591 -0.30709028 161 195 23
-0.68502092 0.05364569 -0.31077099 138 180 68
-0.68610704 0.05506023 -0.31012258 150 190 42
-0.70377445 0.00621737 -0.32508853 138 161 9
-0.70357090 0.02703349 -0.30930340 161 176 33
-0.70285434 0.00949149 -0.31774020 225 239 56
-0.69912428 0.01275401 -0.31671637 189 208 4
-0.69671106 0.02890987 -0.30754685 161 190 0
-0.69350028 0.03626810 -0.30899429 191 216 37
-0.69810867 0.02069772 -0.32548535 164 179 38
-0.69045174 0.05957356 -0.30764911 141 176 11
-0.69086450 0.05401834 -0.30810875 132 165 14
-0.69140369 0.06285363 -0.30703497 188 218 24
-0.69943535 0.04089852 -0.31557184 168 192 46
-0.68715620 0.01958262 -0.31808275 144 183 56
-0.68928039 0.01534034 -0.31965229 150 192 68
-0.68976218 0.01478587 -0.31973809 158 200 74
-0.69292849 0.06749354 -0.30617666 130 161 0
-0.69380230 0.01420719 -0.32824966 82 115 8
-0.69949865 0.03862388 -0.30937490 154 188 41
-0.68671501 0.07404893 -0.30532417 144 188 5
-0.68156004 0.07812795 -0.30813515 173 207 24
-0.68560082 0.07970105 -0.30324069 179 216 24
-0.69997162 0.00810944 -0.32638371 138 163 10
-0.68105292 0.06942634 -0.31848097 159 182 12
-0.68519217 0.09795246 -0.31024632 80 108 0
-0.69595474 0.05413887 -0.31914788 160 172 44
-0.67928571 0.10756107 -0.31665570 159 191 22
-0.68113971 0.11384996 -0.32093734 88 113 0
-0.69287300 0.07035597 -0.31062713 171 192 29
-0.70716482 0.00863884 -0.32121944 133 156 26
-0.66694134 0.10318860 -0.31560072 113 139 0
-0.66657162 0.09725478 -0.31802464 160 185 6
-0.68102264 0.10263664 -0.31382105 75 113 4
-0.67763078 0.09946562 -0.31433159 141 182 24
-0.67964351 0.09936442 -0.31277588 145 185 9
-0.68692845 0.07076418 -0.31412485 173 204 15
-0.68046963 0.11125561 -0.31866288 97 132 14
-0.70684499 0.01003440 -0.31904447 168 195 18
-0.68398649 0.10265255 -0.31398129 152 185 20
-0.69103831 0.06479762 -0.31384793 153 188 0
-0.69952053 -0.00293423 -0.33042437 201 215 44
-0.69707012 -0.00015455 -0.32741812 167 195 85
-0.70418471 0.00434246 -0.32923198 151 169 35
-0.68609679 0.06243725 -0.31744897 177 205 7
-0.67805886 0.11192048 -0.31964046 126 163 6
-0.69045871 0.09061101 -0.30587530 94 114 0
-0.69354063 0.06323436 -0.31327495 171 203 16
-0.70145541 0.02805490 -0.30674955 172 201 21
-0.68965566 0.02849138 -0.31360203 165 197 51
-0.69265854 0.01929084 -0.31542420 205 234 45
-0.69486350 0.00175610 -0.32566610 162 189 86
-0.69646692 0.00927500 -0.32005709 217 239 50
-0.69302970 0.03787632 -0.30900395 171 200 30
-0.68853396 0.03251331 -0.31323096 159 194 74
-0.68746841 0.02827456 -0.31499001 106 147 41
-0.68816537 0.03280803 -0.31339097 156 190 78
-0.70221508 0.01702344 -0.31064862 238 251 24
-0.69356233 0.08380339 -0.30599093 156 168 42
-0.67436558 0.09257650 -0.31382039 108 141 11
-0.69386697 0.06786004 -0.30637774 178 218 33
-0.66894829 0.09487026 -0.31354213 180 194 10
-0.67370510 0.10495536 -0.31774613 67 100 13
-0.67160618 0.08673890 -0.31542999 187 213 20
-0.67663652 0.09322026 -0.31296557 87 118 24
-0.67205244 0.11504710 -0.32277906 78 111 24
-0.67465198 0.09519157 -0.31438330 80 111 8
-0.66851258 0.09435791 -0.31674108 195 221 24
-0.69847608 0.04664198 -0.31687602 140 162 27
-0.69823879 0.04533953 -0.31704944 131 149 31
-0.69839418 0.03926858 -0.30923268 125 156 0
-0.67780828 0.08286473 -0.31561422 144 175 22
-0.67503899 0.07535633 -0.31856522 121 145 0
-0.70595717 0.01715531 -0.31561032 132 165 26
-0.68067634 0.08610898 -0.31121936 161 187 25
-0.70319146 0.01595568 -0.32546422 134 146 48
-0.70191735 0.01488089 -0.32554170 126 147 16
-0.67032206 0.08913650 -0.31492564 188 208 12
-0.68492985 0.07621719 -0.31637585 172 196 46
-0.69647473 0.04881947 -0.32106692 163 187 27
-0.67942590 0.08175617 -0.31549364 83 110 17
-0.68075466 0.07287724 -0.31898135 167 193 0
-0.67097968 0.15084194 -0.34570220 87 112 31
-0.67651123 0.13017055 -0.32651186 134 166 0
-0.68230307 0.11877684 -0.32239830 80 108 0
-0.67517716 0.14135364 -0.33100778 108 144 0
-0.67620128 0.14043000 -0.32989669 149 189 15
-0.67823923 0.09707128 -0.31327310 132 172 23
-0.67287451 0.17416108 -0.37820154 92 113 34
-0.67226315 0.17383826 -0.38359022 95 115 43
-0.67464811 0.17550485 -0.37906131 90 109 43
-0.67713934 0.14065753 -0.33076060 145 177 14
-0.67026603 0.17339203 -0.36218774 98 119 26
-0.67182356 0.17381656 -0.36387071 89 109 24
-0.67510056 0.18119073 -0.38535270 99 119 66
-0.67291445 0.17988469 -0.37502301 73 89 53
-0.67064965 0.15367919 -0.34610385 78 109 5
-0.67373830 0.11853435 -0.32510689 112 144 47
-0.68169641 0.12030870 -0.32346579 164 189 46
-0.67115313 0.12798344 -0.32753673 100 129 39
-0.67279160 0.13250171 -0.32837981 108 143 17
-0.67674792 0.15661767 -0.34759665 89 123 0
-0.68714726 0.09064671 -0.30392423 102 145 0
-0.67319214 0.15675545 -0.35033575 94 123 4
-0.67191458 0.08284178 -0.31829035 187 207 30
-0.67142260 0.15176243 -0.34302619 88 121 4
-0.67466414 0.09980020 -0.31565136 114 147 68
-0.67290884 0.13613224 -0.33327800 77 110 19
-0.68022829 0.14759113 -0.33540910 104 139 11
-0.67403150 0.12186828 -0.32642180 80 116 16
-0.68191689 0.08064225 -0.30764627 182 221 34
-0.68188977 0.08646520 -0.30844620 151 190 11
-0.68275213 0.08687660 -0.30708858 141 182 4
-0.67556524 0.13145572 -0.32835150 155 189 15
-0.67530507 0.11711868 -0.32126850 117 160 27
-0.67506742 0.12156066 -0.32310849 116 155 12
-0.67771477 0.15505104 -0.34636551 88 117 0
-0.66817182 0.09460587 -0.31414008 149 181 0
-0.66925371 0.09254989 -0.31376627 171 200 30
-0.67015344 0.09679881 -0.31349677 108 143 0
-0.67741758 0.13256098 -0.32575715 103 136 0
-0.66948265 0.14705800 -0.34241456 88 113 29
-0.66808903 0.08942617 -0.31595951 166 193 0
-0.67421949 0.08704700 -0.31319115 128 170 46
-0.68265361 0.12175360 -0.32384223 165 189 41
-0.67707741 0.12528875 -0.32345453 133 168 24
-0.67678714 0.11491867 -0.31996250 101 143 7
-0.67059356 0.17212561 -0.36107165 90 111 18
-0.67141491 0.12843469 -0.33040813 60 88 3
-0.67816246 0.15066165 -0.33912429 103 132 13
-0.67046356 0.14484452 -0.34146708 71 101 13
-0.67261237 0.16179146 -0.35304695 82 116 4
-0.67358518 0.14555489 -0.33824119 110 147 16
-0.67962515 0.13682874 -0.32686415 159 187 25
-0.66565561 0.09999099 -0.31370953 189 220 54
-0.67263359 0.14324713 -0.33510783 92 127 0
-0.67018586 0.14815740 -0.34279013 93 119 28
-0.62510508 0.21897255 -0.38836536 94 149 3
-0.53998524 0.26010406 -0.42915955 82 109 32
-0.54848605 0.25413564 -0.41675121 63 99 0
-0.53556180 0.26224557 -0.43210968 67 88 11
-0.59817028 0.23616727 -0.38670400 68 114 26
-0.54188424 0.25837097 -0.42659390 58 88 0
-0.61113495 0.22015516 -0.38856748 100 143 61
-0.58308423 0.24622981 -0.39691189 56 96 25
-0.54698771 0.25397193 -0.41776770 77 113 3
-0.62140214 0.22349577 -0.38942116 80 134 12
-0.56739265 0.24452363 -0.40106127 68 110 26
-0.63074720 0.21393047 -0.38918704 123 157 80
-0.60918790 0.21988936 -0.39017025 65 115 18
-0.54733700 0.25598007 -0.42116928 65 95 21
-0.59184229 0.23489255 -0.39216152 109 149 63
-0.52713615 0.26417568 -0.44109210 142 166 70
-0.57413131 0.24766746 -0.39949575 97 137 51
-0.62899268 0.21276638 -0.38858739 91 123 38
-0.64091736 0.20808846 -0.39083654 125 155 93
-0.63699472 0.20784369 -0.39131820 96 127 57
-0.60252637 0.23297998 -0.38713527 120 171 68
-0.61434090 0.22710653 -0.38935333 62 107 26
-0.62526995 0.21688214 -0.38849324 133 166 97
-0.59358168 0.23757209 -0.38852707 98 146 46
-0.62866902 0.21720913 -0.38796645 80 124 11
-0.61515343 0.22355580 -0.38802484 118 159 65
-0.58911538 0.23357955 -0.39406505 94 139 10
-0.59555763 0.23443413 -0.38969150 100 144 55
-0.58655792 0.23010659 -0.39504141 147 184 91
-0.59055895 0.23450589 -0.39228767 109 147 62
-0.58499688 0.23428866 -0.39299679 97 142 37
-0.51893866 0.26429960 -0.44992188 164 190 91
-0.55807292 0.25244322 -0.40921092 52 88 1
-0.52745241 0.25948501 -0.44481423 142 159 63
-0.63672143 0.20973948 -0.39121464 54 85 7
-0.57751065 0.24373701 -0.39751580 113 153 67
-0.58167708 0.23367389 -0.39785039 76 114 27
-0.59161454 0.23062131 -0.39013803 73 113 25
-0.58584112 0.24576727 -0.39674670 59 110 9
-0.53022426 0.25999498 -0.44357908 106 122 33
-0.61361849 0.22712591 -0.38879415 79 124 41
-0.61513960 0.21874072 -0.38982099 113 153 65
-0.62694979 0.21294577 -0.38790658 81 115 31
-0.52364242 0.26584885 -0.44252369 124 149 45
-0.70487285 -0.03768998 -0.37994063 112 130 10
-0.71122950 -0.01557959 -0.35541049 90 125 7
-0.70840478 -0.03310743 -0.35537523 199 219 34
-0.69448924 -0.00925648 -0.34594730 74 112 13
-0.69127089 -0.02598200 -0.35071257 165 198 67
-0.69786882 -0.00414917 -0.34666193 154 179 26
-0.70972645 -0.02342627 -0.36083078 96 141 0
-0.68344736 -0.02632872 -0.35492241 191 197 49
-0.69932532 -0.00770847 -0.36056480 156 175 47
-0.69841933 -0.01452463 -0.34098992 154 181 86
-0.69643426 -0.02274144 -0.34813669 131 163 66
-0.70100516 -0.03654558 -0.37115598 96 129 0
-0.69517028 -0.01097148 -0.33692837 124 148 36
-0.69559407 -0.01361132 -0.33933833 127 155 34
-0.70301127 -0.00213320 -0.33857870 116 149 34
-0.70399779 0.00317454 -0.33424294 156 176 16
-0.70145518 -0.03630561 -0.39078534 81 101 0
-0.69492477 -0.00238371 -0.33041167 82 121 30
-0.69388616 -0.01258432 -0.36342984 151 152 14
-0.70713729 -0.01817046 -0.36273700 117 137 14
-0.70920140 -0.01289980 -0.34975612 132 151 0
-0.70965171 -0.02524452 -0.35292050 154 180 9
-0.70302814 0.00024337 -0.33587459 69 95 0
-0.70303732 0.00012510 -0.33764181 65 100 6
-0.70127958 -0.00266390 -0.33021131 142 164 4
-0.70768392 -0.01836639 -0.34802270 153 175 12
-0.70496607 -0.01871307 -0.34499636 172 182 7
-0.68778300 -0.02257163 -0.34716681 195 211 26
-0.70371681 -0.03738133 -0.37889838 74 99 0
-0.70330012 -0.01163446 -0.35799062 151 170 45
-0.70613116 -0.01026033 -0.35618868 128 157 51
-0.68710834 -0.01981908 -0.33863118 126 141 0
-0.69223022 -0.01697489 -0.33993980 133 159 6
-0.69305581 -0.01387712 -0.33611134 124 149 0
-0.69112021 -0.01540612 -0.33215967 168 189 24
-0.70425314 -0.00421227 -0.34239528 110 124 26
-0.69257021 -0.02117984 -0.34606734 141 168 35
-0.68886769 -0.04627640 -0.38866219 121 160 35
-0.69331354 -0.00919111 -0.34628281 90 125 31
-0.69077289 -0.04135255 -0.37841672 75 105 9
-0.68795246 -0.01608304 -0.35929620 107 150 32
-0.69022334 -0.00808712 -0.34319577 110 151 33
-0.68800247 -0.05029787 -0.39355439 145 169 47
-0.70086563 -0.03508009 -0.36831674 114 145 0
-0.70659029 -0.03376383 -0.37464857 122 144 9
-0.70102417 -0.02740369 -0.35186002 132 172 47
-0.70111495 -0.01897737 -0.34547415 161 184 32
-0.70479947 -0.02347550 -0.34826332 177 191 34
-0.71246338 -0.02025096 -0.35508162 140 169 41
-0.70206624 -0.03710961 -0.38644695 117 137 22
-0.68931335 -0.04894886 -0.40380499 114 157 26
-0.69602656 0.00029525 -0.32848731 103 143 10
-0.70723295 -0.01520020 -0.34648216 159 171 9
-0.69556218 -0.04396530 -0.38473287 23 63 0
-0.69299382 -0.04395732 -0.38263071 53 94 0
-0.68773460 -0.04798883 -0.38525543 155 181 54
-0.70243102 0.00206160 -0.32852483 106 139 0
-0.69952458 -0.04163008 -0.38337287 120 154 18
-0.70507431 -0.02302981 -0.36688697 154 169 64
-0.71167678 -0.01725112 -0.35598424 101 140 11
-0.70483691 -0.01365524 -0.35907677 173 191 57
-0.69777834 -0.02395217 -0.36805317 185 193 58
-0.70859718 -0.02840830 -0.36797780 130 153 10
-0.68680400 -0.04809602 -0.39368442 115 146 19
-0.70438093 -0.00511403 -0.34698093 148 163 60
-0.69975924 -0.00341014 -0.34616986 74 106 0
-0.68707907 -0.04789418 -0.39152279 65 93 0
-0.70696813 -0.00792073 -0.35186523 74 99 41
-0.69859397 -0.00331979 -0.34079972 110 134 0
-0.69639844 -0.04559879 -0.40150183 113 152 9
-0.71255821 -0.02753896 -0.36012155 82 110 7
-0.68463618 -0.02166007 -0.35149699 154 176 33
-0.69542199 -0.04639823 -0.40564203 142 182 60
-0.68485636 -0.02096566 -0.34536976 88 112 2
-0.69184124 -0.01375612 -0.36404756 104 124 0
-0.69379419 -0.00769897 -0.35862586 189 203 22
-0.69623876 -0.03818552 -0.37453508 42 79 0
-0.70754272 -0.02292790 -0.36530450 125 148 0
-0.69056523 -0.01215481 -0.35684830 120 161 41
-0.69161600 -0.01046211 -0.34916258 30 69 2
-0.68558955 -0.03075613 -0.35547292 230 247 83
-0.57586390 0.02402432 -0.30407062 119 137 37
-0.57982814 0.03839374 -0.30003351 65 98 9
-0.57792443 0.05238803 -0.28711838 113 165 82
-0.57496625 0.04823939 -0.28860813 102 151 72
-0.57157087 0.04556229 -0.29069719 136 181 98
-0.57213771 0.02434386 -0.29095593 85 141 34
-0.57387447 0.03716398 -0.28910115 166 218 108
-0.57553226 0.03459954 -0.28856719 101 151 54
-0.58126593 0.04038502 -0.29727972 70 106 8
-0.57759809 0.03082496 -0.29511252 62 105 13
-0.58340669 0.05191942 -0.29387695 65 107 0
-0.56494105 0.00985083 -0.30799952 51 85 0
-0.57390904 0.01756173 -0.30042884 129 167 2
-0.55927879 -0.00244234 -0.30881310 47 78 8
-0.55596137 -0.00911077 -0.30725032 43 78 0
-0.58127356 0.04232945 -0.29438162 83 126 18
-0.57782966 0.03384378 -0.29337454 83 135 11
-0.57986349 0.04791000 -0.28652611 135 183 74
-0.55294502 -0.01119338 -0.31318426 68 101 12
-0.58072561 0.04689035 -0.29579237 59 100 0
-0.56389797 0.00616371 -0.30827495 84 116 19
-0.57977450 0.05573367 -0.30349389 69 96 1
-0.57826269 0.03038808 -0.29803127 61 92 0
-0.58032954 0.03925145 -0.29385501 71 116 0
-0.58267713 0.04640345 -0.29181677 56 97 1
-0.55604535 0.00145108 -0.31075171 83 122 29
-0.55261868 -0.01375683 -0.31220436 41 72 0
-0.56763339 0.00668667 -0.30431271 106 142 0
-0.56947398 0.01812300 -0.30666691 82 115 0
-0.57583594 0.02463575 -0.30530742 120 132 20
-0.69209695 0.00131991 -0.32991618 72 107 17
-0.68072551 0.05966563 -0.31381738 108 142 4
-0.68201166 0.03669087 -0.31808567 169 201 12
-0.68315995 0.04429641 -0.31450161 118 164 16
-0.69198614 0.02690453 -0.32300544 100 136 30
-0.68276930 0.03787921 -0.32286063 195 224 20
-0.67409396 0.06176604 -0.30961519 138 174 16
-0.67707813 0.07376318 -0.31020939 161 202 80
-0.68362832 0.01536682 -0.33176365 142 169 52
-0.69846284 0.02331670 -0.32392681 188 194 42
-0.69100362 0.03757487 -0.31946394 169 201 6
-0.67977256 0.01879891 -0.32521734 110 150 0
-0.68254787 -0.01885514 -0.33743727 105 128 11
-0.68179029 0.01438038 -0.33142760 98 137 30
-0.68628860 -0.01886092 -0.36012155 119 159 26
-0.68047947 0.01143369 -0.32709995 181 196 53
-0.68876654 -0.01541789 -0.33016762 189 205 11
-0.68564910 -0.01027615 -0.32724896 198 217 3
-0.68495077 0.04201858 -0.32049260 139 173 0
-0.68179244 -0.01256165 -0.32908982 151 147 47
-0.68840063 -0.01127042 -0.32906526 160 185 6
-0.69086951 -0.00830925 -0.32881740 141 170 0
-0.67419559 0.06204018 -0.31023103 136 169 16
-0.67297024 0.07396429 -0.31223109 180 201 22
-0.67465484 0.07015773 -0.31834555 167 198 61
-0.67450398 0.07013055 -0.31671375 109 140 11
-0.68616593 0.01319744 -0.33242756 178 194 10
-0.68089002 0.02101943 -0.32774615 162 190 27
-0.69161749 0.01649810 -0.32876486 129 159 27
-0.68546343 -0.00874110 -0.34055156 124 151 44
-0.68306923 -0.01796278 -0.32779408 111 111 13
-0.69830638 0.03288000 -0.31854618 185 199 44
-0.68589079 0.00814466 -0.32149792 200 241 17
-0.68676156 0.00871625 -0.32158872 175 212 11
-0.68700433 0.01106757 -0.32088107 122 166 7
-0.70202500 0.03079425 -0.31459919 143 163 30
-0.70497376 0.02592110 -0.31340840 63 82 1
-0.67575818 0.04562831 -0.31618717 184 214 38
-0.67377973 0.04984366 -0.31446639 154 198 27
-0.68091941 0.03566414 -0.32061151 137 167 0
-0.69269907 0.01383747 -0.32893366 139 163 25
-0.68039560 0.00105664 -0.33084679 92 123 20
-0.67092198 0.05680076 -0.31278670 121 154 15
-0.68650347 -0.01050935 -0.34746963 80 113 0
-0.68411511 -0.00426525 -0.33371443 88 114 5
-0.67627895 0.05766505 -0.31331372 123 162 9
-0.68341678 -0.02157734 -0.35626850 180 206 45
-0.70011628 0.03501558 -0.31619498 97 114 2
-0.67755985 0.06046988 -0.31245419 67 113 0
-0.68486470 0.05772957 -0.31590334 176 206 14
-0.69580001 0.02708661 -0.32160679 181 192 14
-0.68651527 -0.01306969 -0.35094565 138 170 43
-0.67306560 0.05910264 -0.31649557 124 160 0
-0.68025804 0.04968993 -0.31963062 178 200 11
-0.68049598 0.04360654 -0.32282764 170 198 0
-0.68739301 0.03242586 -0.32379761 168 208 15
-0.68452626 0.03055147 -0.32483330 147 173 11
-0.69336778 0.03298311 -0.31890953 150 196 10
-0.68993086 0.05030053 -0.32031345 186 209 5
-0.67939061 0.05590586 -0.31456396 74 114 0
-0.68057609 0.05848938 -0.31051487 127 172 53
-0.68081540 0.06714068 -0.31016439 93 133 44
-0.68787336 0.04900328 -0.31978640 131 168 0
-0.68418723 0.05464595 -0.31618547 146 171 0
-0.69352138 0.04217433 -0.32005879 96 144 0
-0.68557256 0.02005766 -0.33058161 152 174 4
-0.68429530 -0.01338660 -0.34154677 82 102 0
-0.67349970 0.04634269 -0.31749514 154 187 20
-0.68072420 0.03631913 -0.32187694 125 159 0
-0.67790824 0.04017828 -0.32032865 133 161 0
-0.67911631 0.01180791 -0.32560715 150 187 0
-0.68201184 0.02892349 -0.31993002 164 195 14
-0.68231696 0.01808190 -0.32166147 162 202 18
-0.68094587 0.01567190 -0.32330415 155 198 20
-0.67975909 0.05349486 -0.31086925 168 213 60
-0.67603409 0.05514663 -0.31122398 155 195 19
-0.68358332 0.01859442 -0.33088771 174 199 20
-0.68066376 -0.00534366 -0.33163521 168 183 54
-0.68523324 -0.01930129 -0.34793076 122 139 7
-0.69438326 0.01919628 -0.32713550 91 125 49
-0.68112963 -0.01053494 -0.33538866 154 171 43
-0.68032527 0.01040946 -0.32474256 133 172 0
-0.68136901 0.00927943 -0.32399052 180 222 24
-0.68150574 0.00652838 -0.32431820 190 230 22
-0.53290749 -0.03216751 -0.32402468 113 169 82
-0.53001714 -0.02079531 -0.31484357 43 74 0
-0.52620184 -0.02500475 -0.31635559 44 74 2
-0.54438281 -0.03435559 -0.32321113 147 190 82
-0.57271856 0.04556504 -0.30348423 39 70 0
-0.56961799 0.04419526 -0.30153003 85 122 29
-0.52593517 -0.03727489 -0.32585955 124 174 89
-0.53171659 -0.03764251 -0.33319733 83 112 56
-0.54802746 -0.00496251 -0.31373885 80 114 2
-0.52071154 -0.04598257 -0.33618939 93 114 75
-0.54838294 0.00339354 -0.30748677 98 122 72
-0.56111223 0.01909669 -0.29441321 116 168 67
-0.52150726 -0.04098853 -0.32773271 128 182 106
-0.54848087 -0.02903584 -0.32053852 132 145 63
-0.55600220 0.00372638 -0.29566884 124 178 38
-0.54569519 -0.00505435 -0.30098748 145 198 82
-0.54702985 -0.01580153 -0.31729671 75 113 28
-0.54825634 -0.01643387 -0.31750235 77 115 12
-0.54063660 -0.03217362 -0.32672766 51 90 0
-0.54401731 -0.02418742 -0.32357582 110 146 46
-0.56309599 0.02993590 -0.30226409 79 112 7
-0.56469482 0.02630474 -0.30470532 40 70 8
-0.56198376 0.01935906 -0.30591813 45 73 0
-0.56118512 -0.00308342 -0.30409732 61 96 12
-0.55667192 -0.00926245 -0.30464062 48 81 24
-0.53882486 -0.03489505 -0.32505673 145 199 87
-0.54191470 -0.01293719 -0.31634444 71 108 3
-0.52384764 -0.04812975 -0.33092529 127 178 60
-0.54703009 -0.01627704 -0.30669650 187 221 100
-0.54588586 -0.01698007 -0.30792239 118 152 39
-0.53913593 -0.02388327 -0.30817896 150 196 61
-0.55427271 0.00189649 -0.31118962 41 72 2
-0.54389781 -0.01377630 -0.31653416 97 136 11
-0.55348420 -0.00699424 -0.29733661 132 188 39
-0.52473819 -0.04226357 -0.33367497 88 104 65
-0.55435550 -0.01203727 -0.30625254 49 84 18
-0.54148978 -0.02221554 -0.32394034 99 122 14
-0.53983033 -0.02242869 -0.32286057 129 161 50
-0.53455901 -0.02961410 -0.32538477 123 163 51
-0.53361714 -0.03018402 -0.32916242 117 144 39
-0.56399322 0.02655863 -0.29332986 92 147 53
-0.56499225 0.02387374 -0.29305181 114 173 65
-0.51516956 -0.04557554 -0.33914736 117 120 129
-0.56684977 0.00228623 -0.29420650 156 200 25
-0.52120560 -0.03784512 -0.32681733 113 146 29
-0.56993425 0.04913169 -0.29886791 77 113 39
-0.57088917 0.05122544 -0.29721013 104 134 70
-0.56714559 0.03747245 -0.29316652 108 150 74
-0.56648248 0.03923507 -0.29864439 94 131 28
-0.55852538 0.01688710 -0.29819125 88 129 51
-0.55436081 -0.01186470 -0.30534264 44 76 11
-0.55718887 -0.00843638 -0.29825214 232 255 98
-0.56093395 0.02757560 -0.30082536 97 134 54
-0.56104881 0.01092762 -0.30908057 109 148 29
-0.56139255 0.00718050 -0.30904487 68 108 0
-0.53202319 -0.01936234 -0.31486702 35 65 0
-0.52355427 -0.03186124 -0.32198775 52 80 0
-0.57053488 0.01123626 -0.29496804 118 163 20
-0.56824255 0.00951558 -0.29213443 78 128 13
-0.52024156 -0.04055671 -0.32853204 123 154 35
-0.53420341 -0.03888319 -0.32769066 136 193 78
-0.55016237 -0.01011114 -0.29953447 163 221 74
-0.54848087 -0.00751260 -0.29981530 151 211 61
-0.52289146 -0.04716360 -0.33167374 126 180 43
-0.53455687 -0.03196534 -0.33121422 130 146 99
-0.56984025 0.01688436 -0.29147199 56 112 3
-0.56942642 0.01458107 -0.29148799 88 144 35
-0.56513768 0.01123744 -0.29267806 137 201 65
-0.57243621 0.01367630 -0.29692149 76 113 7
-0.52976769 -0.03254261 -0.32486051 97 130 13
-0.57679129 0.04126750 -0.30594882 142 160 50
-0.57650781 0.04608493 -0.30492926 62 87 0
-0.56016350 0.02413556 -0.29908878 82 129 27
-0.55927408 0.01385559 -0.30744547 56 84 10
-0.53106487 -0.04188637 -0.32994810 131 188 49
-0.51796633 -0.04980511 -0.33287299 130 168 67
-0.53927851 -0.01043882 -0.31233612 45 72 17
-0.56228143 0.00364187 -0.29323906 113 165 29
-0.55721611 -0.00064453 -0.29501069 156 211 66
-0.51712602 -0.05135492 -0.33327857 149 198 73
-0.57802141 0.05737490 -0.30322155 53 81 0
-0.56515765 0.03517172 -0.29729086 87 122 40
-0.55474871 0.01445268 -0.30357695 115 143 92
-0.55004829 0.00504154 -0.30238730 80 118 43
-0.55672228 0.01331158 -0.29893762 84 124 53
-0.54936391 0.00285752 -0.30139607 84 126 40
-0.53395385 -0.02522790 -0.32088551 123 156 26
-0.53307074 -0.03067011 -0.33124474 77 83 69
-0.54136550 -0.03045718 -0.32662427 107 147 35
-0.57222956 0.03885223 -0.30539921 33 61 0
-0.56597692 0.02340031 -0.30669904 33 71 12
-0.53782809 -0.01304018 -0.31354877 44 71 2
-0.53897661 -0.02545421 -0.32694966 118 136 52
-0.54924244 0.00259991 -0.30912662 55 86 8
-0.55431366 0.00580418 -0.30927834 111 149 28
-0.52968246 -0.02466838 -0.30885702 140 192 56
-0.53242493 -0.03934542 -0.33107844 114 169 42
-0.53738403 -0.01162878 -0.30947167 35 62 9
-0.51812696 -0.04317787 -0.33003774 110 144 24
-0.57645297 0.03120482 -0.30523840 105 126 0
-0.57154036 0.03093874 -0.30630717 52 76 0
-0.53168863 -0.02380464 -0.30811399 109 168 16
-0.53696740 -0.01835080 -0.30599365 128 186 48
-0.54299730 -0.01116517 -0.30308449 164 223 79
-0.54576862 -0.01724328 -0.30285165 140 198 51
-0.68617773 0.18839654 -0.48543283 145 137 118
-0.69506049 0.20240405 -0.48679212 143 138 116
-0.68805414 0.19627632 -0.48567629 162 155 129
-0.68574619 0.19629984 -0.48456520 172 164 141
-0.52903628 -0.03310860 -0.31075352 108 162 16
-0.51375169 -0.04939593 -0.33317897 110 166 79
-0.51386446 -0.03747380 -0.32243454 88 119 16
-0.51066244 -0.04017352 -0.32430819 84 107 16
-0.51194912 -0.04382702 -0.32960275 55 85 0
-0.49173754 -0.06237577 -0.33996090 146 180 70
-0.50318658 -0.04864631 -0.33031946 98 124 25
-0.50299078 -0.05202217 -0.33711231 65 101 5
-0.51998681 -0.03224691 -0.31584674 120 144 68
-0.48739621 -0.07643670 -0.35294986 83 133 20
-0.53210783 -0.02890219 -0.31974655 95 143 69
-0.52978218 -0.03414859 -0.31123659 148 194 43
-0.54508805 -0.02951388 -0.32209426 136 188 62
-0.53971511 -0.02228288 -0.31205776 76 116 17
-0.49971339 -0.05520717 -0.33924535 80 121 15
-0.53313762 -0.02734987 -0.31878757 100 148 64
-0.53581619 -0.02584977 -0.31611547 65 111 13
-0.51279336 -0.05369714 -0.33489537 131 188 81
-0.50757706 -0.05490841 -0.33844793 84 121 15
-0.49478465 -0.05909081 -0.34100139 73 108 18
-0.52267295 -0.03702004 -0.31668028 142 193 52
-0.50812697 -0.05579124 -0.33647221 93 152 62
-0.49679479 -0.05553113 -0.33820838 59 91 8
-0.50523806 -0.05101362 -0.32878947 171 217 69
-0.54837209 -0.02187921 -0.31830978 105 127 26
-0.51129293 -0.04469992 -0.32168147 169 205 55
-0.50822723 -0.04606332 -0.32464010 158 192 56
-0.51808482 -0.03806696 -0.31563443 139 172 29
-0.51294571 -0.04617154 -0.32258928 108 161 21
-0.52059889 -0.03839139 -0.31744477 138 188 41
-0.52093154 -0.03929047 -0.32555580 126 174 114
-0.51133889 -0.04707414 -0.32575908 73 129 38
-0.54606235 -0.02533504 -0.31886035 112 172 50
-0.51877970 -0.03981064 -0.31459281 139 151 25
-0.52267480 -0.03514993 -0.31200385 131 180 28
-0.50459391 -0.05653618 -0.33899346 86 128 4
-0.48515800 -0.07223616 -0.35036352 67 113 15
-0.50515866 -0.05413951 -0.33144295 73 129 28
-0.48813218 -0.07583292 -0.35224542 80 130 15
-0.49402896 -0.06273083 -0.33699611 52 88 0
-0.50430924 -0.05490178 -0.33526546 72 125 47
-0.49718583 -0.06132400 -0.33670667 66 112 14
-0.48712185 -0.06559937 -0.34721124 112 153 59
-0.51667112 -0.04886304 -0.33276612 131 191 93
-0.54644358 -0.02218900 -0.31515479 107 164 51
-0.50888312 -0.05725025 -0.33843142 101 149 14
-0.53437930 -0.02796934 -0.32256499 124 177 89
-0.52115697 -0.03720453 -0.32109556 61 114 60
-0.51083881 -0.05712266 -0.33811882 129 178 27
-0.53754753 -0.02565297 -0.32244724 103 158 65
-0.53067738 -0.02056895 -0.31190881 57 82 16
-0.50354499 -0.04860901 -0.33257899 51 78 1
-0.70967966 0.18866344 -0.48268995 52 55 12
-0.69482458 0.19551279 -0.47977784 103 112 65
-0.69999367 0.19146582 -0.47799176 40 60 0
-0.69713914 0.18643376 -0.45512754 105 123 37
-0.69288874 0.18786003 -0.43325007 101 121 52
-0.69742852 0.19489439 -0.48369858 120 127 93
-0.70464611 0.19025755 -0.48304403 79 95 7
-0.69370449 0.18501225 -0.43394440 105 126 51
-0.70312047 0.19300838 -0.46623251 99 110 31
-0.70294362 0.19289126 -0.46405971 98 111 32
-0.70116055 0.19099285 -0.45766070 131 142 73
-0.70291317 0.18976933 -0.47299969 92 106 0
-0.68969917 0.19157442 -0.48929933 106 96 71
-0.69721168 0.19001263 -0.46646130 88 111 21
-0.69428319 0.18838453 -0.45731506 106 127 50
-0.69725108 0.18843783 -0.44524491 97 115 33
-0.39113972 0.15454710 -0.42100585 88 138 0
-0.41306177 0.17788051 -0.34581536 91 131 0
-0.38610283 0.15149158 -0.44786477 67 114 0
-0.39439273 0.14997935 -0.38771799 115 150 20
-0.39436889 0.14993393 -0.38218811 121 162 34
-0.52988243 0.17962562 -0.27159646 154 187 83
-0.52705783 0.17559050 -0.27193871 165 197 72
-0.39098352 0.15154819 -0.42763087 78 125 0
-0.52008450 0.17076436 -0.27465525 220 252 91
-0.53194946 0.17099458 -0.27245668 216 245 103
-0.54045004 0.16375245 -0.27224052 206 222 25
-0.49318871 0.17555515 -0.27587029 88 129 1
-0.39341941 0.15184435 -0.42069072 108 157 14
-0.47622761 0.17269129 -0.28319508 108 154 3
-0.43091428 0.16567613 -0.32790896 149 186 11
-0.50817204 0.18006380 -0.27492189 99 138 11
-0.42100960 0.16290204 -0.35832596 100 146 21
-0.46350357 0.16409829 -0.28522816 161 196 78
-0.46444684 0.16174696 -0.28210133 146 184 81
-0.54811949 0.16887671 -0.27302918 189 228 59
-0.39690301 0.16395314 -0.40293905 64 102 15
-0.44315588 0.16037874 -0.32190773 129 175 7
-0.46922785 0.17219920 -0.28522187 131 172 0
-0.46965626 0.15971228 -0.27408668 84 126 2
-0.42485541 0.16681255 -0.33098570 89 128 1
-0.42737752 0.17704059 -0.31634048 149 191 67
-0.42933816 0.17967173 -0.31495702 121 168 62
-0.52307445 0.16783729 -0.27519840 157 187 3
-0.46011630 0.16632928 -0.29796115 95 143 0
-0.51435912 0.17877960 -0.27429000 162 197 45
-0.43448210 0.16384083 -0.32495186 94 132 0
-0.49821383 0.17099889 -0.27233613 166 196 4
-0.47009552 0.16036624 -0.27194721 128 170 32
-0.46800855 0.15735559 -0.28513443 158 196 21
-0.45221448 0.16006812 -0.31807470 78 127 9
-0.44054678 0.16199954 -0.31912324 154 189 24
-0.44039801 0.16142148 -0.32043725 114 151 11
-0.45064029 0.16272394 -0.30052945 174 212 47
-0.43543583 0.16629750 -0.31708664 159 204 99
-0.44116601 0.16226336 -0.31775442 157 193 25
-0.44484636 0.16697334 -0.30679768 125 165 43
-0.44355500 0.16938804 -0.30823565 149 187 104
-0.45149499 0.16345069 -0.29950088 178 217 50
-0.52868295 0.17781979 -0.27413523 86 131 4
-0.54013789 0.17844923 -0.27396819 85 130 1
-0.51711708 0.18034117 -0.27096903 154 187 83
-0.49304876 0.17232193 -0.27419531 179 203 5
-0.49094060 0.17121154 -0.27441114 192 215 11
-0.39474732 0.16392393 -0.38405475 92 111 29
-0.58769977 0.17752109 -0.29089659 125 169 14
-0.46261734 0.16312061 -0.28300449 103 144 0
-0.46457243 0.15810387 -0.29192513 124 165 1
-0.58308440 0.18163760 -0.28625566 159 202 50
-0.59019536 0.18348017 -0.28813398 188 231 63
-0.44930768 0.16080928 -0.30793750 153 194 30
-0.44844732 0.16020073 -0.31110564 151 190 13
-0.45992187 0.15790892 -0.30052125 97 146 5
-0.38971055 0.15197684 -0.43778649 45 94 0
-0.45691299 0.15917315 -0.31214407 57 106 0
-0.46262649 0.15751320 -0.30129361 100 147 0
-0.38411564 0.15069392 -0.44279763 129 181 34
-0.38258657 0.15064202 -0.44007429 108 157 29
-0.44774619 0.17945498 -0.31325689 144 183 4
-0.39632097 0.14949884 -0.38354588 97 136 7
-0.47980395 0.16700880 -0.27566564 172 203 11
-0.39234984 0.15809438 -0.39975595 112 144 79
-0.53867245 0.17169905 -0.27239513 206 238 101
-0.52057880 0.18358448 -0.27005228 142 178 44
-0.52295661 0.18375623 -0.27060801 129 168 27
-0.45227221 0.18750137 -0.30619946 74 108 31
-0.43479130 0.16216181 -0.33730447 119 164 21
-0.47748348 0.16605328 -0.27635592 136 175 22
-0.50912660 0.17387213 -0.27225572 168 201 70
-0.51029623 0.17131245 -0.27331018 160 193 62
-0.40029815 0.16165109 -0.37960687 71 111 0
-0.50383842 0.16461752 -0.27292740 164 205 5
-0.37573308 0.15666969 -0.47506246 180 179 53
-0.53351426 0.16853233 -0.27146122 148 176 29
-0.38587657 0.15510944 -0.44616717 108 139 19
-0.52025723 0.16969267 -0.27403206 186 210 36
-0.50144744 0.16624808 -0.27230763 136 174 0
-0.44757754 0.17326729 -0.31027150 132 170 0
-0.59128195 0.17546090 -0.29308507 164 215 26
-0.39202642 0.15556216 -0.41193819 93 142 0
-0.47155589 0.15808600 -0.27254680 123 160 0
-0.45142561 0.18252949 -0.30046818 137 180 39
-0.46543589 0.17286722 -0.28937614 128 174 6
-0.48462164 0.16423073 -0.27250037 154 195 0
-0.48582274 0.16330215 -0.27191523 106 151 0
-0.46034771 0.16008602 -0.30333701 94 139 0
-0.45773518 0.15938406 -0.31194532 71 112 10
-0.57669538 0.17956580 -0.28409031 140 178 57
-0.56541765 0.17705013 -0.27910876 127 161 22
-0.57290614 0.18370669 -0.27989200 182 216 57
-0.44597775 0.17506538 -0.30908549 163 199 13
-0.55164379 0.16850147 -0.27495039 129 164 0
-0.47151601 0.16067544 -0.27167413 73 120 0
-0.59977692 0.17650907 -0.28269172 132 145 57
-0.47747812 0.15842211 -0.27259886 131 174 22
-0.59631360 0.18469866 -0.28663424 165 204 35
-0.37871289 0.16040638 -0.46889696 116 131 26
-0.50804257 0.16830795 -0.27462342 174 203 14
-0.38543841 0.15120085 -0.43065727 107 153 28
-0.39994186 0.14947921 -0.37248549 121 162 58
-0.39899400 0.15109622 -0.37250453 147 188 82
-0.39270806 0.15536597 -0.38652331 109 148 21
-0.46986592 0.17013034 -0.28240362 162 192 0
-0.38295975 0.15530883 -0.46269739 92 123 6
-0.44647288 0.16945608 -0.31109601 138 171 0
-0.41540119 0.17192210 -0.33856672 105 153 33
-0.53332525 0.17127098 -0.27258250 179 214 36
-0.53625572 0.17421222 -0.27315873 154 183 0
-0.54618573 0.16912800 -0.27167267 201 223 63
-0.47172761 0.17679788 -0.28557593 138 179 77
-0.47313288 0.17848329 -0.28378248 179 222 80
-0.39253688 0.15687661 -0.38889712 77 108 49
-0.59606522 0.18180360 -0.28538871 149 184 28
-0.41905728 0.17627689 -0.32352659 150 188 51
-0.41744983 0.17679572 -0.33362779 77 116 0
-0.44543955 0.18307307 -0.30467549 141 177 51
-0.43406135 0.16535412 -0.32055992 144 181 3
-0.43483761 0.18126312 -0.30952421 109 154 12
-0.41503721 0.16080603 -0.36502188 28 63 0
-0.39058229 0.15077886 -0.38712409 75 94 72
-0.40948406 0.15424329 -0.36839473 69 110 18
-0.53461862 0.16260237 -0.27161720 175 213 65
-0.52910608 0.16525096 -0.27258906 179 220 56
-0.58740675 0.18653972 -0.28330544 208 237 69
-0.58017278 0.18604718 -0.28094077 192 222 62
-0.41312665 0.15604304 -0.36245063 81 133 25
-0.41347802 0.15628225 -0.36137640 73 125 15
-0.44247127 0.18569537 -0.31104788 71 109 22
-0.47894034 0.16212474 -0.27111724 128 174 52
-0.46800548 0.16016459 -0.27474731 149 188 69
-0.48648578 0.16371492 -0.27118903 142 183 51
-0.42250478 0.16445671 -0.33719161 162 209 55
-0.41709393 0.16023062 -0.34712532 156 204 40
-0.42228079 0.16380486 -0.33808398 132 178 44
-0.42202935 0.17523031 -0.32877353 148 187 6
-0.41630268 0.16692132 -0.36084345 125 163 16
-0.41631022 0.17565876 -0.33831444 138 177 6
-0.37449732 0.14513321 -0.48061851 103 128 24
-0.46012247 0.17161538 -0.29202256 119 156 51
-0.45856014 0.17072037 -0.29266486 141 182 41
-0.46872553 0.18093471 -0.28591353 119 160 19
-0.43353805 0.18210301 -0.31041706 160 201 11
-0.42798352 0.16855720 -0.32329461 100 144 49
-0.41808876 0.16895044 -0.33655331 142 187 45
-0.42403582 0.17019573 -0.32566312 153 198 56
-0.43442908 0.17375118 -0.31597224 147 193 9
-0.42680061 0.17433052 -0.32124761 169 212 21
-0.39583188 0.16041040 -0.39525589 73 120 4
-0.39648378 0.16130412 -0.39127848 83 130 0
-0.40790382 0.16133025 -0.37195754 121 166 5
-0.53886479 0.16725799 -0.27148432 163 193 9
-0.37878543 0.15133470 -0.47445267 78 88 25
-0.37563428 0.14680488 -0.46154028 112 156 35
-0.41952282 0.16986611 -0.33695650 81 127 0
-0.39890492 0.16138369 -0.38099071 102 147 18
-0.44469845 0.16047949 -0.32213035 83 128 11
-0.38938722 0.15877707 -0.43297330 42 83 7
-0.42733303 0.17851093 -0.31575346 163 200 6
-0.38128829 0.14967105 -0.45319322 94 142 7
-0.59927690 0.17835321 -0.28403804 90 95 39
-0.42570138 0.16746783 -0.32861751 106 146 75
-0.42704815 0.16552266 -0.33012366 162 206 57
-0.43637103 0.16152163 -0.32548267 145 188 23
-0.43047723 0.16308090 -0.33399621 111 153 15
-0.37995803 0.14865816 -0.46016616 95 136 14
-0.41476989 0.16434085 -0.34681901 125 167 67
-0.41161045 0.16751184 -0.35013771 106 152 43
-0.42047697 0.17293233 -0.32691607 153 193 17
-0.45706540 0.16437282 -0.29385921 124 157 40
-0.46479920 0.16749375 -0.28615698 177 214 48
-0.45285299 0.16657634 -0.29817000 139 174 30
-0.41235998 0.17090857 -0.34677815 99 145 36
-0.40859881 0.17247123 -0.35505450 106 150 52
-0.43648458 0.17397936 -0.31429648 146 194 12
-0.40854412 0.16439080 -0.35884190 120 160 74
-0.40809920 0.16082829 -0.35953590 124 168 55
-0.38193044 0.15331161 -0.46519935 98 132 19
-0.38179559 0.15188244 -0.46189880 119 159 37
-0.42176163 0.16069132 -0.34410590 112 158 34
-0.51028603 0.16215035 -0.27615905 125 171 11
-0.43825954 0.16809113 -0.31384975 146 185 96
-0.44556302 0.17096065 -0.30601513 158 195 126
-0.43502182 0.17143105 -0.31302428 145 191 66
-0.39107934 0.15554434 -0.43099344 111 159 39
-0.41684607 0.15813078 -0.35456723 105 153 31
-0.41845557 0.15797511 -0.35686445 73 126 8
-0.41245836 0.17873923 -0.34180894 106 150 5
-0.37909675 0.14900890 -0.47272432 98 146 26
-0.38109261 0.15770514 -0.46009168 88 106 7
-0.39387956 0.15267053 -0.41169530 85 132 0
-0.55564117 0.16832836 -0.27779925 136 172 24
-0.56304616 0.16781113 -0.27930167 157 190 49
-0.46999815 0.17385931 -0.28613234 139 175 85
-0.42383283 0.16550794 -0.33317360 141 186 5
-0.39097160 0.15505935 -0.38306698 73 103 39
-0.39299446 0.15816651 -0.38923705 59 101 0
-0.40282342 0.15927216 -0.37728173 82 122 8
-0.40347168 0.15745355 -0.37663975 79 121 0
-0.50055718 0.17707343 -0.27412382 121 160 35
-0.45637858 0.16062231 -0.29758555 122 156 35
-0.45927507 0.16090451 -0.28972960 127 165 43
-0.50213253 0.16005887 -0.27391100 131 180 36
-0.44819871 0.18495986 -0.31106690 63 107 12
-0.37679026 0.14528686 -0.47547853 117 159 57
-0.46103072 0.18030059 -0.29244497 106 143 14
-0.38967603 0.15222797 -0.43856266 62 110 8
-0.56608301 0.16705611 -0.28051853 206 235 83
-0.56083047 0.17258616 -0.27771261 196 227 74
-0.38313478 0.15348545 -0.45985931 73 114 0
-0.38373771 0.15012164 -0.45403478 84 132 0
-0.37223804 0.15132307 -0.48066175 109 107 66
-0.39069661 0.15728489 -0.42021573 45 99 0
-0.39234409 0.15354413 -0.39420667 120 158 21
-0.42016035 0.17735535 -0.32734662 125 170 7
-0.39105284 0.15470195 -0.43505993 92 138 13
-0.46842450 0.16879591 -0.28242716 161 195 10
-0.41517115 0.17623143 -0.33784059 94 136 24
-0.40128803 0.15354335 -0.37815389 119 161 23
-0.39950359 0.14883757 -0.37671003 83 118 0
-0.42929450 0.16260025 -0.33949304 81 129 9
-0.51032150 0.17740278 -0.28119910 136 168 0
-0.47226530 0.16360871 -0.27556828 148 194 46
-0.39907935 0.16327555 -0.39865223 46 94 0
-0.50430757 0.17553712 -0.27746096 108 150 4
-0.41936955 0.17707491 -0.31817049 133 175 65
-0.39177826 0.15580463 -0.39248565 112 152 20
-0.39080879 0.15557693 -0.38927537 88 126 0
-0.39479044 0.15323102 -0.41947174 123 173 24
-0.39000642 0.16130836 -0.42073527 33 74 4
-0.36994094 0.14036517 -0.48017743 93 94 54
-0.46045506 0.17888504 -0.29337263 156 195 44
-0.46016243 0.17516042 -0.29394308 128 172 77
-0.52925611 0.16726534 -0.27357385 202 222 13
-0.44206429 0.17660099 -0.30822566 140 178 43
-0.44291198 0.17451486 -0.30584496 134 176 64
-0.44300553 0.17785543 -0.30553216 114 164 53
-0.42957228 0.17469241 -0.31487054 126 165 46
-0.43138480 0.17840633 -0.31260136 122 166 7
-0.44076207 0.16478221 -0.31545588 118 154 0
-0.51037347 0.16984692 -0.27564123 143 172 0
-0.38087115 0.15569900 -0.45591772 80 108 0
-0.48756427 0.17087831 -0.27568588 200 219 13
-0.37295276 0.15410134 -0.47692499 94 83 79
-0.39377558 0.15984552 -0.38113385 111 139 28
-0.43541738 0.17026958 -0.31648836 101 146 1
-0.45744076 0.16145918 -0.31049666 139 176 18
-0.45425710 0.16301458 -0.31580177 121 156 26
-0.39430869 0.16170982 -0.38248208 124 149 48
-0.50059944 0.16031997 -0.27306280 143 192 48
-0.49166700 0.15951581 -0.27073398 112 156 0
-0.38171265 0.15754923 -0.46418625 110 125 22
-0.56736922 0.17553307 -0.28085217 157 193 33
-0.56290084 0.17437053 -0.27857539 179 215 57
-0.57068908 0.17400578 -0.28208050 197 233 73
-0.48212022 0.17600620 -0.28203052 156 196 64
-0.42282477 0.16577950 -0.33437818 135 179 8
-0.39435685 0.16012391 -0.41154608 43 99 10
-0.41091871 0.17665754 -0.34585595 85 120 0
-0.46398461 0.17321947 -0.29153615 103 143 8
-0.47105467 0.16252971 -0.27502245 85 132 0
-0.51383305 0.18007565 -0.27849913 140 167 0
-0.39668328 0.15919411 -0.37544498 127 161 66
-0.39532000 0.15526298 -0.37446147 130 167 64
-0.45009139 0.17607789 -0.30082154 153 197 60
-0.44875219 0.17949969 -0.30145395 115 166 47
-0.39170030 0.15232174 -0.39237931 121 145 71
-0.41349995 0.17332374 -0.34554768 129 175 41
-0.60336590 0.17660771 -0.29204652 106 126 27
-0.39062205 0.15384574 -0.40811467 100 144 47
-0.43443334 0.18360688 -0.31237888 101 149 47
-0.43413982 0.17257728 -0.31690586 114 165 2
-0.46866715 0.15827489 -0.27224797 174 210 76
-0.53384644 0.16220719 -0.27378583 179 206 13
-0.48332709 0.17472257 -0.28010079 98 136 0
-0.46870506 0.16886070 -0.28346765 187 217 31
-0.42746168 0.17922693 -0.31540772 169 207 8
-0.53504920 0.17741887 -0.27219510 141 170 64
-0.55030042 0.17509322 -0.27497011 171 203 58
-0.50299686 0.16935103 -0.27263314 146 178 35
-0.51187974 0.16455983 -0.27499649 174 213 62
-0.51129073 0.17428704 -0.27881122 115 153 18
-0.59118646 0.18023574 -0.28973415 139 182 32
-0.48987669 0.16438946 -0.27070957 155 197 63
-0.45985723 0.16551429 -0.29119569 128 156 0
-0.46263298 0.16006047 -0.29584458 127 161 0
-0.59449077 0.17869893 -0.29249203 149 193 22
-0.46671644 0.15884688 -0.28186461 108 167 1
-0.46794114 0.15860565 -0.27967507 88 136 0
-0.46099246 0.16597858 -0.28568819 138 171 0
-0.57474023 0.26201856 -0.19347070 184 228 73
-0.58189476 0.23804586 -0.21377152 107 138 8
-0.58992016 0.23345779 -0.22015762 82 116 0
-0.58951998 0.23157161 -0.21619958 167 197 23
-0.57374668 0.26357126 -0.19161747 176 221 70
-0.58235592 0.24685454 -0.21064802 127 164 24
-0.58218402 0.25102571 -0.20567748 144 161 49
-0.59086764 0.22935852 -0.23034790 84 112 28
-0.58878887 0.23382840 -0.22515602 101 124 34
-0.57061929 0.26973361 -0.18610390 183 223 74
-0.59143078 0.21693179 -0.23460044 119 153 33
-0.59020919 0.22028241 -0.23135780 89 125 3
-0.57016259 0.27197105 -0.18312120 216 252 92
-0.57998937 0.24615943 -0.20737743 106 140 4
-0.58702737 0.23956738 -0.21709272 84 117 0
-0.56761122 0.27711591 -0.18004586 221 247 76
-0.59919065 0.22504391 -0.23092304 113 132 40
-0.59611154 0.22995946 -0.21971855 93 106 36
-0.58129203 0.25715292 -0.19791606 183 214 33
-0.57210702 0.26983461 -0.18340780 187 221 72
-0.59731823 0.22187877 -0.23814267 107 133 23
-0.59406000 0.21885668 -0.24176782 57 87 0
-0.59363228 0.22436191 -0.23793124 64 89 23
-0.58530807 0.24529998 -0.21215516 141 164 50
-0.58456951 0.24602264 -0.21050671 116 152 18
-0.57543808 0.26228771 -0.19310351 169 214 61
-0.59633934 0.23014271 -0.22534044 121 133 49
-0.57366467 0.26690099 -0.19018807 152 175 7
-0.57914931 0.25907809 -0.19747160 123 141 21
-0.57118982 0.27215958 -0.18138735 210 240 90
-0.58362311 0.24416338 -0.21428238 117 139 39
-0.58111590 0.24335673 -0.21115091 61 89 0
-0.60824156 0.17198998 -0.29510835 152 180 44
-0.57114619 0.18828695 -0.28029507 173 205 60
-0.57141805 0.18854938 -0.28033820 206 238 92
-0.63964444 0.18760854 -0.32446373 113 133 18
-0.58550709 0.18867905 -0.28023723 242 255 100
-0.57875758 0.18984629 -0.28042671 171 201 55
-0.60949045 0.17209649 -0.29991129 157 188 58
-0.55889827 0.19502403 -0.28034133 150 180 48
-0.61413413 0.18357782 -0.30794469 78 105 2
-0.61714822 0.18503369 -0.31148005 80 103 13
-0.64067835 0.18331334 -0.32893366 66 89 0
-0.60641354 0.16603431 -0.31030738 140 177 12
-0.61527163 0.18242823 -0.30747932 101 131 17
-0.61607140 0.17973709 -0.31015345 66 97 0
-0.66059989 0.18284686 -0.36700222 74 90 41
-0.57769620 0.19911882 -0.27831209 190 227 61
-0.60861301 0.18736564 -0.30818257 115 141 8
-0.60587305 0.18649775 -0.29873952 72 105 0
-0.52109957 0.18409283 -0.27208632 170 195 7
-0.56347162 0.16554588 -0.28003001 182 211 69
-0.54005891 0.19701578 -0.27351922 135 179 30
-0.65956706 0.18261841 -0.36288503 68 81 35
-0.57066548 0.16480799 -0.28186646 217 240 90
-0.58678150 0.20287073 -0.28071445 134 140 106
-0.59545618 0.19632807 -0.28219613 111 145 6
-0.59302515 0.19903564 -0.27797300 138 168 34
-0.59424704 0.19308133 -0.28052035 123 153 0
-0.66505116 0.17580621 -0.35935378 109 125 54
-0.60650468 0.17937826 -0.30506277 58 88 2
-0.59873986 0.19631247 -0.28812453 104 137 4
-0.65578645 0.18341941 -0.34559578 76 95 13
-0.65218276 0.18614189 -0.33652130 82 98 10
-0.63794667 0.18064407 -0.33805570 45 68 0
-0.67012686 0.18410999 -0.38130656 70 91 60
-0.66955268 0.18180078 -0.37494564 72 85 55
-0.61009896 0.18260734 -0.30275944 103 141 6
-0.66321957 0.18285248 -0.37320730 82 98 49
-0.55608743 0.18121293 -0.27475119 159 203 68
-0.56345689 0.18429741 -0.27653962 174 204 30
-0.56083518 0.18273368 -0.27597526 162 205 40
-0.55985725 0.18066308 -0.27599403 170 208 89
-0.51333231 0.18920380 -0.27029607 122 154 0
-0.62739617 0.17705418 -0.32466123 43 70 1
-0.61563069 0.16841123 -0.31557521 66 93 0
-0.60283870 0.17728421 -0.30222687 127 160 27
-0.63448894 0.18127392 -0.32698733 51 75 0
-0.59508061 0.19898330 -0.27934149 149 173 75
-0.59685099 0.18614236 -0.28719583 114 143 15
-0.57459843 0.19863424 -0.27812791 163 196 1
-0.60656333 0.16721426 -0.31041029 204 228 106
-0.57358259 0.19373257 -0.27940512 231 251 91
-0.54218435 0.18832617 -0.27172917 137 172 0
-0.54360360 0.18276486 -0.27312309 173 212 9
-0.52769345 0.18679993 -0.27128252 196 218 22
-0.59652787 0.18021385 -0.29608613 79 115 5
-0.60204369 0.17030832 -0.30654114 180 214 58
-0.60699528 0.16906805 -0.29164046 159 180 61
-0.53379852 0.18593788 -0.27130118 208 242 95
-0.52843887 0.19039765 -0.27155119 202 242 84
-0.52752018 0.18783270 -0.27160069 153 184 47
-0.53923976 0.18331297 -0.27174965 176 212 62
-0.54306352 0.18645804 -0.27099383 203 236 71
-0.55081660 0.18013437 -0.27385280 206 238 137
-0.55646020 0.17037584 -0.27518785 137 174 8
-0.56724966 0.17139053 -0.27796280 181 205 21
-0.56062853 0.18945219 -0.27972603 175 203 41
-0.56177491 0.18694368 -0.27633592 126 165 12
-0.65328473 0.18828502 -0.32964766 126 144 60
-0.64954627 0.18827453 -0.32418925 147 163 65
-0.59224474 0.19664468 -0.27776623 187 218 37
-0.56969476 0.19826080 -0.27998161 185 222 21
-0.59432125 0.17161715 -0.29785481 108 138 0
-0.61177516 0.18000208 -0.30802903 72 102 2
-0.59657151 0.17116687 -0.30124003 176 207 67
-0.61283338 0.16949277 -0.30981308 177 202 58
-0.58658636 0.16948450 -0.29473490 114 146 11
-0.57001579 0.19835158 -0.28051409 145 188 23
-0.65296376 0.17819650 -0.36196032 84 100 11
-0.56927365 0.16759700 -0.28037885 204 229 65
-0.58327240 0.20403141 -0.27693737 114 128 40
-0.55561978 0.16739964 -0.27843830 177 208 42
-0.63627845 0.17989118 -0.33531332 40 63 0
-0.61186659 0.16445272 -0.30506822 85 119 6
-0.57437879 0.17321110 -0.28181994 190 219 49
-0.58851385 0.19560266 -0.27746144 183 214 12
-0.65486467 0.18172958 -0.35186195 50 71 12
-0.57858068 0.16887406 -0.28641364 173 203 55
-0.55914074 0.19386221 -0.28008565 172 205 56
-0.61129689 0.16298784 -0.29777059 101 129 10
-0.59050763 0.16964877 -0.29816175 140 172 35
-0.58157915 0.16700000 -0.28872716 104 142 7
-0.58081675 0.19294475 -0.28063592 159 193 44
-0.58675021 0.19602451 -0.27550182 217 249 62
-0.61750716 0.17420498 -0.31349406 60 91 0
-0.60962301 0.17691796 -0.30869389 133 161 38
-0.53279227 0.19995941 -0.26730058 122 169 29
-0.62275064 0.17488518 -0.32098675 56 81 0
-0.55801868 0.17690785 -0.27689385 86 124 0
-0.56913787 0.18601538 -0.27949300 202 227 47
-0.56325114 0.18690066 -0.27754301 165 194 18
-0.55148703 0.17957260 -0.27589300 109 146 6
