0.53989607 0.37727743 -0.07241572 119 169 44
0.53478813 0.40466565 -0.08816375 79 80 36
0.52340949 0.42271647 -0.09276758 125 139 86
0.50863922 0.42666557 -0.10469985 75 119 8
0.51015413 0.42354557 -0.10088097 77 121 0
0.51423836 0.42577264 -0.10334089 81 128 12
0.51692706 0.41603920 -0.09575959 93 138 45
0.52777416 0.41844931 -0.08784051 123 133 73
0.52331203 0.39247346 -0.08008251 107 147 0
0.52238768 0.39664951 -0.08221533 120 161 5
0.52838290 0.41102105 -0.08782776 92 138 3
0.52412480 0.39116704 -0.07921559 92 133 0
0.52439350 0.38989440 -0.07819012 104 147 5
0.54881340 0.38000119 -0.06925204 70 88 6
0.51482588 0.44083223 -0.11651319 167 179 93
0.55347449 0.37418821 -0.07581036 88 121 0
0.52447057 0.37928495 -0.07068554 97 161 4
0.52388728 0.37944403 -0.07079396 95 155 21
0.52459788 0.41779417 -0.08994237 115 160 33
0.55931634 0.35262501 -0.07703198 71 117 8
0.56171089 0.35256159 -0.07404739 142 167 75
0.55467463 0.36893752 -0.07682039 106 140 17
0.51567680 0.43340898 -0.10853452 89 129 15
0.53099084 0.40553772 -0.08531515 114 157 26
0.55793166 0.35129455 -0.07016504 88 132 35
0.55870622 0.35006225 -0.07034709 85 128 38
0.55516011 0.34865239 -0.06952164 79 127 28
0.56098998 0.35037351 -0.07264633 106 146 49
0.56235236 0.35045162 -0.07427551 95 122 45
0.51832998 0.42979380 -0.10978868 93 118 35
0.54755008 0.38276035 -0.07693626 106 134 21
0.52696693 0.40622526 -0.08604681 89 137 1
0.52473301 0.40653861 -0.08689658 97 146 18
0.51721555 0.43558609 -0.11196303 159 179 94
0.55871141 0.36548656 -0.07330577 123 145 21
0.52885067 0.40029007 -0.08272532 92 139 27
0.52857947 0.39972532 -0.08251985 94 141 27
0.55761391 0.36463124 -0.07614530 106 142 16
0.53709865 0.39450303 -0.08101775 113 146 31
0.54568350 0.38931584 -0.07628610 149 181 72
0.51878136 0.41798943 -0.09505498 88 139 21
0.51858515 0.42090487 -0.09647345 107 156 38
0.53497720 0.39035231 -0.07794449 84 126 18
0.52910972 0.39236775 -0.07906129 105 139 55
0.54285771 0.38541088 -0.07455110 134 175 34
0.53769672 0.38989258 -0.07749800 120 158 36
0.54175997 0.36032474 -0.06862503 91 148 9
0.54627293 0.35267586 -0.06755040 95 147 21
0.54718232 0.35364941 -0.06815429 79 119 30
0.52316570 0.38429171 -0.07361712 103 154 15
0.53377044 0.41003796 -0.09014254 104 135 0
0.53028363 0.40493613 -0.08498940 91 132 12
0.52051616 0.41221181 -0.09206451 90 139 34
0.52047706 0.41081780 -0.09132791 92 137 42
0.52826941 0.39540672 -0.08046776 97 133 43
0.53134567 0.39352867 -0.07954077 100 144 33
0.53687686 0.39801955 -0.08464814 121 142 25
0.54485840 0.39054012 -0.07805351 143 169 70
0.52714127 0.42204350 -0.09228631 115 115 125
0.52668357 0.42251346 -0.09191462 88 89 107
0.56565112 0.33067223 -0.07424263 68 92 44
0.55009419 0.38172919 -0.07304042 104 107 80
0.54493445 0.38374215 -0.07271057 92 134 22
0.54705375 0.38427901 -0.07221982 131 169 30
0.54768080 0.37989655 -0.06826556 105 151 3
0.53426236 0.39933279 -0.08474910 94 121 26
0.55186224 0.37352657 -0.07921579 115 147 2
0.56267834 0.33951724 -0.07268921 78 108 38
0.51860517 0.42337176 -0.09772791 89 138 12
0.52028042 0.42384112 -0.09710407 80 126 17
0.54195994 0.37831664 -0.07155709 116 164 29
0.54414624 0.37451696 -0.07061464 122 170 32
0.54520303 0.37222368 -0.07029403 124 175 34
0.56195438 0.34826592 -0.07548228 43 83 0
0.48100156 0.40035650 -0.03936685 123 160 2
0.46777430 0.42082638 -0.05381015 124 161 4
0.48631552 0.40451628 -0.03061749 96 140 0
0.48756927 0.40482974 -0.02793843 126 167 0
0.48408234 0.40628901 -0.03999665 124 172 0
0.48980606 0.41086906 -0.03219855 100 145 0
0.48962247 0.41076201 -0.03236518 97 143 0
0.48023549 0.38461924 -0.02854256 94 132 0
0.49174938 0.39698988 -0.02009000 71 117 0
0.49133864 0.41053009 -0.03098289 124 162 14
0.46767870 0.42378840 -0.05362979 134 162 2
0.46768773 0.41999727 -0.04991559 115 143 0
0.49183953 0.38639697 -0.01666976 82 126 0
0.48053250 0.38272801 -0.02043776 120 159 4
0.49534538 0.40220293 -0.02342616 128 147 65
0.47220325 0.40493181 -0.04004180 146 181 3
0.48121431 0.38802063 -0.02772924 156 192 6
0.48305109 0.38872510 -0.01555992 104 142 0
0.48362797 0.38430953 -0.01058778 108 143 1
0.48294640 0.38460976 -0.01147642 129 164 8
0.48149857 0.39456615 -0.03719964 127 158 18
0.46733192 0.40464351 -0.04126425 136 173 0
0.46922261 0.41419116 -0.04559621 115 149 0
0.48812839 0.38862029 -0.02025247 115 156 0
0.48994616 0.40159842 -0.02512565 108 149 9
0.48192272 0.38459456 -0.02662512 99 141 0
0.47857791 0.40316111 -0.04049842 168 199 17
0.47362471 0.39847922 -0.03892570 155 191 21
0.47843096 0.41050160 -0.04033794 129 164 0
0.46961984 0.40534511 -0.04004880 161 200 9
0.46902129 0.40251973 -0.03863820 156 195 8
0.47227320 0.39922252 -0.03385766 118 155 0
0.48949525 0.39671054 -0.02148959 118 159 5
0.48698875 0.39874297 -0.02747221 99 142 0
0.46890700 0.40026617 -0.03903207 129 165 0
0.47453466 0.39299726 -0.02734930 163 202 21
0.47969627 0.39156511 -0.02134882 109 144 0
0.47723716 0.39303973 -0.02501636 140 173 20
0.48122373 0.39074740 -0.03019164 161 192 3
0.46634787 0.42741811 -0.05866905 122 157 3
0.46576154 0.42923114 -0.05997580 108 144 0
0.48705247 0.38387480 -0.00865234 110 148 26
0.48812300 0.38538876 -0.01001120 102 140 19
0.48286894 0.39049479 -0.01753724 106 142 0
0.49099231 0.41248491 -0.03730462 148 160 78
0.47055650 0.41853839 -0.04877728 101 132 0
0.48383394 0.39728338 -0.03197284 142 181 14
0.48638076 0.38388920 -0.01279903 116 151 5
0.46515620 0.42041597 -0.05365841 151 184 19
0.47229505 0.40319535 -0.03968380 156 188 0
0.46831575 0.40358573 -0.04047129 124 163 0
0.47887406 0.39491227 -0.02522171 110 146 0
0.47712803 0.40090734 -0.03062861 116 151 0
0.47910866 0.39500234 -0.02507196 113 148 2
0.47982320 0.38417578 -0.02512101 123 159 11
0.47684705 0.38893628 -0.02907124 136 171 9
0.47971368 0.38424850 -0.02335899 136 172 20
0.48295617 0.39256874 -0.02958924 129 167 4
0.48704445 0.40734670 -0.03276021 104 148 0
0.48663586 0.40591240 -0.03080845 94 135 0
0.48178470 0.39698875 -0.03880638 159 200 44
0.48899236 0.39066321 -0.01742579 105 141 0
0.47964808 0.39283305 -0.03910784 132 156 8
0.48378402 0.40170103 -0.03620337 149 193 20
0.49123785 0.38847244 -0.01700956 140 182 38
0.47932851 0.40562090 -0.04034422 126 161 0
0.47465569 0.39189473 -0.03443641 177 206 18
0.47818848 0.38697711 -0.03148929 106 142 0
0.47466332 0.40941447 -0.03960757 155 190 10
0.47062987 0.41108039 -0.04306745 139 176 10
0.47497448 0.40549970 -0.03551544 154 191 15
0.47850358 0.38555586 -0.01978067 103 139 0
0.47515255 0.39106381 -0.02483489 147 185 20
0.47511879 0.39123619 -0.02576192 156 194 29
0.48814076 0.39151201 -0.01938791 102 144 0
0.48387101 0.39993015 -0.03314577 142 187 0
0.48518202 0.38578406 -0.01813869 112 153 0
0.47942963 0.39188498 -0.03628629 150 177 20
0.47993359 0.39080733 -0.03410075 112 149 0
0.48679465 0.39169547 -0.02368821 130 169 2
0.47437927 0.39286244 -0.03833772 123 153 0
0.48218977 0.41336635 -0.04185351 144 179 0
0.48032284 0.39522207 -0.03997396 108 137 0
0.47714794 0.41972974 -0.04847906 119 155 0
0.47937855 0.41541436 -0.04254541 115 150 0
0.48055169 0.41678473 -0.04377289 140 173 24
0.47849047 0.41541967 -0.04271195 136 175 6
0.47307202 0.41235378 -0.04208709 113 146 0
0.48453328 0.41254586 -0.04167911 149 186 0
0.47125301 0.41635904 -0.04680135 126 160 1
0.46773353 0.40482983 -0.04094947 132 170 0
0.46837172 0.40609989 -0.04111363 159 195 27
0.47616225 0.39479226 -0.04061856 171 203 4
0.48338690 0.38074592 -0.01364199 97 136 0
0.46887326 0.40079299 -0.03961551 126 164 0
0.46621037 0.42967781 -0.05869476 142 173 7
0.46505314 0.42513677 -0.05582042 153 187 2
0.47632420 0.40270010 -0.03957103 129 162 0
0.38991317 0.52931452 -0.20789452 81 31 24
0.38519964 0.53288001 -0.20651545 91 86 56
0.39364696 0.51822293 -0.19836792 108 88 37
0.38683796 0.52693915 -0.20424314 166 131 111
0.38709399 0.52468038 -0.20045847 59 38 0
0.38352451 0.52993780 -0.20666374 57 42 21
0.39015496 0.52052552 -0.20345028 188 105 63
0.38863498 0.52269071 -0.19937582 88 67 10
0.38885918 0.53509206 -0.20582783 77 63 18
0.58350170 0.30192307 -0.08313084 123 167 22
0.51527852 0.41455466 -0.09564191 30 70 0
0.57551301 0.31011167 -0.08260036 75 127 1
0.51693070 0.40884748 -0.08783944 71 110 3
0.53315145 0.35926247 -0.07529969 120 170 19
0.57189256 0.31887090 -0.07849145 0 52 0
0.51354021 0.41563174 -0.09398431 33 73 3
0.57450247 0.30561814 -0.08319838 70 121 2
0.58235121 0.30097756 -0.08417556 105 150 5
0.56522858 0.30517617 -0.07871130 82 131 3
0.56185156 0.31313694 -0.07402432 46 95 4
0.52168399 0.39780959 -0.09108373 125 157 22
0.51361376 0.41846949 -0.09869659 21 57 0
0.54734731 0.34609070 -0.07614034 121 155 43
0.58598369 0.30088133 -0.08028214 115 147 72
0.52232778 0.37282929 -0.07504696 189 209 62
0.56274897 0.32752553 -0.06985570 50 96 6
0.53430754 0.36196122 -0.08119694 151 179 77
0.53599608 0.35627034 -0.07676807 149 165 90
0.54281825 0.33615661 -0.06914913 106 136 38
0.54398811 0.33548990 -0.06649818 87 117 29
0.56704634 0.32688013 -0.07437015 70 92 54
0.56609303 0.32672623 -0.07281575 77 104 61
0.54185969 0.34256995 -0.06496835 66 128 0
0.54189861 0.33893430 -0.06764339 86 117 23
0.55102170 0.34250355 -0.07430151 103 142 36
0.56667191 0.30838484 -0.08050834 82 136 22
0.54779917 0.33260575 -0.06648156 110 143 30
0.55477399 0.33638924 -0.07448264 63 101 14
0.55140960 0.34055334 -0.07388687 69 102 21
0.56841558 0.31911448 -0.07744920 22 74 0
0.55107594 0.33521003 -0.07315570 83 115 40
0.55550480 0.33462179 -0.07199003 59 101 17
0.55437648 0.33415818 -0.06615886 72 109 31
0.52876925 0.40183362 -0.08975113 91 135 11
0.52272850 0.40621531 -0.09366854 109 131 67
0.58124584 0.29651025 -0.08891433 105 152 20
0.53899091 0.35182342 -0.06954784 50 109 1
0.56400210 0.31230015 -0.07788387 80 136 3
0.51304662 0.41873682 -0.09894039 27 68 0
0.54190546 0.35149422 -0.07686909 149 185 59
0.56456095 0.30368590 -0.07841957 86 137 10
0.51940823 0.40532517 -0.08673800 45 79 3
0.51737648 0.41957906 -0.09763642 115 145 33
0.51904249 0.41286960 -0.09308841 151 175 113
0.52203381 0.38787344 -0.08191575 53 85 10
0.52345067 0.38612726 -0.08363914 79 115 19
0.52334297 0.40808493 -0.09452300 98 130 33
0.56120396 0.31946459 -0.07085183 54 103 11
0.53177041 0.40045002 -0.08548879 21 77 0
0.56162870 0.33074480 -0.07043294 48 96 10
0.53561312 0.35563764 -0.07530441 174 211 95
0.55141550 0.33670551 -0.06338420 99 145 11
0.56448615 0.32550642 -0.07172018 96 128 81
0.56484735 0.32705489 -0.07167596 87 119 70
0.52676958 0.39660534 -0.08730234 126 171 18
0.53825796 0.35086411 -0.07470501 85 112 45
0.54286873 0.35410780 -0.06747854 115 167 0
0.56421131 0.30156222 -0.07881707 104 148 59
0.55704337 0.32759848 -0.06609616 84 124 25
0.56047636 0.31768173 -0.07153200 95 134 71
0.56476367 0.30926192 -0.07480383 103 146 75
0.56356895 0.31973040 -0.07460447 59 112 8
0.54514194 0.34201473 -0.07458851 89 117 40
0.54095769 0.33989260 -0.07087193 121 156 52
0.54032046 0.34546235 -0.06753845 59 125 1
0.55589998 0.33856803 -0.07474923 62 98 8
0.52388239 0.41412696 -0.09753487 107 144 5
0.55375099 0.33053100 -0.06397162 102 134 27
0.54104555 0.34256107 -0.07306819 95 131 41
0.55817103 0.33123103 -0.06954265 47 79 12
0.56324059 0.32325363 -0.07157440 127 157 107
0.55855542 0.32548526 -0.06940217 88 121 64
0.55764765 0.33169511 -0.06868703 80 112 47
0.57997918 0.30408007 -0.07618588 98 138 65
0.58278275 0.30186078 -0.07712805 94 136 54
0.52180231 0.40312403 -0.09219392 98 130 19
0.54812074 0.34050921 -0.07396236 93 127 33
0.52587461 0.39110112 -0.08660474 59 102 0
0.53064126 0.39193010 -0.08384541 113 160 18
0.53164023 0.36466688 -0.07832874 115 141 76
0.52352571 0.37178519 -0.07221382 155 189 43
0.53951204 0.34910905 -0.06912985 57 127 3
0.53920972 0.35037971 -0.07120018 32 99 0
0.53396672 0.35976672 -0.07404598 61 132 0
0.57824254 0.31351686 -0.08051923 82 127 42
0.55133748 0.33221018 -0.06268558 101 147 25
0.54748464 0.34045258 -0.06383660 78 128 5
0.54427230 0.34336492 -0.06533280 92 151 7
0.52340609 0.39395040 -0.08832843 101 143 7
0.52401763 0.39008904 -0.08702929 102 137 19
0.52896726 0.40840966 -0.09441421 136 170 21
0.51837051 0.41971210 -0.09724911 92 126 13
0.52692938 0.38016567 -0.07998952 38 65 12
0.52407283 0.37624010 -0.06994541 91 155 6
0.56702477 0.31937307 -0.07707479 34 78 3
0.55158734 0.33403450 -0.07079355 59 89 29
0.54700106 0.33262852 -0.06787047 73 99 25
0.52781391 0.40288043 -0.09065276 67 107 0
0.54328322 0.33919495 -0.07220306 77 111 37
0.52600151 0.39754188 -0.08802135 101 145 0
0.54804415 0.33428156 -0.06370425 78 107 23
0.52170461 0.37451082 -0.07469077 178 200 65
0.53159618 0.39880073 -0.08382008 21 75 0
0.56886226 0.31057808 -0.08011494 22 69 0
0.56644136 0.31460232 -0.07845477 51 101 16
0.52056026 0.37944478 -0.07697489 124 155 36
0.52052104 0.38535967 -0.07754640 136 167 47
0.56256723 0.32211718 -0.07136597 85 127 51
0.56515706 0.32229307 -0.07381818 37 90 0
0.52108723 0.39764684 -0.08705840 110 142 59
0.52071768 0.40097567 -0.08610781 59 87 13
0.57636648 0.30249152 -0.08456025 95 143 21
0.52250111 0.38533440 -0.07998458 61 100 11
0.54708534 0.33409673 -0.06136148 80 144 8
0.52620310 0.40873042 -0.09471752 117 158 20
0.52842551 0.36880434 -0.07625058 89 126 31
0.52243060 0.37570125 -0.07682160 133 158 30
0.53074414 0.40420401 -0.09238125 94 134 22
0.52228725 0.39875004 -0.09155979 137 168 15
0.57253623 0.30341884 -0.08539154 61 106 11
0.52323246 0.40021834 -0.09052166 89 126 0
0.52602196 0.37594858 -0.07783915 53 84 16
0.53148288 0.36881322 -0.08000480 88 112 50
0.54223686 0.34876040 -0.06658161 91 146 0
0.54298580 0.34493116 -0.06588817 88 145 2
0.54536366 0.34389991 -0.06522804 69 124 0
0.57689989 0.31326920 -0.08174339 83 128 35
0.52693325 0.37001207 -0.07608918 103 137 14
0.54059482 0.35324544 -0.07774604 121 158 27
0.55350143 0.33435339 -0.06685394 64 100 26
0.52536529 0.38466656 -0.08363040 58 92 15
0.55026960 0.34852251 -0.07413708 74 116 4
0.55154961 0.34640488 -0.07409651 81 117 17
0.58059174 0.29988793 -0.08596560 91 138 0
0.52054894 0.39558679 -0.08264074 98 139 1
0.52058917 0.39476758 -0.08254519 119 160 20
0.49332866 0.45954829 -0.13708347 93 102 37
0.49250928 0.45993108 -0.14382894 81 91 38
0.51321304 0.43511188 -0.11690872 111 138 31
0.50426829 0.43995008 -0.12439436 133 151 101
0.50089854 0.43529409 -0.11733521 70 117 1
0.49230683 0.45987371 -0.15163198 96 116 47
0.49279541 0.45998776 -0.15307079 105 121 56
0.51560163 0.43446159 -0.11629087 107 135 24
0.51765406 0.43054053 -0.11198606 92 115 33
0.51110530 0.42834675 -0.11038832 101 124 56
0.50706279 0.43662515 -0.11752672 101 122 63
0.50142109 0.45440623 -0.13670629 128 150 65
0.51049697 0.44206363 -0.12076553 132 163 26
0.51081795 0.44186264 -0.12054751 136 167 29
0.51690549 0.42706859 -0.10501724 83 107 9
0.50015235 0.43905160 -0.12050068 67 108 2
0.50086683 0.44229090 -0.12342834 68 104 6
0.50215459 0.43926471 -0.11904156 60 102 4
0.50201494 0.45727485 -0.15504731 87 107 36
0.50066090 0.45635086 -0.15529458 109 129 58
0.50514334 0.43231761 -0.11135210 71 116 11
0.50056750 0.45552805 -0.14302827 87 104 24
0.49913603 0.45220801 -0.13973267 115 132 61
0.50169295 0.45014733 -0.13394366 90 115 49
0.50373900 0.45085025 -0.13123654 128 155 58
0.49960813 0.44919172 -0.13658750 86 108 44
0.50111818 0.45513898 -0.14865838 89 109 37
0.50304425 0.43388316 -0.11663578 40 77 0
0.50168645 0.43659627 -0.12037500 30 66 5
0.50743979 0.44987154 -0.12621383 109 135 28
0.50111914 0.45405179 -0.13714215 109 133 47
0.49309343 0.45855397 -0.14880118 100 123 43
0.49650139 0.45775592 -0.15892303 115 138 56
0.49713576 0.44935393 -0.13564396 90 122 25
0.49712899 0.43956867 -0.12647541 41 76 0
0.49687406 0.45813602 -0.16088589 118 144 57
0.49397320 0.45891139 -0.13416576 94 104 33
0.49614644 0.45974669 -0.13960008 101 112 46
0.50853992 0.43421540 -0.11286269 74 119 18
0.50761479 0.43525803 -0.11406416 77 119 17
0.49857888 0.46084273 -0.14634761 88 99 43
0.49997011 0.46029818 -0.14943926 86 98 34
0.49874482 0.46414399 -0.16139606 105 124 45
0.50008422 0.46184507 -0.15227795 88 101 45
0.49996468 0.46211991 -0.15325712 91 105 46
0.49695399 0.46435231 -0.16637073 89 105 30
0.50054014 0.45793617 -0.14847594 86 101 34
0.49920610 0.45955002 -0.14614992 87 99 37
0.50625449 0.44041830 -0.12250616 113 131 79
0.49583569 0.46165150 -0.16207248 141 159 85
0.49876690 0.46283144 -0.17412657 117 140 58
0.49414837 0.44933525 -0.13916987 102 138 14
0.50800675 0.42738652 -0.10989426 104 139 21
0.50212318 0.46022731 -0.15561362 79 92 38
0.50238061 0.46211144 -0.15882422 86 93 59
0.49716482 0.45651335 -0.15311666 109 132 50
0.50758851 0.42463115 -0.10609304 86 125 10
0.51308817 0.42508796 -0.10604996 99 127 27
0.49955755 0.44405797 -0.12770177 80 107 14
0.49811223 0.44553584 -0.13051477 88 118 22
0.51362371 0.43939883 -0.11877451 124 155 18
0.49688306 0.45344010 -0.14526077 93 115 40
0.49373043 0.45069632 -0.14137334 94 124 12
0.50419801 0.42978022 -0.11060395 75 121 0
0.50531363 0.42548037 -0.10603134 76 117 0
0.49634236 0.45783547 -0.13420001 90 105 20
0.49336970 0.46166986 -0.15184729 148 153 112
0.49583462 0.46127632 -0.14909580 107 116 61
0.49627182 0.46412694 -0.15866554 104 116 52
0.49940690 0.44199774 -0.13405204 131 145 84
0.49623534 0.45246598 -0.14358115 90 110 21
0.49314788 0.45718303 -0.14761241 84 111 34
0.50044632 0.45290694 -0.13255280 98 131 24
0.49913585 0.45320806 -0.13143946 128 140 100
0.51433736 0.42915660 -0.11019079 109 142 25
0.50447720 0.43816820 -0.12056887 40 71 11
0.50752699 0.42510518 -0.10715966 81 116 12
0.51278180 0.42454118 -0.10530480 76 106 10
0.49992105 0.44741121 -0.13677467 120 146 45
0.50704706 0.44568536 -0.12601694 127 154 59
0.50245440 0.46052808 -0.16530722 93 108 43
0.50314945 0.46110034 -0.16490903 91 107 44
0.50754297 0.42934844 -0.11171223 74 105 11
0.50387686 0.42782819 -0.11044760 88 132 0
0.50379348 0.44226727 -0.12986684 129 149 78
0.50370312 0.44824529 -0.13173494 93 119 45
0.51490754 0.42936590 -0.10582078 68 111 0
0.49688667 0.44145995 -0.13057436 78 110 1
0.51172930 0.43218684 -0.10987220 80 130 9
0.51158243 0.43181413 -0.10980656 89 138 23
0.49883917 0.45803240 -0.16441600 125 149 61
0.35590109 0.44191977 -0.05748966 151 184 31
0.37835908 0.45178977 -0.05906824 106 137 0
0.38132292 0.44833228 -0.04407822 109 145 35
0.37665346 0.44642138 -0.04289875 119 158 15
0.38912806 0.45519042 -0.06394337 113 136 56
0.38241914 0.44404870 -0.05203030 136 169 4
0.38860780 0.44608358 -0.05487864 156 198 10
0.39401054 0.44630107 -0.06629259 131 162 6
0.39254862 0.44593239 -0.06212388 163 185 42
0.40088838 0.44201469 -0.06342815 167 192 38
0.31755081 0.46467641 -0.04604483 102 137 9
0.31559342 0.46439570 -0.05024366 100 147 19
0.43308464 0.43722504 -0.06992126 153 163 50
0.34191412 0.45137545 -0.06446762 85 122 0
0.40709788 0.45205903 -0.06624854 77 99 0
0.39039299 0.46161911 -0.06133607 180 191 61
0.41868606 0.44718981 -0.07225756 165 189 53
0.41511887 0.44055650 -0.07254244 104 132 21
0.37189114 0.45574838 -0.05828065 75 114 0
0.37213564 0.44391507 -0.05760534 83 113 1
0.30715570 0.46339679 -0.06027330 115 161 52
0.32647318 0.46693474 -0.05009662 91 121 0
0.43330687 0.43951389 -0.07156194 185 198 67
0.31244469 0.46107191 -0.05994908 122 169 5
0.38448453 0.45588920 -0.06002244 95 126 6
0.35650057 0.44974980 -0.05424843 123 166 0
0.38756430 0.43325645 -0.04682495 84 122 11
0.42191318 0.44297802 -0.07415362 75 99 21
0.33936596 0.46490285 -0.04614447 85 134 16
0.33960181 0.46207055 -0.04522436 130 178 40
0.36138257 0.45091113 -0.05565249 71 111 0
0.35964802 0.45126355 -0.05519586 120 165 2
0.38663045 0.43768543 -0.04967944 105 137 0
0.37799990 0.45375663 -0.04616762 93 130 1
0.38001198 0.45114926 -0.04519871 127 165 54
0.32453901 0.46525052 -0.04740699 116 151 5
0.40598637 0.44525313 -0.06968758 141 164 30
0.41715047 0.44396272 -0.07329595 94 118 20
0.36049569 0.45975959 -0.05467114 55 88 19
0.42670223 0.43420717 -0.06912293 159 180 51
0.31258100 0.46002570 -0.06465637 114 157 7
0.41645414 0.43594381 -0.07085063 138 154 29
0.37565008 0.45894399 -0.05233686 89 125 0
0.37316510 0.45920473 -0.05474508 70 102 3
0.33751845 0.46214253 -0.05631300 142 184 0
0.33948401 0.46045232 -0.05633415 95 142 0
0.36863312 0.43463498 -0.04507146 121 145 7
0.33676174 0.46770170 -0.04819629 106 124 38
0.42868790 0.44053662 -0.07553083 158 169 38
0.42182532 0.43719065 -0.07438844 193 199 93
0.34001672 0.46468478 -0.05499178 98 146 8
0.38635597 0.45338190 -0.04601401 114 151 11
0.37914017 0.45424959 -0.04639631 92 127 0
0.38579002 0.45647794 -0.04834016 97 129 0
0.38119301 0.45575806 -0.04785948 113 146 3
0.38998845 0.45680887 -0.04818587 99 132 15
0.43077987 0.43436193 -0.06845459 180 190 93
0.35044926 0.45100495 -0.05475697 129 180 15
0.42961454 0.43662152 -0.07102581 158 170 46
0.32231420 0.45443150 -0.06441130 141 184 9
0.34502518 0.45311260 -0.05796817 131 171 10
0.33197176 0.46664298 -0.05575022 66 110 0
0.31025133 0.45900744 -0.06046626 118 161 56
0.31433374 0.45705122 -0.05920066 141 183 71
0.32567930 0.46424779 -0.05603457 109 160 0
0.39841428 0.44222787 -0.06095169 153 171 53
0.30599612 0.45958105 -0.06459756 126 167 75
0.36306399 0.44329655 -0.05774969 94 122 11
0.36789718 0.43833670 -0.04859838 109 139 0
0.35350278 0.45566964 -0.05544914 107 161 11
0.35602030 0.45890194 -0.05416853 86 130 6
0.37061012 0.43539563 -0.04530786 85 111 2
0.34922791 0.44758189 -0.05626716 79 124 0
0.36778075 0.45768425 -0.05859020 67 109 9
0.32959595 0.46425831 -0.05697230 85 138 0
0.41233104 0.44075942 -0.07075767 94 118 22
0.32838434 0.45076111 -0.06318837 159 194 16
0.32142997 0.45915884 -0.06139512 108 156 12
0.29242301 0.45861888 -0.07519258 124 174 39
0.29792958 0.45365033 -0.07542048 126 165 74
0.31106743 0.46052429 -0.06646536 110 155 10
0.29753542 0.45606658 -0.07314374 121 168 54
0.29776469 0.45630142 -0.07285205 112 154 52
0.42707267 0.43844223 -0.07414640 173 179 69
0.42604518 0.43689349 -0.07191417 147 159 33
0.42222181 0.43859392 -0.07627173 162 174 38
0.40703276 0.43747032 -0.06294343 188 223 35
0.40810320 0.43739599 -0.06343727 168 208 24
0.40620571 0.43807140 -0.06168853 166 199 8
0.40503693 0.43921182 -0.06361084 128 154 19
0.41891605 0.43703604 -0.07211054 150 165 38
0.33990389 0.44686672 -0.06769792 138 168 10
0.34365347 0.44830754 -0.06523172 117 150 0
0.30995700 0.46446282 -0.05485577 100 137 44
0.33515897 0.46335199 -0.04464512 96 148 24
0.33445761 0.46393192 -0.04467633 112 172 24
0.30920890 0.46378043 -0.05946354 80 128 0
0.33643502 0.45161939 -0.06545673 149 187 6
0.33021110 0.44943899 -0.06531656 144 183 2
0.30746078 0.45385095 -0.06732927 164 202 67
0.30340797 0.45422518 -0.07012106 127 168 76
0.29479024 0.46149170 -0.07281422 119 167 57
0.34631565 0.46277952 -0.05339498 51 97 0
0.37094119 0.45956638 -0.05797662 129 160 43
0.36416560 0.45849827 -0.05791569 79 119 4
0.40949991 0.43959674 -0.06758405 131 157 34
0.35482857 0.45077208 -0.05311268 120 170 9
0.37610987 0.43826371 -0.04749827 114 140 0
0.41208380 0.43992847 -0.07037143 124 147 39
0.37616852 0.44008788 -0.05380805 115 140 0
0.41331807 0.44624928 -0.07199562 164 186 39
0.32203323 0.46305531 -0.05625718 121 169 5
0.38162288 0.45973647 -0.05956172 105 139 3
0.38303193 0.46192068 -0.05912253 69 102 0
0.38056448 0.45019868 -0.05878672 140 168 6
0.36428174 0.44262618 -0.05775083 111 141 7
0.36979145 0.43948922 -0.05134954 121 154 15
0.39374676 0.44540846 -0.06228174 164 183 41
0.32053784 0.45963132 -0.06164071 109 154 11
0.33108667 0.46854034 -0.05071625 124 155 15
0.35308385 0.43864381 -0.05797135 170 187 33
0.38351810 0.44994017 -0.05724502 108 140 0
0.38211271 0.44947144 -0.05787454 102 137 0
0.36655995 0.44236365 -0.05728030 119 153 0
0.40218922 0.44880238 -0.06740492 151 169 47
0.31905106 0.46380720 -0.05133870 107 153 0
0.31963319 0.46425846 -0.05181051 103 148 0
0.38661671 0.46021822 -0.06010704 168 186 48
0.36848253 0.44900081 -0.05793279 109 148 7
0.38919166 0.44830394 -0.05780363 104 152 0
0.37939835 0.45886037 -0.05953550 110 140 16
0.38709256 0.43197590 -0.04421420 115 144 0
0.39493266 0.44035998 -0.05542241 201 244 14
0.41805461 0.44747967 -0.07208521 157 180 38
0.40254104 0.43757933 -0.06171270 116 127 49
0.35158262 0.44383103 -0.05698868 138 176 5
0.34635973 0.45801646 -0.04475384 149 193 46
0.34914356 0.45998457 -0.04614239 88 128 16
0.37616140 0.44624662 -0.05743242 123 172 3
0.33693308 0.45165479 -0.06549502 148 186 3
0.34076101 0.44883692 -0.06658985 117 147 0
0.36277878 0.43042782 -0.04566773 110 131 2
0.32568040 0.46706691 -0.05293294 108 162 16
0.39670905 0.45564157 -0.06631014 94 118 24
0.31695279 0.46428487 -0.05498809 107 157 0
0.34690571 0.44660112 -0.05785577 104 150 0
0.36916700 0.43926913 -0.05257469 126 152 1
0.30764949 0.45134476 -0.07189196 100 134 37
0.35459906 0.43658713 -0.05415507 161 185 1
0.31329629 0.45498845 -0.06211659 137 179 71
0.30970654 0.45398352 -0.06558698 124 168 44
0.35819638 0.43273571 -0.04779807 140 166 13
0.33456290 0.46752164 -0.04646968 142 167 49
0.31528723 0.46361944 -0.05313368 96 145 4
0.32249445 0.46529812 -0.04551570 110 148 11
0.32312208 0.46607757 -0.05263933 123 176 0
0.38445458 0.43049261 -0.03689812 124 139 46
0.29770193 0.46336600 -0.07039902 107 152 51
0.38209990 0.44644371 -0.05366818 106 137 0
0.33214730 0.45357105 -0.05987983 81 125 1
0.39820042 0.44824529 -0.06663798 177 173 110
0.35826978 0.45649832 -0.05531836 96 147 6
0.34223562 0.46589261 -0.05080446 89 124 24
0.34077546 0.46640095 -0.04990185 108 141 28
0.31453535 0.46189862 -0.05939924 123 169 18
0.38490885 0.43732226 -0.04960144 158 193 11
0.38148478 0.43477547 -0.04096387 114 140 4
0.36241481 0.43867663 -0.05243690 143 162 8
0.37282470 0.45479804 -0.05831965 110 148 11
0.35704544 0.45040902 -0.04548822 150 187 92
0.36089307 0.45281285 -0.04500496 111 151 37
0.36252606 0.45480698 -0.04480869 121 163 17
0.30949527 0.46110487 -0.05912464 114 157 49
0.31261462 0.46149588 -0.05313672 99 139 40
0.30742148 0.46158069 -0.06603761 113 161 0
0.31123844 0.46004018 -0.05811413 125 170 53
0.32450885 0.45909268 -0.04515432 155 204 61
0.31605107 0.45907903 -0.05449407 111 152 32
0.31769913 0.45968628 -0.05121412 109 152 36
0.31814462 0.45748082 -0.05459732 143 187 52
0.38101992 0.43559301 -0.04229914 85 113 2
0.31571156 0.46033907 -0.04719961 88 132 17
0.31652731 0.46026808 -0.04943761 115 161 39
0.31479564 0.45095637 -0.06680319 126 169 36
0.31121570 0.45129910 -0.06879073 129 168 59
0.31155631 0.45202121 -0.06530406 142 183 61
0.38379422 0.43436161 -0.04337971 107 134 0
0.35869342 0.43592599 -0.05023696 125 147 0
0.36007732 0.45838660 -0.04672277 119 147 10
0.36257628 0.45826808 -0.04752978 83 104 1
0.34652203 0.43883184 -0.05875337 140 176 0
0.35859030 0.43774164 -0.05518810 121 145 5
0.35488644 0.43673187 -0.05340125 164 185 4
0.39172941 0.45782569 -0.06364484 152 173 52
0.37315130 0.44101733 -0.05627946 167 196 7
0.36008841 0.46043745 -0.05126265 68 91 21
0.36088195 0.46031773 -0.05151061 74 104 30
0.39027643 0.44305673 -0.05434551 160 197 6
0.42204016 0.43604332 -0.07165132 165 178 46
0.38946018 0.44853213 -0.06216298 138 162 40
0.36401600 0.42879790 -0.04311205 97 112 9
0.38265598 0.43686122 -0.04706458 71 105 0
0.40915138 0.44184169 -0.06849542 69 97 13
0.37128794 0.43103749 -0.04044495 109 131 20
0.37709972 0.43201596 -0.04044485 154 169 28
0.36806357 0.43172956 -0.03478647 192 205 113
0.36966980 0.43065664 -0.03839275 149 169 36
0.38995674 0.43634409 -0.04944306 110 147 0
0.37200347 0.43102056 -0.03646016 110 122 38
0.32568210 0.45424736 -0.06238187 102 147 0
0.32601553 0.45429650 -0.06212867 89 135 0
0.33026430 0.46087736 -0.05737007 125 167 0
0.38003546 0.43634379 -0.04401985 128 160 1
0.30795646 0.46474406 -0.06003353 121 168 12
0.39009291 0.45383495 -0.06597161 109 128 49
0.39814660 0.44482183 -0.06438436 159 196 31
0.33529660 0.46447575 -0.05618023 90 138 3
0.36333540 0.45338100 -0.05603377 117 160 0
0.32122579 0.46476370 -0.04502791 110 145 3
0.32367831 0.46597737 -0.04409222 83 118 0
0.31488168 0.46269810 -0.04725516 91 128 0
0.41623017 0.44012395 -0.07298993 126 154 33
0.34699789 0.44755432 -0.05742221 71 122 0
0.35754254 0.45837986 -0.04606519 117 151 2
0.36001378 0.45569271 -0.04469302 103 148 6
0.30845186 0.46588451 -0.05665371 127 173 49
0.37441251 0.43979028 -0.05199889 131 161 5
0.34935313 0.46343794 -0.05285894 72 104 19
0.37796634 0.43162435 -0.03415520 134 133 41
0.33130470 0.45694491 -0.05921753 122 170 8
0.33309385 0.45923254 -0.05798521 142 184 12
0.41065225 0.44370160 -0.07051030 95 121 20
0.35145184 0.43895310 -0.05773797 152 163 35
0.37166238 0.45319924 -0.04521526 121 161 29
0.37055004 0.44970751 -0.04404651 126 164 65
0.37634796 0.44935974 -0.05819446 84 120 0
0.34879041 0.45917842 -0.05382203 101 148 6
0.35292003 0.45173833 -0.04533680 140 182 70
0.35170519 0.45462734 -0.04475911 135 181 59
0.33326688 0.46506175 -0.04477299 100 154 8
0.36883798 0.45930979 -0.05294082 85 122 27
0.36474267 0.45981148 -0.05308253 79 120 42
0.34658358 0.46468389 -0.05077026 71 92 25
0.34548807 0.46475318 -0.04840084 74 115 23
0.40355748 0.44773296 -0.06877121 129 153 29
0.32932243 0.44908425 -0.06388730 66 111 0
0.35562232 0.46177241 -0.05248073 54 82 24
0.35481346 0.46135738 -0.04939787 80 100 37
0.34453282 0.45069462 -0.06260549 118 152 5
0.42138779 0.43260685 -0.06780408 147 188 8
0.42129025 0.43578413 -0.06465220 146 183 5
0.41884166 0.43609115 -0.06524090 164 199 8
0.41665730 0.43942884 -0.06266825 177 210 33
0.36537972 0.44931576 -0.05715299 95 138 5
0.41517466 0.43565404 -0.06988268 173 192 66
0.36963323 0.45710838 -0.04824099 76 103 0
0.37003386 0.45768455 -0.04912697 90 122 11
0.36965340 0.45662090 -0.04755974 103 134 7
0.37971789 0.45719743 -0.05033436 108 144 12
0.37521064 0.45820710 -0.05087854 86 120 7
0.38941419 0.45151919 -0.06504907 133 159 26
0.31961131 0.45016545 -0.06150413 114 152 31
0.32026839 0.45185056 -0.05938065 118 159 53
0.37844601 0.46041581 -0.05691999 78 116 0
0.37995464 0.46108091 -0.05666249 89 127 5
0.34444728 0.45965677 -0.05475934 99 148 7
0.35919288 0.44325465 -0.05723761 97 120 32
0.35337394 0.43386525 -0.05808247 177 188 47
0.50112045 0.46825951 -0.18632720 92 104 68
0.48672080 0.46887887 -0.17659916 180 170 169
0.48600793 0.47263294 -0.17376861 84 114 64
0.49130967 0.46993628 -0.17848396 111 115 90
0.46773863 0.47702283 -0.16867264 118 149 79
0.46698901 0.47948986 -0.16896412 116 157 79
0.50275433 0.46880534 -0.18879361 89 100 66
0.50330263 0.46848378 -0.18880431 88 99 65
0.45784849 0.48360413 -0.17400905 191 180 196
0.48132056 0.47463062 -0.17544416 117 120 103
0.47151071 0.47485277 -0.16962379 91 121 59
0.44782361 0.48425418 -0.17491469 175 163 175
0.44740525 0.48624206 -0.17519523 114 97 113
0.44849110 0.48521391 -0.17501239 152 138 153
0.47689879 0.47390723 -0.17108914 121 155 95
0.48110992 0.47208947 -0.17324707 85 115 53
0.49744779 0.46776840 -0.18116789 168 164 137
0.49530929 0.46780005 -0.18326856 155 155 147
0.48959062 0.46980405 -0.17376719 115 144 88
0.48729110 0.47076285 -0.17675459 153 149 137
0.49297410 0.46753979 -0.17504072 123 153 83
0.49419424 0.46614614 -0.17640971 142 171 91
0.49798808 0.46429050 -0.17720380 126 147 70
0.46425247 0.47641817 -0.17002511 88 106 58
0.46058217 0.47824895 -0.16943724 96 123 46
0.46169874 0.48293045 -0.17444077 193 188 195
0.46381631 0.48022807 -0.17364664 201 191 200
0.46490645 0.47826937 -0.17297265 201 191 200
0.49777019 0.46552384 -0.16482423 95 111 40
0.49980584 0.46428341 -0.16480958 95 111 36
0.45743465 0.48605719 -0.16830795 67 92 35
0.47395611 0.47475770 -0.17413811 157 146 140
0.46940032 0.48133379 -0.17197485 113 125 103
0.50346279 0.46625689 -0.18082355 93 109 44
0.45083866 0.48346710 -0.16919449 62 105 34
0.44646159 0.48477855 -0.17060204 87 126 47
0.44395465 0.48589748 -0.17422429 138 120 134
0.44730341 0.49095520 -0.17015974 27 64 10
0.44834936 0.49255404 -0.17128694 175 184 163
0.45008758 0.48759592 -0.16842121 48 91 9
0.46558896 0.48251772 -0.17030533 102 122 71
0.45922962 0.48251280 -0.16889612 109 146 79
0.45814046 0.48026550 -0.16874033 83 115 52
0.50579095 0.46373215 -0.17815346 97 113 42
0.50392979 0.46365741 -0.17224745 97 113 42
0.45564231 0.48862952 -0.16904153 188 193 173
0.46026754 0.48327518 -0.16873622 81 117 47
0.45399219 0.48545781 -0.16810699 69 112 40
0.46833384 0.47446531 -0.17111456 154 158 131
0.47940928 0.47179183 -0.17472772 167 164 155
0.49915385 0.46656376 -0.17230278 98 116 30
0.50430465 0.46212268 -0.16780390 93 108 39
0.50667638 0.46343309 -0.17961892 97 113 42
0.47341332 0.47271866 -0.17093599 95 133 58
0.44641450 0.48403659 -0.17240784 117 117 107
0.44388089 0.48523572 -0.17197520 124 130 102
0.48749927 0.46950185 -0.17435238 71 97 32
0.49367526 0.46454465 -0.17984337 194 201 160
0.49829522 0.46467921 -0.18539505 69 97 38
0.50166988 0.46090198 -0.18377988 100 123 45
0.45354366 0.48145744 -0.17109059 160 156 157
0.45510608 0.48085555 -0.17344168 153 143 152
0.45384681 0.48988289 -0.17289782 253 241 251
0.45451555 0.48854613 -0.17374687 215 203 217
0.46888420 0.48058158 -0.17396605 208 206 211
0.46515608 0.48360080 -0.17109683 152 166 133
0.47713044 0.47527483 -0.17151421 99 131 64
0.50554079 0.46270430 -0.17952919 99 118 37
0.50540829 0.46243605 -0.18134847 108 127 45
0.26630768 0.46782956 -0.09153046 80 133 19
0.28867847 0.47275200 -0.08117369 61 100 37
0.28610513 0.46610570 -0.09597822 74 105 11
0.28471690 0.46688521 -0.09818175 140 174 51
0.30122653 0.46883532 -0.08137588 54 100 10
0.29123944 0.46509334 -0.09024643 8 49 7
0.34880310 0.43065152 -0.05508574 134 162 26
0.37506071 0.44197926 -0.04009585 151 189 14
0.37332222 0.44091946 -0.03893109 135 172 4
0.36586484 0.43376336 -0.03730660 136 178 0
0.35503125 0.43232515 -0.04916914 158 181 3
0.27516061 0.46244347 -0.08577354 117 168 47
0.27162024 0.46657833 -0.08920119 93 150 19
0.29275191 0.47124568 -0.08982169 76 109 4
0.31119868 0.45224211 -0.07561886 61 93 17
0.31061095 0.45616770 -0.07665134 128 170 10
0.29846719 0.45614254 -0.08429236 80 119 4
0.34614360 0.43594676 -0.05059347 140 177 22
0.34329540 0.43674970 -0.05233313 156 199 34
0.27690500 0.47152877 -0.09037773 62 107 26
0.37569886 0.43479192 -0.03009679 83 108 40
0.37922487 0.43494889 -0.02983023 57 85 0
0.27634397 0.46261922 -0.08515143 133 187 47
0.28278252 0.46347889 -0.08172379 122 176 26
0.27962780 0.46568546 -0.08433055 103 153 32
0.23671797 0.48375514 -0.13165925 73 120 42
0.36897960 0.44739366 -0.04348230 129 172 30
0.36141521 0.44777220 -0.04446210 136 179 37
0.36001629 0.44688967 -0.04423769 123 165 21
0.35857180 0.44619477 -0.04409811 121 163 17
0.28758356 0.46907628 -0.09558859 94 141 9
0.28691801 0.46965772 -0.09676184 60 97 0
0.31170377 0.45696262 -0.07308072 84 127 0
0.31188685 0.45748138 -0.07445670 65 116 0
0.32715082 0.44723135 -0.06782437 149 188 21
0.29044846 0.45415372 -0.08036424 137 182 65
0.24151261 0.48290059 -0.12681423 75 125 10
0.37296775 0.43600181 -0.03338342 123 171 1
0.37067387 0.43942955 -0.03766714 135 178 13
0.37211961 0.43970317 -0.03727721 134 180 12
0.27785206 0.45489970 -0.09392600 110 118 67
0.28785262 0.46037868 -0.09504767 136 160 86
0.35438848 0.43289739 -0.05601110 136 140 46
0.29875702 0.46376038 -0.08488838 141 175 18
0.33570662 0.44622022 -0.06918214 135 172 14
0.24517955 0.47660670 -0.12338185 83 127 52
0.28471059 0.46731979 -0.08146425 95 145 48
0.28931063 0.46516857 -0.07776237 94 142 43
0.34297132 0.45369464 -0.04622561 135 182 44
0.35015088 0.45073760 -0.04601173 138 178 64
0.34841043 0.45133343 -0.04610096 150 190 75
0.30613938 0.46188521 -0.07949885 155 191 7
0.33210862 0.44376832 -0.05902899 139 177 30
0.33120498 0.44307289 -0.06102721 149 194 51
0.29496932 0.45718977 -0.09000769 111 135 51
0.28291309 0.45276538 -0.08637780 91 94 73
0.33620477 0.43584383 -0.06718034 120 136 14
0.35256824 0.44850850 -0.04618996 128 168 35
0.34622559 0.44604966 -0.04754236 126 168 30
0.25987017 0.47410956 -0.10032669 87 142 15
0.25832182 0.47620291 -0.10441580 81 126 25
0.29541481 0.47551668 -0.08062539 67 93 28
0.28097966 0.46823466 -0.10283347 59 89 17
0.27930623 0.46482190 -0.10177448 64 96 0
0.28100058 0.46693054 -0.10207604 85 112 19
0.26350656 0.47487521 -0.10526403 31 64 9
0.28480232 0.46863434 -0.08202581 104 151 59
0.33986330 0.44906923 -0.05040358 131 169 66
0.28356254 0.45930278 -0.10097978 144 149 109
0.29731432 0.47640997 -0.08368167 41 72 12
0.32954273 0.44552422 -0.06082189 122 160 23
0.28132612 0.46851328 -0.08489845 83 128 33
0.30378798 0.46830282 -0.08257127 69 111 3
0.28920919 0.45807022 -0.09466600 62 92 18
0.29177666 0.47465011 -0.09340994 131 140 121
0.28398821 0.47295082 -0.08962567 27 63 2
0.33913925 0.44415742 -0.06779754 132 163 33
0.25032502 0.47718108 -0.11932689 58 107 2
0.24918592 0.47822639 -0.12029773 62 110 1
0.33362362 0.46160027 -0.04421266 129 176 62
0.33176929 0.45962405 -0.04487703 130 176 51
0.29401061 0.47033638 -0.08899619 88 123 3
0.33506349 0.43757835 -0.06839895 160 182 45
0.29986256 0.47042474 -0.08216705 59 110 0
0.33910301 0.43584192 -0.06472282 138 154 29
0.34199575 0.43376052 -0.05834170 165 195 45
0.32509610 0.45601675 -0.04998562 135 183 63
0.32789129 0.45504719 -0.05021765 120 170 37
0.33200601 0.45465225 -0.04825464 152 202 45
0.33261690 0.45443103 -0.04832616 139 187 41
0.33569691 0.44426003 -0.07031406 114 147 6
0.30718154 0.46336842 -0.07122378 82 131 5
0.32208622 0.44809672 -0.06563911 111 147 37
0.32609606 0.44536334 -0.07164042 78 117 2
0.32765973 0.44346550 -0.07046390 143 185 25
0.34338462 0.44995379 -0.04833149 156 194 93
0.35338980 0.44919088 -0.04609293 114 152 31
0.28110871 0.45591888 -0.08427200 157 203 68
0.28053626 0.45636082 -0.08436050 164 208 69
0.34726211 0.43324482 -0.05666953 81 113 28
0.29729566 0.46538880 -0.08649334 83 117 4
0.25275657 0.47285506 -0.10067414 112 177 31
0.28782472 0.47311676 -0.09565859 30 58 18
0.27583671 0.45733461 -0.08771612 189 227 62
0.28456753 0.47266456 -0.08596466 61 98 28
0.29121312 0.47410470 -0.08298876 61 92 35
0.30155006 0.46994135 -0.07535791 61 115 1
0.30132806 0.46627054 -0.06729633 112 160 24
0.34376147 0.45502737 -0.04568131 167 210 77
0.34553826 0.45753112 -0.04454520 134 176 52
0.33276471 0.45776221 -0.04556333 135 177 49
0.33161950 0.45899865 -0.04510786 118 163 46
0.33288339 0.45517468 -0.04653222 143 183 48
0.32420072 0.45381707 -0.05499780 114 156 44
0.25332403 0.47411114 -0.11746027 50 99 10
0.25584042 0.47100079 -0.11315114 74 112 25
0.28963238 0.46072710 -0.09338594 0 32 0
0.29837266 0.47024810 -0.07181890 86 128 30
0.30993009 0.46060961 -0.07535744 107 149 11
0.28853634 0.45525399 -0.09398156 79 95 46
0.29054922 0.45812747 -0.09511219 53 81 23
0.29261267 0.47321960 -0.09127253 69 93 19
0.28023919 0.46987179 -0.10134643 10 49 0
0.27967632 0.47012636 -0.10114786 25 64 9
0.29771259 0.46396556 -0.07011440 99 144 39
0.35053772 0.43541920 -0.04627383 130 168 5
0.35676834 0.43110397 -0.03854984 136 185 0
0.35572070 0.43648010 -0.04364647 157 203 35
0.27100012 0.47210911 -0.09435653 63 101 26
0.27167732 0.47032502 -0.09149884 60 103 24
0.35507429 0.42971879 -0.04494879 123 152 0
0.24542294 0.48111087 -0.11988293 50 102 4
0.27449951 0.46970943 -0.10546028 53 89 17
0.30247456 0.47146553 -0.08468562 42 85 0
0.27551258 0.47119629 -0.09064538 77 123 35
0.25573462 0.47744197 -0.10906588 49 94 0
0.25206044 0.47868294 -0.11095994 53 100 0
0.34243765 0.44510719 -0.04966013 123 165 21
0.30550107 0.46466553 -0.07273706 59 112 0
0.35152236 0.43832812 -0.04609264 130 168 3
0.34916624 0.43662450 -0.04757825 162 204 19
0.35373789 0.44039103 -0.04458512 175 216 52
0.34134534 0.43459722 -0.05737121 148 186 41
0.34299543 0.43420970 -0.05652903 131 171 20
0.31239790 0.45074773 -0.07132650 114 146 11
0.29888797 0.47447407 -0.07795654 21 67 0
0.32350764 0.45033643 -0.06917559 134 179 16
0.32114404 0.45117253 -0.07122720 51 85 0
0.29292285 0.47464734 -0.08200418 74 105 37
0.24294996 0.47717157 -0.12373058 97 139 73
0.24714263 0.47528556 -0.12092530 61 106 21
0.37939054 0.43768671 -0.03019958 124 171 17
0.37802529 0.43829888 -0.03224988 119 165 4
0.32414013 0.45077369 -0.06619394 60 98 0
0.26832035 0.47256514 -0.10411549 37 70 23
0.26927280 0.47163060 -0.10616881 54 92 17
0.29089746 0.46126896 -0.07582174 117 165 47
0.24917984 0.47495195 -0.11077165 82 128 40
0.29614860 0.46919969 -0.08871216 109 145 21
0.29900822 0.47204244 -0.08245467 32 76 0
0.28885138 0.45393157 -0.08884580 89 107 23
0.27778247 0.45990908 -0.08383538 150 207 50
0.28665113 0.45830742 -0.07928582 127 180 50
0.34568408 0.43380433 -0.05439561 143 182 27
0.29249340 0.45570803 -0.07778849 112 161 44
0.29372525 0.45458072 -0.07795492 129 173 62
0.27558804 0.47247145 -0.09568135 29 65 4
0.36500803 0.43058798 -0.03793341 151 173 39
0.28004181 0.45746902 -0.10153415 48 51 56
0.27917522 0.45938033 -0.10181595 56 58 47
0.30763096 0.45963097 -0.07841948 63 111 0
0.25217947 0.47415447 -0.10267791 90 155 1
0.31613094 0.45565873 -0.06695259 130 171 7
0.29048312 0.45867527 -0.09351105 16 51 0
0.31177682 0.45963970 -0.07318348 98 139 7
0.30192190 0.46856558 -0.06639935 100 140 25
0.33734119 0.44162735 -0.06966779 86 120 0
0.29776496 0.45486173 -0.08154317 112 142 18
0.33496484 0.45122707 -0.05112742 131 173 61
0.25909811 0.47277775 -0.09787002 76 141 11
0.35659197 0.42935178 -0.04382996 133 155 20
0.29455897 0.47350922 -0.08979315 73 100 33
0.34915254 0.43366060 -0.05773954 137 163 38
0.25789449 0.47447056 -0.10103793 71 132 3
0.25678733 0.47417188 -0.10041331 82 143 3
0.36022469 0.43237734 -0.03852264 131 180 0
0.30660781 0.45662200 -0.07900330 98 135 3
0.27460685 0.46367544 -0.10506132 30 70 0
0.31737879 0.45362282 -0.07003944 139 182 15
0.29441655 0.45747620 -0.09178274 60 85 17
0.30338514 0.46627122 -0.07621707 71 120 3
0.35177323 0.43101159 -0.05138383 147 171 23
0.33321816 0.44687119 -0.05441219 138 179 49
0.28645951 0.45489922 -0.09272286 105 122 51
0.29338616 0.45232928 -0.08556170 183 186 143
0.33049905 0.43965989 -0.06728589 124 162 25
0.33114338 0.44112197 -0.06357428 151 190 47
0.30336785 0.46579516 -0.08169667 69 119 4
0.32304406 0.45119014 -0.05787067 124 165 61
0.32771277 0.44888121 -0.05642438 162 202 53
0.29161325 0.46390384 -0.09147965 11 55 4
0.28968287 0.46493015 -0.09157000 18 57 0
0.36868551 0.44211158 -0.04136390 144 177 12
0.37211820 0.44160014 -0.04091079 160 199 18
0.34216362 0.43912926 -0.06358548 146 183 17
0.29632714 0.46395960 -0.07150624 102 150 40
0.25152197 0.47800323 -0.10880943 78 125 19
0.25352937 0.47752413 -0.10756001 78 127 10
0.35175592 0.44366899 -0.04526495 170 208 33
0.35295570 0.44451162 -0.04509818 173 207 25
0.25537300 0.47047552 -0.11166887 63 94 16
0.25401342 0.47157827 -0.11368044 68 101 22
0.24003626 0.48008332 -0.12686273 94 135 65
0.34423193 0.44353774 -0.04883335 172 213 59
0.34330347 0.43946663 -0.05041358 163 200 45
0.34563121 0.43839878 -0.04923491 142 180 19
0.29489887 0.47615448 -0.09043162 156 164 149
0.32146886 0.44745198 -0.07047758 124 163 20
0.31941158 0.44880483 -0.06916869 95 130 36
0.29927081 0.47013649 -0.08002984 58 111 7
0.29190031 0.45811585 -0.09418543 0 22 0
0.28208250 0.45506653 -0.09728544 119 131 65
0.34509915 0.43996203 -0.06117639 102 150 2
0.28187317 0.46914774 -0.10207611 17 47 0
0.25824416 0.47388282 -0.11300174 23 73 0
0.25695381 0.47508863 -0.11354746 82 120 33
0.30457786 0.46560907 -0.08031341 94 141 13
0.31684196 0.45737720 -0.06597438 123 170 12
0.30424464 0.46515414 -0.06827890 41 92 0
0.29290086 0.46970147 -0.07593796 79 116 47
0.24531074 0.48026824 -0.11724323 73 118 25
0.24090517 0.48071882 -0.12318271 94 134 64
0.28840113 0.47413245 -0.08768856 39 71 6
0.32790971 0.44201213 -0.06931641 153 198 20
0.32781824 0.44387382 -0.06651418 119 163 28
0.24999857 0.47932681 -0.11454249 31 79 0
0.29153806 0.45326558 -0.08818470 137 156 66
0.30370206 0.46819672 -0.06381136 112 157 28
0.27936488 0.45451960 -0.09424926 94 114 42
0.34262359 0.43688253 -0.06168877 120 159 0
0.30382979 0.46608418 -0.06615271 109 163 5
0.32640815 0.44739717 -0.05985399 143 182 53
0.24569038 0.47599530 -0.11775460 94 137 65
0.33741537 0.43868482 -0.05627355 140 179 26
0.33681488 0.44193181 -0.05458782 134 169 39
0.33709687 0.44170523 -0.05448748 155 195 34
0.26908287 0.46415275 -0.10706025 41 78 1
0.27427730 0.45674038 -0.09255096 94 94 58
0.31801912 0.45324653 -0.07284159 70 112 4
0.28086770 0.47259519 -0.09117630 22 56 6
0.23960544 0.48439682 -0.13336913 73 117 2
0.28953090 0.47064161 -0.09409114 31 65 0
0.28949612 0.47183815 -0.09480199 34 68 8
0.27605936 0.47198543 -0.09926359 14 55 0
0.27034336 0.47310749 -0.09919653 50 85 19
0.26360288 0.47275043 -0.09726136 94 144 29
0.26178607 0.47198927 -0.09629676 99 160 23
0.33539611 0.43665153 -0.06071597 146 181 37
0.33581248 0.43404216 -0.06281332 167 175 116
0.45276690 0.43419972 -0.06903792 147 181 7
0.44681233 0.43869787 -0.06828960 200 220 69
0.45065066 0.44080600 -0.06854247 162 191 23
0.43764517 0.46559405 -0.06235620 105 129 7
0.43610480 0.46535814 -0.06056805 94 123 4
0.45471123 0.43585095 -0.06881503 174 204 20
0.43725649 0.43444228 -0.07200504 192 197 131
0.45992213 0.44096479 -0.07339310 94 111 17
0.46041721 0.44662461 -0.08007286 96 124 11
0.45345148 0.43867600 -0.06805234 164 192 32
0.45300815 0.43947774 -0.06821659 194 216 73
0.45061243 0.44632882 -0.07129692 145 169 21
0.45506850 0.44560078 -0.07512777 120 141 4
0.45577148 0.44775701 -0.07715442 122 154 9
0.44545490 0.45998377 -0.07167345 169 191 48
0.45325083 0.46191627 -0.07606920 166 188 62
0.43645072 0.45569116 -0.06129314 123 159 0
0.43751201 0.45257327 -0.06323007 132 171 20
0.43765152 0.44997129 -0.06424040 123 161 40
0.44114900 0.45944676 -0.06739894 136 160 14
0.43852049 0.45844573 -0.06421912 123 155 10
0.45645788 0.44520470 -0.07605250 123 145 2
0.45187497 0.44180167 -0.06964009 151 173 12
0.45746338 0.44185558 -0.07436151 111 138 0
0.46313056 0.43404299 -0.06594462 231 233 158
0.44634175 0.46534452 -0.07036357 187 200 69
0.44915017 0.46434343 -0.07276326 197 216 91
0.44311619 0.45348209 -0.06761716 144 179 17
0.44221148 0.45790341 -0.06804120 135 160 14
0.43708611 0.45654824 -0.06205416 148 173 17
0.43397251 0.45932326 -0.05853570 122 153 0
0.43469343 0.45834333 -0.06001553 120 149 0
0.45184061 0.43286073 -0.07502013 131 144 88
0.43286678 0.42983305 -0.06725946 188 221 44
0.45741343 0.43666789 -0.07139051 146 178 0
0.44122404 0.43847257 -0.07408144 118 134 25
0.43976489 0.43623495 -0.07306933 142 154 44
0.44689274 0.44084319 -0.07327597 151 168 62
0.45739105 0.44198981 -0.06990303 60 82 0
0.44953531 0.43490160 -0.07564881 95 113 13
0.45629260 0.44857240 -0.07812203 118 149 20
0.45043254 0.45288405 -0.07379051 132 165 22
0.45593199 0.45341524 -0.07794821 141 175 28
0.45574951 0.43842646 -0.07162088 146 165 60
0.45141315 0.44579104 -0.07065015 85 100 5
0.45501924 0.44193009 -0.07035201 103 121 13
0.44419739 0.43653515 -0.07663897 122 136 49
0.45671916 0.43934065 -0.06949228 155 184 16
0.46115273 0.43813971 -0.07104523 146 171 28
0.44279331 0.46130508 -0.06954491 136 161 15
0.44105014 0.46598876 -0.06638993 136 156 22
0.43127832 0.43371028 -0.06870346 174 185 83
0.42358661 0.43753850 -0.06399705 176 210 28
0.42008302 0.43834153 -0.06301787 151 184 5
0.42996538 0.43457419 -0.06611595 185 217 44
0.44949427 0.44075400 -0.07188321 161 174 68
0.44019333 0.43269515 -0.07343269 129 144 27
0.45837688 0.43501696 -0.06862859 139 165 0
0.45132723 0.43059757 -0.07517758 84 102 16
0.43684939 0.42638543 -0.06770435 150 161 83
0.43731937 0.43393618 -0.06779481 191 223 50
0.45917442 0.43563950 -0.06782850 135 166 13
0.44629961 0.42937872 -0.07553399 165 174 107
0.45145068 0.43046650 -0.07207502 135 144 65
0.45074528 0.44543347 -0.06993338 75 90 0
0.44593540 0.42667046 -0.06981251 109 122 32
0.44479573 0.44485417 -0.06675107 172 195 25
0.44627938 0.44978556 -0.06979816 115 150 24
0.44412103 0.44741642 -0.06753787 137 168 15
0.44690496 0.44653556 -0.06867334 136 162 9
0.45141554 0.45640022 -0.07493639 138 165 22
0.44526803 0.45813301 -0.07121684 144 171 14
0.45879641 0.44316685 -0.07076488 48 71 1
0.45447090 0.44887206 -0.07634409 45 76 0
0.44311720 0.42636272 -0.06966477 119 132 44
0.44493619 0.42681208 -0.06825900 157 169 85
0.43832716 0.43947366 -0.06646234 163 193 20
0.44078410 0.43977863 -0.06689481 162 189 22
0.43785954 0.43483010 -0.06780534 171 205 33
0.44309750 0.44197053 -0.06665811 197 218 51
0.44751510 0.44163007 -0.06773917 196 214 70
