0.28390369 0.37546599 -0.26053560 137 147 110
0.29118589 0.36514318 -0.28707635 125 141 70
0.27946791 0.39009842 -0.21555769 116 128 80
0.28742433 0.39187959 -0.22066553 70 98 49
0.28791285 0.39261922 -0.21667223 90 110 59
0.28625000 0.37425146 -0.26321152 90 110 73
0.28740916 0.37475714 -0.26370254 148 171 127
0.28749037 0.37417978 -0.26490614 148 176 128
0.28160116 0.39762747 -0.22914414 73 112 23
0.28343037 0.39756393 -0.22898816 62 109 7
0.29106474 0.36321631 -0.29140154 116 135 54
0.28459689 0.38309523 -0.24442564 132 154 116
0.28520304 0.38617811 -0.23830405 88 105 73
0.29366109 0.37178805 -0.29870644 122 147 105
0.28099599 0.39732596 -0.21868767 49 108 2
0.28337544 0.38199216 -0.24941596 141 129 87
0.28674418 0.39418563 -0.22399382 31 85 0
0.28431919 0.37242684 -0.26535255 130 168 117
0.28174940 0.38230976 -0.25570065 73 104 28
0.28927991 0.36497799 -0.29185376 128 151 81
0.28322560 0.37801486 -0.25900543 116 135 79
0.28778380 0.37660202 -0.28580818 26 60 9
0.29640096 0.36300421 -0.30302668 92 120 20
0.28660947 0.39220643 -0.21098511 146 156 121
0.28713354 0.39254272 -0.20374918 177 180 153
0.28785440 0.36767519 -0.28980225 62 101 12
0.29150429 0.37508291 -0.28984821 43 75 12
0.28675413 0.37231272 -0.28604132 56 93 13
0.28680363 0.37464455 -0.28538942 50 86 22
0.29049942 0.36740816 -0.29736614 41 75 0
0.28253105 0.39468145 -0.23703581 47 93 5
0.28342202 0.38681239 -0.23203310 100 102 65
0.28291902 0.38642660 -0.23485568 96 103 70
0.28775159 0.39061633 -0.23192643 38 85 31
0.28645760 0.39608341 -0.23226282 95 155 8
0.28180736 0.38236669 -0.25272676 92 122 52
0.28525215 0.39048764 -0.21852158 94 109 66
0.28089735 0.38582057 -0.24220744 111 124 70
0.28502244 0.37664658 -0.25754413 104 92 78
0.41443780 0.60778707 -0.32690704 68 92 30
0.41470444 0.60573506 -0.32663479 67 93 30
0.41000631 0.59131616 -0.32921079 46 74 15
0.42603090 0.59130025 -0.33093882 95 124 18
0.40061310 0.62912995 -0.33185655 56 86 16
0.39682454 0.62184316 -0.33246014 94 131 28
0.41810796 0.61423242 -0.32829142 92 116 32
0.41558471 0.61553180 -0.32880446 95 113 39
0.41567954 0.59923446 -0.32689378 52 80 22
0.41703263 0.59976465 -0.32641020 63 93 21
0.39885873 0.63456649 -0.33233079 65 92 21
0.42120823 0.59979373 -0.32589328 117 153 19
0.41946533 0.59477484 -0.32650191 75 113 30
0.42566913 0.59607238 -0.32515004 83 117 22
0.40972704 0.61892462 -0.32943091 60 92 17
0.40648800 0.61182457 -0.32835436 55 78 24
0.40918720 0.61654043 -0.32901368 70 94 34
0.42637637 0.58914644 -0.33038318 91 127 29
0.42091095 0.60220540 -0.32339746 113 150 45
0.41555828 0.61025196 -0.32700172 103 126 46
0.41838822 0.61299378 -0.32780126 95 118 36
0.39351752 0.63770509 -0.33558854 57 81 29
0.42097259 0.60212195 -0.32421672 81 118 15
0.40496141 0.62993985 -0.32935280 97 136 21
0.42682666 0.57472789 -0.33330566 37 71 10
0.42941320 0.56911117 -0.33367556 33 74 0
0.42207021 0.59324998 -0.32805622 93 125 16
0.42261305 0.59996748 -0.32376471 101 140 21
0.42739546 0.58127344 -0.33283973 76 112 6
0.41696641 0.58946055 -0.32972613 66 93 26
0.41395801 0.59366941 -0.32903093 63 89 26
0.41876504 0.59473205 -0.32782617 49 78 12
0.42000774 0.59238076 -0.32828259 48 79 9
0.42018521 0.58460826 -0.33052129 58 93 13
0.42318752 0.57441980 -0.33407962 46 88 2
0.42544064 0.58541149 -0.33127871 77 110 5
0.42767006 0.58439803 -0.33270925 53 83 0
0.41325951 0.62133169 -0.32869247 80 116 8
0.40776357 0.62330163 -0.33017781 79 112 21
0.40945390 0.58156919 -0.33202741 75 91 42
0.41473189 0.60563231 -0.32547766 49 89 1
0.43121675 0.57815444 -0.33353820 63 96 5
0.42456198 0.58816177 -0.33106548 85 114 8
0.40380201 0.61723375 -0.33002424 55 77 28
0.41497386 0.58065993 -0.33293986 62 100 0
0.41272691 0.61940604 -0.32711199 75 123 0
0.42392823 0.57672584 -0.33366096 44 81 1
0.41504902 0.60382318 -0.32576889 56 93 13
0.41672656 0.60148454 -0.32581803 60 99 18
0.41900659 0.60927361 -0.32489118 42 85 0
0.42295316 0.59712553 -0.32713717 105 141 9
0.41893166 0.57830739 -0.33321321 84 125 7
0.42972949 0.58164668 -0.33307457 78 109 16
0.42165613 0.57355398 -0.33420497 54 94 8
0.40872425 0.58473819 -0.33084640 72 89 44
0.42400390 0.59684491 -0.32697418 105 140 14
0.28093156 0.63763714 -0.46232322 45 80 0
0.28357852 0.64409417 -0.45811978 43 67 5
0.29950708 0.65024430 -0.45967078 195 118 92
0.28292260 0.64783663 -0.45193139 41 65 5
0.30006799 0.65000796 -0.46003908 202 120 98
0.29962879 0.64387137 -0.47005862 88 95 15
0.31491461 0.63983405 -0.49078631 41 34 8
0.31349823 0.64460254 -0.47776264 187 142 119
0.31360149 0.64405990 -0.47695017 190 148 126
0.30441770 0.64494008 -0.47203588 73 52 9
0.29837394 0.64608335 -0.46583122 129 98 44
0.29645482 0.65356171 -0.45588082 207 121 104
0.30794498 0.65044463 -0.46980885 87 33 23
0.31193462 0.64346796 -0.47773412 190 152 131
0.30347613 0.64900184 -0.46456438 182 131 112
0.29911935 0.64153987 -0.47454056 61 91 3
0.31204307 0.63946211 -0.48551095 32 26 0
0.31049889 0.63376939 -0.48730284 31 22 0
0.31031945 0.64943981 -0.47507447 150 87 69
0.30701423 0.64679527 -0.47211158 106 49 38
0.31171733 0.64167780 -0.47295919 60 39 10
0.31836918 0.64575332 -0.47764835 168 101 75
0.27908295 0.64445978 -0.45280331 39 68 2
0.28709185 0.64716601 -0.45600930 51 77 14
0.28260067 0.64963228 -0.44958073 40 64 2
0.31685233 0.64391041 -0.46948975 163 94 63
0.31735930 0.64363569 -0.46681210 191 108 76
0.27480179 0.63617492 -0.45657590 38 71 0
0.26204163 0.66529363 -0.42945060 72 103 27
0.28702068 0.67219925 -0.26300216 89 115 16
0.25257498 0.66960472 -0.28754783 70 110 0
0.33734119 0.66519296 -0.25258318 61 88 17
0.27180940 0.65780079 -0.27751097 40 74 0
0.27512366 0.67407197 -0.27640110 116 163 7
0.26296499 0.66576558 -0.28174296 91 140 0
0.26432168 0.66706413 -0.27896321 158 197 10
0.25318494 0.67413467 -0.37113407 74 98 24
0.25006738 0.65501976 -0.37459549 55 84 4
0.25027299 0.65485024 -0.37765008 58 86 9
0.24997754 0.65660065 -0.36960134 56 90 3
0.33622813 0.66298270 -0.25659481 43 64 25
0.29283780 0.66992295 -0.25164133 129 163 68
0.24913795 0.64874762 -0.32585433 36 72 0
0.25041181 0.65179449 -0.32222304 34 69 5
0.31503788 0.66526830 -0.24353102 84 126 0
0.31165403 0.67507446 -0.24288480 87 129 0
0.29936600 0.67464381 -0.24142289 138 175 69
0.25711483 0.65673065 -0.41595614 65 95 9
0.25722244 0.65633976 -0.41547158 53 82 0
0.33196673 0.65712547 -0.24490054 57 94 1
0.29075357 0.67039990 -0.25620678 105 144 1
0.29108328 0.67113280 -0.25644785 104 143 0
0.24575800 0.66384274 -0.35436043 57 85 0
0.24631880 0.66236544 -0.35541880 52 82 0
0.28673917 0.66596800 -0.26126909 87 130 0
0.28985381 0.66355991 -0.25696120 90 126 2
0.27036807 0.66502780 -0.27508578 140 187 9
0.27114418 0.65975922 -0.27733126 91 118 25
0.35217574 0.66556102 -0.26764315 74 103 13
0.35435286 0.66133052 -0.27131629 72 96 34
0.35617682 0.66307908 -0.27195904 72 99 32
0.24518609 0.66010928 -0.33677515 47 85 0
0.24653983 0.65889776 -0.33645079 46 80 3
0.24839087 0.67340440 -0.37053442 65 83 9
0.25321621 0.64469296 -0.32141933 118 169 28
0.24720086 0.66961396 -0.33123198 49 88 0
0.29639146 0.65429664 -0.25098610 121 165 8
0.26697513 0.66358817 -0.27800635 72 117 0
0.26811913 0.66017330 -0.28019252 80 110 24
0.32911843 0.64791441 -0.25315344 92 125 18
0.29086378 0.67330450 -0.26002982 94 125 5
0.30143467 0.67275447 -0.24422146 116 157 0
0.27858001 0.67731386 -0.27316144 126 149 67
0.34516409 0.65778154 -0.27027258 59 91 6
0.33041832 0.64961284 -0.24600506 91 129 16
0.28291184 0.65980923 -0.26634976 76 106 6
0.28351754 0.66368443 -0.26822457 81 127 0
0.34768307 0.66303170 -0.26682860 51 75 17
0.25102097 0.67223006 -0.30117899 83 111 8
0.26550165 0.65628999 -0.28821012 40 74 0
0.34336913 0.66312075 -0.26292509 39 59 24
0.24889943 0.66757828 -0.39270929 28 57 0
0.27584288 0.66626173 -0.27443710 88 135 0
0.26032495 0.65022534 -0.40797687 96 124 66
0.27554670 0.66046923 -0.27548999 61 96 6
0.32639390 0.65822184 -0.24951887 72 107 0
0.26342052 0.67108500 -0.28035039 178 213 0
0.27191210 0.67526257 -0.27390805 108 135 66
0.24953163 0.66441059 -0.32820445 84 116 7
0.25045294 0.66111273 -0.32689866 72 111 20
0.25067908 0.66024923 -0.32549196 63 99 9
0.24621814 0.66190475 -0.41076288 73 104 26
0.25500444 0.65444273 -0.40818155 68 98 8
0.24800149 0.66680974 -0.39700785 68 100 15
0.25661999 0.64922768 -0.31102464 104 144 30
0.25978625 0.64532399 -0.31124249 53 95 0
0.29718038 0.66864765 -0.24812967 103 141 0
0.29567012 0.66784924 -0.25024396 145 184 13
0.26310444 0.66034132 -0.28702796 59 88 8
0.26496303 0.65845019 -0.28725374 57 84 13
0.28227422 0.66528982 -0.26317585 100 132 67
0.33931041 0.66288024 -0.26046780 38 59 20
0.28143349 0.67095697 -0.26722291 79 109 23
0.29104403 0.67441946 -0.26458088 89 129 0
0.28225061 0.66510016 -0.27274245 54 94 0
0.32481220 0.65014303 -0.25266999 79 119 0
0.26869997 0.64999968 -0.28024384 92 138 0
0.29457667 0.67104554 -0.24825591 118 149 55
0.25372010 0.66542584 -0.30810478 89 122 9
0.25759181 0.65993279 -0.42009020 76 103 26
0.30849737 0.65943289 -0.24828230 97 133 7
0.35088187 0.66776568 -0.25947422 54 84 14
0.28101915 0.65133971 -0.27191201 144 192 12
0.25250286 0.66222227 -0.31854635 40 79 0
0.25324446 0.66393721 -0.31635442 41 76 0
0.24972229 0.67097253 -0.37588009 56 77 20
0.25748834 0.65258765 -0.40814158 57 89 13
0.30080578 0.67558956 -0.24519321 154 193 12
0.33280355 0.65344179 -0.25971696 85 113 36
0.25147074 0.66612381 -0.38493866 64 94 0
0.28411081 0.67569619 -0.26863608 84 111 30
0.25634238 0.65118510 -0.30834475 58 97 0
0.25473052 0.64940989 -0.31610855 128 180 20
0.31729457 0.65411204 -0.25011975 108 146 0
0.28581539 0.64902705 -0.27306455 105 147 0
0.29138285 0.67319441 -0.25315559 109 138 22
0.28093556 0.64934558 -0.27336013 108 155 0
0.24199115 0.66853851 -0.33701098 53 92 0
0.27752256 0.64967716 -0.27415416 132 181 12
0.30017105 0.67537129 -0.24095446 131 171 74
0.28496173 0.65485579 -0.26260632 91 133 5
0.33743078 0.65903896 -0.26124033 42 72 0
0.28229603 0.65436584 -0.26649451 94 137 4
0.26155737 0.66211450 -0.28644657 49 90 0
0.24826553 0.67135310 -0.37106740 80 102 19
0.28317672 0.64611691 -0.27582464 122 169 0
0.25273082 0.65368468 -0.40100962 39 72 3
0.28734460 0.65055615 -0.27025741 142 186 11
0.25252837 0.67029428 -0.38545123 64 87 15
0.25890949 0.64414829 -0.31447354 51 96 0
0.29271838 0.65134305 -0.25861672 119 156 27
0.30660748 0.66808128 -0.24196917 125 166 70
0.24887674 0.66260993 -0.41637176 65 85 13
0.34785947 0.66622478 -0.25781974 99 132 19
0.33883005 0.65478432 -0.26375550 56 85 21
0.30521452 0.67381495 -0.24005514 111 156 51
0.29274860 0.65078759 -0.26071438 84 118 8
0.30181581 0.67313379 -0.24079369 126 172 63
0.28849614 0.64982998 -0.27134469 99 141 3
0.25903407 0.65649784 -0.30194888 44 73 15
0.24053651 0.67249459 -0.33820164 80 124 11
0.24883193 0.65084344 -0.32853889 31 65 0
0.24844503 0.64928693 -0.32859281 38 70 3
0.25899687 0.66167504 -0.29048342 53 92 0
0.27854425 0.67510736 -0.27177405 100 126 65
0.24244969 0.67690086 -0.36014754 81 98 18
0.29004905 0.67362607 -0.25534469 107 135 24
0.27879983 0.67133754 -0.26920813 78 108 36
0.31688568 0.67316604 -0.24272333 82 120 1
0.26778585 0.67178494 -0.27378097 104 132 57
0.27289128 0.67228168 -0.27281764 102 131 65
0.24962282 0.67078322 -0.37991339 53 79 5
0.25539309 0.65308350 -0.31015372 59 101 0
0.35313720 0.67041433 -0.26398250 66 92 21
0.25023279 0.65439820 -0.38274261 52 83 3
0.24973121 0.65798378 -0.38679793 58 91 0
0.24991520 0.65999317 -0.38655266 49 83 0
0.24388273 0.66223300 -0.33610553 55 92 0
0.24332687 0.66578597 -0.33526015 53 89 0
0.27507487 0.66979611 -0.27010921 125 156 63
0.25730589 0.64296895 -0.31824812 86 136 3
0.24006812 0.67443407 -0.35576960 63 91 7
0.31552699 0.64845574 -0.24899533 113 151 38
0.34016812 0.65395510 -0.25841349 66 98 15
0.28913444 0.67255396 -0.25620684 104 131 24
0.24768119 0.65722853 -0.34121859 74 101 32
0.24589157 0.65993828 -0.34667653 50 84 8
0.35415566 0.66760761 -0.27192360 68 91 9
0.35376340 0.66823292 -0.26893571 71 96 12
0.34521753 0.66282165 -0.25700909 71 98 17
0.34125236 0.65950334 -0.25597525 71 98 19
0.29844773 0.66666925 -0.24674849 124 160 72
0.29817295 0.66553080 -0.24890515 122 157 77
0.29391450 0.65689164 -0.25278568 108 146 9
0.25118124 0.66309690 -0.37450680 78 110 1
0.25078872 0.66067177 -0.38068703 45 76 0
0.30798733 0.67428803 -0.24252078 98 139 1
0.26427582 0.64943457 -0.28354067 74 119 0
0.28840235 0.65460724 -0.25926670 113 151 6
0.25394362 0.66583186 -0.30323786 65 96 2
0.24949877 0.65716410 -0.33092520 67 98 31
0.24940410 0.66181344 -0.39162731 70 100 2
0.25025120 0.66287756 -0.38627934 101 126 9
0.24797143 0.66888428 -0.38096687 79 102 12
0.24906063 0.65977955 -0.41095251 30 60 0
0.25419086 0.66360003 -0.30870277 48 80 0
0.27876571 0.65186834 -0.27293691 116 164 0
0.27292773 0.66707122 -0.26975524 109 144 60
0.34397829 0.65655637 -0.26884836 47 78 19
0.29979330 0.66868865 -0.24306105 122 162 65
0.33699667 0.65976942 -0.26048347 64 97 10
0.26304749 0.65035051 -0.28485453 131 174 43
0.26549929 0.65436733 -0.28645858 49 85 0
0.30385387 0.66554427 -0.24422976 135 165 93
0.30325809 0.65433317 -0.24985419 121 164 14
0.31394199 0.67866993 -0.24329415 170 191 52
0.24772726 0.66303158 -0.40148133 46 82 0
0.24850507 0.66158533 -0.39693728 88 121 17
0.25026098 0.67189163 -0.38173908 35 56 0
0.28961381 0.67555118 -0.26536328 78 110 0
0.24940941 0.65647334 -0.39916599 45 80 0
0.25101146 0.65638709 -0.40495253 43 75 0
0.36092836 0.66276044 -0.27990362 70 92 27
0.27211505 0.67654115 -0.27635908 73 117 0
0.27603668 0.65954727 -0.27488452 61 95 9
0.27669972 0.66053003 -0.27477193 63 102 11
0.25142071 0.66384953 -0.37401611 100 133 20
0.31804168 0.65843379 -0.24652401 94 132 0
0.31176090 0.67843944 -0.24195869 170 209 94
0.29147157 0.67669141 -0.26251256 70 101 0
0.25841177 0.65021938 -0.30070803 76 116 0
0.25537258 0.66204423 -0.42190185 62 88 14
0.30940270 0.67334920 -0.24057615 102 141 58
0.26706663 0.66673720 -0.27629897 88 135 0
0.26826772 0.66965085 -0.27536890 99 141 0
0.29132202 0.66991937 -0.25413224 119 153 58
0.33404279 0.65133870 -0.25165150 85 122 19
0.26919410 0.65244979 -0.28002641 91 140 0
0.32144567 0.66085643 -0.24637158 82 121 6
0.36223021 0.66654485 -0.27896592 62 96 9
0.23948474 0.66903341 -0.34220216 70 110 14
0.28531393 0.67399633 -0.26932392 134 161 68
0.33538967 0.65432024 -0.26217839 76 108 7
0.32251161 0.66450506 -0.24481766 65 96 2
0.27460942 0.66923535 -0.27475443 82 128 3
0.23796844 0.67406428 -0.34311575 123 144 49
0.35500342 0.66052681 -0.27348670 63 89 28
0.35498449 0.66000783 -0.27425244 60 89 25
0.23946732 0.66709924 -0.34551907 69 110 8
0.25227529 0.67295736 -0.38394415 61 81 18
0.24555023 0.66040885 -0.34827107 53 92 1
0.24854001 0.65634972 -0.34583917 80 106 43
0.24771161 0.65747339 -0.34655771 63 94 27
0.24601619 0.67707670 -0.36104849 80 107 30
0.24378006 0.67317641 -0.35541525 43 79 0
0.24362636 0.67483258 -0.35536423 52 85 6
0.28340417 0.65859228 -0.26352397 41 76 0
0.28080764 0.65804386 -0.26941895 50 81 1
0.28018114 0.65762812 -0.27023050 38 69 0
0.31561103 0.66786671 -0.24262148 93 135 0
0.24835885 0.67320120 -0.36258683 63 98 14
0.24681723 0.67436373 -0.36063513 39 79 0
0.24147739 0.66740781 -0.34995914 69 105 0
0.24258773 0.66457498 -0.34877807 133 158 15
0.25080457 0.66409206 -0.36971623 98 127 17
0.28393582 0.66491705 -0.26161265 106 138 73
0.28321436 0.66480374 -0.26226920 105 137 72
0.25337756 0.66906923 -0.37938955 42 75 4
0.33337781 0.65000570 -0.25511926 103 139 31
0.25885504 0.67491782 -0.28371862 76 125 0
0.25143349 0.66847521 -0.32637799 132 166 27
0.25155631 0.66476947 -0.32347560 91 127 19
0.30335617 0.67867285 -0.24177496 108 137 0
0.28851360 0.67203146 -0.26684278 79 108 0
0.25489324 0.67238212 -0.37710124 56 80 0
0.33296025 0.65758675 -0.25673184 41 75 0
0.24849892 0.67028320 -0.36264363 42 73 0
0.25161141 0.67355156 -0.36770979 55 83 8
0.32845965 0.65471435 -0.25360206 97 141 6
0.34964728 0.66357154 -0.26874372 59 84 18
0.31283742 0.65898436 -0.24722748 83 121 0
0.26053485 0.65888673 -0.29372901 74 101 32
0.32774252 0.64878350 -0.25361881 68 102 15
0.33282119 0.66253144 -0.25531498 73 95 48
0.25896740 0.66550291 -0.28606698 98 140 2
0.26064181 0.66534901 -0.28475529 79 129 0
0.25635996 0.65533072 -0.41245991 44 73 0
0.30665129 0.66068608 -0.24839817 98 123 42
0.35710090 0.65798795 -0.28041536 68 92 30
0.31990585 0.67773348 -0.24512231 106 145 0
0.29159844 0.66535199 -0.25476626 115 162 4
0.29387012 0.66336888 -0.25378835 92 126 6
0.30591711 0.67309844 -0.24244030 101 139 0
0.27266428 0.67871213 -0.27442268 124 151 80
0.25267619 0.65839577 -0.41323817 35 62 0
0.23900002 0.67068833 -0.34707236 64 107 2
0.25224328 0.66101164 -0.41804361 57 79 4
0.25697121 0.66202664 -0.29317886 54 95 3
0.32501495 0.65254569 -0.25247118 56 92 0
0.34908703 0.65962613 -0.26574615 63 94 27
0.34678900 0.66220897 -0.25957730 84 108 32
0.24901919 0.67182058 -0.29738206 85 120 2
0.25132617 0.66862994 -0.29528603 69 102 0
0.26026967 0.65822476 -0.42158717 60 92 9
0.26403627 0.65647739 -0.29128927 39 71 0
0.26106703 0.64968789 -0.28791040 65 99 2
0.25559324 0.63960516 -0.31998840 79 130 0
0.32497069 0.64624870 -0.24887098 102 139 26
0.31910941 0.64393139 -0.24294767 179 206 89
0.29123569 0.65578091 -0.25507545 104 148 1
0.25899532 0.65741384 -0.29969245 55 82 11
0.25817463 0.65958250 -0.29725012 55 85 11
0.36975542 0.66539860 -0.28913102 63 98 14
0.24948438 0.67114693 -0.29443222 82 116 4
0.24592784 0.66354454 -0.40587756 73 107 20
0.25879425 0.65408438 -0.41407019 53 86 0
0.30551514 0.66397244 -0.24658500 76 116 0
0.25187638 0.65255058 -0.39365768 50 76 3
0.24985652 0.65480262 -0.39114574 69 99 9
0.25263256 0.65165591 -0.39199549 78 104 41
0.25495884 0.64909947 -0.39676744 56 86 26
0.34568414 0.65419692 -0.26561186 85 118 49
0.25632668 0.66931778 -0.28523913 156 198 12
0.26910439 0.67313159 -0.27634990 80 123 0
0.35266945 0.66606772 -0.26519862 63 96 9
0.35595092 0.66608030 -0.26996616 65 100 10
0.28407159 0.66672772 -0.27124804 126 164 3
0.28303650 0.66479856 -0.27165234 65 103 0
0.25348589 0.66644633 -0.29858035 50 84 0
0.25475043 0.66299981 -0.29742324 52 92 0
0.25825343 0.64854771 -0.30619559 69 111 0
0.34421325 0.65590143 -0.26264784 75 106 26
0.34366903 0.65581536 -0.26201096 75 107 24
0.23919176 0.67452872 -0.34877101 67 101 7
0.29333827 0.65880567 -0.25427735 91 128 15
0.24917847 0.65764737 -0.40335068 50 84 0
0.24876775 0.65827566 -0.40319473 34 68 0
0.25668275 0.65446049 -0.30721337 73 108 16
0.30215934 0.66248173 -0.24935873 77 108 14
0.30416706 0.66206193 -0.24891461 96 124 39
0.31719494 0.65707564 -0.24752615 128 169 13
0.34442589 0.65973383 -0.26842660 69 99 11
0.24823868 0.64904219 -0.33017534 45 76 9
0.24882700 0.65189463 -0.33180276 46 79 8
0.32043648 0.64774716 -0.25029209 99 134 14
0.29173097 0.67451566 -0.26083329 87 118 1
0.34547609 0.66601503 -0.25566775 90 124 11
0.25319496 0.65790480 -0.31501412 63 94 26
0.25449586 0.66093379 -0.31202713 47 84 0
0.34019056 0.65561646 -0.25721395 75 111 23
0.33415967 0.65044397 -0.25796986 105 137 54
0.28697243 0.66882813 -0.26454338 83 118 0
0.28577146 0.66785747 -0.26812783 92 131 2
0.31902823 0.65899122 -0.24653979 120 165 2
0.24882437 0.67654127 -0.36553207 76 93 22
0.33662531 0.65456897 -0.25216660 81 118 23
0.35426304 0.65720862 -0.27639809 55 84 20
0.35265857 0.65834177 -0.27247533 65 100 32
0.25553080 0.66090709 -0.30257893 48 86 0
0.27201518 0.66984493 -0.27455699 73 117 0
0.24284558 0.66821933 -0.35306028 70 108 7
0.24463229 0.67084718 -0.35655364 43 77 3
0.28709194 0.67783397 -0.26566550 92 117 23
0.29671055 0.67394227 -0.24687088 108 136 34
0.30788997 0.66854417 -0.24310812 121 167 6
0.32782722 0.64891887 -0.24102934 136 175 60
0.32426983 0.66552150 -0.24508266 78 117 2
0.29502466 0.65250552 -0.25383937 100 144 0
0.34263387 0.65245724 -0.26297849 80 107 38
0.32560372 0.64722151 -0.23993994 105 147 37
0.32555699 0.64680743 -0.24198858 86 125 18
0.29314506 0.67008686 -0.25199163 130 166 6
0.25928828 0.65009850 -0.29799244 69 107 0
0.26203048 0.65553194 -0.29595450 41 75 0
0.24747995 0.66519713 -0.36058274 103 131 18
0.25023690 0.65969348 -0.36626619 57 86 6
0.24903955 0.65828699 -0.36201203 60 91 15
0.42138419 0.53400272 -0.18570846 133 171 10
0.45526683 0.46245351 -0.18069541 73 125 0
0.46174261 0.48027924 -0.17944440 99 145 0
0.47393811 0.39943078 -0.20439592 105 142 49
0.44554967 0.45906898 -0.17855293 94 137 32
0.44761467 0.45913842 -0.17909877 123 172 63
0.45542112 0.44448757 -0.19145076 116 160 65
0.40865734 0.56919271 -0.19761036 82 115 10
0.40986499 0.56771702 -0.19700491 80 112 13
0.42079952 0.50960237 -0.17856181 139 184 91
0.46726286 0.49982494 -0.17523409 131 165 8
0.46952915 0.50032568 -0.17496651 107 138 1
0.46934047 0.50115305 -0.17455477 117 146 6
0.47013226 0.49022058 -0.18055812 144 181 3
0.40989727 0.56098932 -0.19657385 126 162 14
0.46759784 0.40308899 -0.20461303 81 119 36
0.46257952 0.43578485 -0.19104971 62 111 0
0.47372088 0.48631614 -0.18169257 133 171 8
0.41755360 0.56482351 -0.19484444 37 68 11
0.41578788 0.55992538 -0.19349909 69 106 1
0.47722533 0.49828658 -0.17703030 101 133 8
0.47833708 0.48623800 -0.18010026 111 140 0
0.45657635 0.52088058 -0.17899875 54 83 3
0.45795646 0.51623625 -0.17685986 35 65 0
0.43420058 0.50630051 -0.17949989 111 160 0
0.43165606 0.50542748 -0.18152371 204 238 115
0.42641127 0.54709363 -0.18567851 42 75 4
0.43139920 0.54156566 -0.18299167 35 68 11
0.43043533 0.54504800 -0.18464607 32 62 10
0.47461915 0.42097133 -0.19957164 58 106 0
0.48187333 0.49143863 -0.17922266 130 160 46
0.45483288 0.44909552 -0.18954912 140 187 55
0.42964336 0.49600449 -0.18600543 92 135 46
0.46736053 0.46947634 -0.17958812 112 148 42
0.48003095 0.49249798 -0.17899135 113 144 17
0.45139030 0.51045996 -0.17531435 69 108 1
0.45376533 0.50956714 -0.17477055 126 173 15
0.47717422 0.46902800 -0.17809497 170 207 13
0.46217358 0.43008536 -0.19378878 73 125 0
0.41797736 0.52178860 -0.18364991 62 105 0
0.41803282 0.52182877 -0.18360713 62 105 0
0.45124298 0.44614759 -0.18804464 97 149 4
0.41972366 0.54242945 -0.19080243 130 160 12
0.42205602 0.54305357 -0.18731971 124 155 26
0.47237369 0.41302386 -0.19028287 140 167 98
0.46869662 0.41060084 -0.18969244 122 157 89
0.44068375 0.49827567 -0.17993648 126 172 4
0.44304001 0.50022888 -0.17790236 131 179 7
0.46771380 0.45418313 -0.18218637 157 206 1
0.42443758 0.55933547 -0.19193655 23 51 3
0.41625878 0.55829257 -0.19286776 73 109 0
0.42503157 0.53793222 -0.18460220 64 102 0
0.47805893 0.46599197 -0.17483997 202 236 98
0.44323325 0.47130916 -0.18127142 46 100 0
0.46754906 0.40314782 -0.20167889 86 124 49
0.43056622 0.51804477 -0.17822945 159 206 14
0.42289105 0.52068263 -0.17908061 112 166 6
0.48410621 0.47421396 -0.17909130 123 165 5
0.45438290 0.47620329 -0.17908779 94 146 2
0.47769561 0.45552048 -0.18022040 148 202 4
0.47774541 0.45496073 -0.18052164 146 199 3
0.47756737 0.45700935 -0.17941706 159 212 6
0.44640231 0.46860531 -0.18170631 86 141 11
0.43718639 0.49640074 -0.18505439 147 185 63
0.46431971 0.50946879 -0.17503114 18 39 0
0.41233465 0.55212945 -0.19572727 126 157 38
0.41029692 0.55302006 -0.19709800 129 164 48
0.41776934 0.54527140 -0.19284455 165 197 52
0.45496994 0.51101768 -0.17473143 83 121 0
0.46156597 0.46936446 -0.17924830 113 159 1
0.46158883 0.43749097 -0.18874848 118 155 77
0.46429142 0.44342062 -0.18686177 148 185 108
0.45806414 0.41954157 -0.19526483 72 114 6
0.46784425 0.49104485 -0.18013693 150 190 16
0.50490433 0.45646825 -0.18436974 67 76 47
0.46918422 0.48383790 -0.18146099 120 161 0
0.50723499 0.45234609 -0.19110022 132 142 118
0.45863071 0.41681999 -0.19073330 95 134 19
0.41784933 0.52572817 -0.18681006 95 127 30
0.45707223 0.49065664 -0.17804170 84 129 2
0.45360455 0.48865661 -0.17750002 66 112 0
0.41920114 0.54783469 -0.19060583 110 143 13
0.42702901 0.50553226 -0.18186671 145 191 5
0.46359649 0.42853478 -0.18937650 110 149 68
0.46410543 0.43169272 -0.18909128 125 166 70
0.46951613 0.45854551 -0.18116839 82 125 7
0.47122854 0.45420265 -0.18242683 90 136 1
0.49789622 0.43972257 -0.19827378 115 161 1
0.45954016 0.41719171 -0.18761238 74 105 11
0.47622710 0.48424169 -0.18168966 94 125 0
0.47652391 0.47397488 -0.17938185 181 216 0
0.43225667 0.54832518 -0.18620677 37 63 16
0.42706290 0.55421209 -0.18926512 26 52 5
0.47423208 0.42809609 -0.18998629 113 152 46
0.44027212 0.47026315 -0.18085743 70 116 7
0.44107839 0.46936467 -0.18096538 70 123 7
0.47942352 0.47482067 -0.17969815 109 145 0
0.46883178 0.43773139 -0.18865299 78 136 0
0.45080242 0.50305659 -0.17539115 80 112 15
0.43761215 0.49070618 -0.18723053 142 178 88
0.46154925 0.43116730 -0.18932702 149 193 70
0.43293563 0.49748752 -0.18460646 119 171 9
0.40901309 0.56127697 -0.19679078 151 186 21
0.44316804 0.46975905 -0.17654589 117 161 66
0.40694419 0.56590486 -0.19681577 109 145 9
0.44002888 0.51291758 -0.17673248 116 161 0
0.44336006 0.47419789 -0.18098044 61 104 0
0.41454640 0.55729687 -0.19402751 112 151 6
0.46685168 0.41767988 -0.19924206 94 142 7
0.44087699 0.48849031 -0.18382035 167 198 6
0.44080564 0.47669569 -0.18176545 113 155 55
0.45457408 0.45284265 -0.18525510 90 145 0
0.45575711 0.45133650 -0.18625088 93 147 0
0.47858492 0.48272058 -0.18128201 151 186 21
0.41990724 0.54188806 -0.19071004 119 157 9
0.41850132 0.54084730 -0.19225116 148 187 20
0.46756002 0.42031446 -0.18850976 93 135 53
0.42203459 0.52236778 -0.17722255 111 148 43
0.41795197 0.52273816 -0.17846429 81 116 34
0.42094767 0.52597404 -0.18097982 96 130 20
0.44453022 0.47643977 -0.17912333 151 189 52
0.42723072 0.50850201 -0.18104644 161 205 90
0.42609015 0.51080012 -0.17917010 170 216 84
0.45188650 0.51488078 -0.17548068 81 121 0
0.44922295 0.51410902 -0.17610277 52 87 0
0.42653283 0.51584482 -0.17776164 135 178 47
0.42471129 0.51765263 -0.17632917 133 176 60
0.43541229 0.49202374 -0.18729728 125 160 66
0.44380817 0.48159704 -0.18201247 171 213 69
0.43430784 0.49890083 -0.18505277 128 168 82
0.41725269 0.51225072 -0.17738321 94 128 67
0.43163511 0.52257788 -0.17663556 133 176 58
0.42889211 0.52221221 -0.17627339 135 174 57
0.42435440 0.52408057 -0.17885569 164 206 8
0.42476982 0.52650577 -0.17940058 94 136 2
0.42024744 0.54494941 -0.19054788 85 125 0
0.46249288 0.50222844 -0.17381886 128 172 1
0.46586981 0.50504518 -0.17445341 101 139 2
0.46869871 0.41413689 -0.19951195 56 105 0
0.45212966 0.46789986 -0.17427060 142 186 65
0.45486128 0.46592033 -0.17711075 114 155 53
0.43726656 0.49069089 -0.18705977 121 167 35
0.46397591 0.45221800 -0.18271016 136 187 6
0.46480909 0.44781283 -0.18436454 90 144 0
0.42093673 0.54984266 -0.18908837 64 99 0
0.47217074 0.41618076 -0.18921551 129 166 86
0.46652660 0.41806591 -0.18808842 140 186 77
0.43458885 0.53062785 -0.17972077 47 82 0
0.43589154 0.52929664 -0.17950520 57 91 4
0.42660913 0.53174293 -0.17977998 97 141 2
0.46354404 0.47171837 -0.17902762 101 148 8
0.46374625 0.46915662 -0.17923371 131 184 6
0.43274561 0.54399318 -0.18414241 24 53 5
0.43428734 0.53516740 -0.18124232 50 84 7
0.43696988 0.53526890 -0.18182416 25 53 4
0.43358493 0.51635367 -0.17720269 161 201 102
0.43204525 0.51284629 -0.17911701 142 178 68
0.45538267 0.43558022 -0.19133507 101 147 49
0.46461582 0.40655738 -0.19363911 87 127 41
0.42844826 0.52995193 -0.17882045 67 104 0
0.41950196 0.52722102 -0.18588683 97 136 11
0.45686415 0.46572092 -0.17989238 127 184 9
0.40597621 0.55040067 -0.19956087 96 148 4
0.42654964 0.53787041 -0.18344708 84 121 7
0.42757097 0.53948462 -0.18268336 68 102 8
0.44777539 0.47485593 -0.18071529 101 146 17
0.41775665 0.51828265 -0.18250725 98 146 2
0.41890249 0.51872289 -0.18136844 93 140 8
0.43530554 0.51233399 -0.17798781 92 145 0
0.44468677 0.48258787 -0.18062069 64 113 0
0.47186464 0.44053236 -0.18718277 99 145 0
0.46634561 0.42542869 -0.18937704 123 163 77
0.45929736 0.51932490 -0.17916924 75 105 5
0.46209756 0.51844066 -0.17996462 27 57 3
0.48477766 0.44957027 -0.18354128 127 174 6
0.47910142 0.45363209 -0.18111549 155 208 2
0.47275406 0.41481000 -0.20052682 50 97 3
0.41801345 0.54413235 -0.19311289 172 209 31
0.41738394 0.54200059 -0.19323486 134 171 14
0.43849120 0.48617572 -0.18684933 109 151 43
0.48997313 0.42871118 -0.19594015 103 157 20
0.45254213 0.48454133 -0.17794941 59 109 0
0.45158744 0.44452566 -0.19010483 144 195 30
0.46409330 0.46304742 -0.17932902 141 180 74
0.46476212 0.46682546 -0.17855661 160 199 93
0.45892084 0.47546473 -0.17560214 152 190 89
0.46156618 0.41668311 -0.18756256 140 182 70
0.45170823 0.44072935 -0.19330184 190 224 127
0.48011264 0.50817460 -0.17549857 83 115 18
0.46016738 0.47686306 -0.17608903 121 160 71
0.46484929 0.47464910 -0.17786673 121 152 76
0.46642381 0.46966964 -0.17843707 123 154 76
0.45363680 0.47561353 -0.17514876 123 161 58
0.45169911 0.47614512 -0.17509301 98 139 17
0.45146561 0.46979541 -0.17385216 180 223 116
0.42067122 0.52558720 -0.18168871 63 109 0
0.46201560 0.46263045 -0.17889559 155 195 80
0.46313331 0.46084517 -0.17974938 155 196 78
0.46115789 0.46476164 -0.17783225 153 193 79
0.44985032 0.47374251 -0.17467856 108 147 40
0.44912916 0.47132418 -0.17474820 98 139 37
0.44837353 0.46729183 -0.17355330 181 227 105
0.44453287 0.47248781 -0.17770393 103 140 45
0.41147420 0.55606157 -0.19664297 195 223 63
0.46196133 0.42175418 -0.18802798 113 157 62
0.45072061 0.46457756 -0.17604905 114 160 51
0.44744447 0.49912420 -0.17620334 127 175 11
0.45176476 0.49762711 -0.17547318 110 158 14
0.44885409 0.50037450 -0.17563792 98 147 0
0.45563325 0.45416164 -0.18428268 126 179 9
0.41528633 0.55035472 -0.19505019 162 192 32
0.41679642 0.53474385 -0.19264075 97 129 18
0.40510622 0.55519915 -0.19797122 88 129 1
0.47445342 0.42445055 -0.19002981 106 147 53
0.47218651 0.42190012 -0.18955520 109 151 67
0.47252932 0.41385046 -0.20058811 53 104 3
0.46142814 0.41721854 -0.19757250 56 99 0
0.46023297 0.43115214 -0.19182342 118 173 20
0.45841819 0.43830591 -0.19054711 153 199 75
0.46006453 0.42133227 -0.19597192 49 95 0
0.46210343 0.41213495 -0.19766457 39 86 0
0.46519724 0.42479172 -0.19833440 64 113 0
0.47078538 0.42248669 -0.20005779 85 133 13
0.46800405 0.44462854 -0.18495093 138 193 4
0.46989065 0.44556192 -0.18433525 120 166 5
0.47585934 0.42886803 -0.19415723 125 176 23
0.45018741 0.45906442 -0.18182147 123 171 53
0.45984229 0.50172621 -0.17374209 100 147 0
0.47058389 0.43215913 -0.19467093 55 110 0
0.47841427 0.42359579 -0.19661388 59 103 0
0.43954110 0.54159427 -0.18228367 36 73 4
0.44138348 0.53725970 -0.18089764 47 87 1
0.43598995 0.54151803 -0.18376949 47 72 14
0.45175067 0.45285329 -0.18716991 114 160 52
0.45547321 0.44004652 -0.19118944 80 134 0
0.47682449 0.43811771 -0.18970020 84 130 0
0.47933885 0.43885937 -0.18996271 89 132 17
0.45773280 0.44670969 -0.18834384 101 160 0
0.48075905 0.44231874 -0.18855141 79 136 0
0.48185486 0.43988377 -0.19007818 100 153 1
0.47625461 0.44490224 -0.18611594 91 127 21
0.47653288 0.44267097 -0.18731727 77 124 0
0.45682669 0.44806871 -0.18923423 132 176 63
0.47270712 0.42316270 -0.19939791 74 122 0
0.48725304 0.43869483 -0.19151470 146 196 21
0.48963121 0.43615493 -0.19305973 115 159 4
0.44132993 0.45834103 -0.17960885 87 119 46
0.48657322 0.42558849 -0.19792232 106 163 8
0.44325832 0.53654259 -0.18007687 19 52 0
0.44521365 0.53374434 -0.17953213 18 51 0
0.46892384 0.45208821 -0.18273188 157 206 1
0.48174593 0.49552214 -0.17945080 39 71 0
0.46585846 0.51289564 -0.17703909 34 66 0
0.40214670 0.55961472 -0.19795567 69 109 0
0.46991938 0.50897211 -0.17500657 33 63 0
0.43475991 0.51439410 -0.17774884 95 145 0
0.48559579 0.42963371 -0.19509047 126 185 17
0.42734337 0.51656723 -0.17897330 177 212 4
0.42115667 0.52104998 -0.17930785 110 166 5
0.48223209 0.47855330 -0.18003464 115 152 0
0.42778289 0.50092572 -0.18372492 64 115 0
0.48010603 0.42380571 -0.19608960 104 155 16
0.47956353 0.49908525 -0.17771830 73 100 7
0.44588745 0.47782198 -0.18031585 99 144 2
0.43903914 0.49821794 -0.18111750 113 159 0
0.43876612 0.50053400 -0.17984125 147 192 5
0.46310061 0.44304293 -0.18686055 108 163 0
0.48295555 0.49847046 -0.17896903 73 110 4
0.46508747 0.40893888 -0.20147558 59 98 7
0.46188787 0.47587147 -0.17879587 98 146 0
0.44941217 0.52167487 -0.17714451 50 83 4
0.44534114 0.52680337 -0.17883997 58 93 1
0.49034208 0.42177817 -0.20132002 75 132 0
0.47254473 0.51184499 -0.17643467 33 66 11
0.47689766 0.50670612 -0.17509520 44 78 1
0.48276606 0.50182658 -0.17458019 129 158 52
0.45745802 0.50943822 -0.17458659 157 194 16
0.45882577 0.50678962 -0.17426783 150 187 11
0.48498285 0.44839492 -0.18441007 114 160 0
0.47061870 0.50984406 -0.17536362 19 47 9
0.47235736 0.50396889 -0.17450768 68 105 9
0.41384518 0.55356348 -0.19559336 167 203 35
0.43719339 0.52019525 -0.17765397 89 141 0
0.43918130 0.52293622 -0.17851552 57 94 0
0.43820736 0.51931518 -0.17768681 103 155 0
0.46291968 0.45137471 -0.18418115 145 186 82
0.45878795 0.45536488 -0.18280981 122 164 54
0.46418744 0.45301628 -0.18329088 127 167 70
0.44831529 0.48965028 -0.17893799 119 165 4
0.47500744 0.43569446 -0.19139776 83 130 0
0.44068280 0.46462944 -0.18066594 65 100 0
0.40659937 0.56170237 -0.19716358 95 131 0
0.47404310 0.47437629 -0.17949794 112 158 0
0.41563311 0.54493356 -0.19449538 104 131 14
0.42219096 0.51696783 -0.17974292 98 150 3
0.42301702 0.51533693 -0.17991611 119 172 6
0.45920426 0.41608617 -0.18784276 89 124 20
0.47733441 0.46312726 -0.17703962 138 176 54
0.41703326 0.53867543 -0.19334282 126 158 21
0.47868368 0.43080717 -0.19219008 71 118 0
0.45742527 0.45127493 -0.18588857 123 181 1
0.44273239 0.50600582 -0.17655191 91 139 0
0.44264504 0.50409681 -0.17690185 82 130 0
0.45671800 0.42520133 -0.19171548 72 110 59
0.47537130 0.42709944 -0.19518849 60 106 0
0.45781678 0.42384228 -0.19029935 152 178 71
0.47403356 0.47048315 -0.17577612 136 173 80
0.46614492 0.48265433 -0.18018173 105 157 12
0.46513909 0.48396927 -0.17987683 108 153 10
0.41716626 0.52287394 -0.18429983 98 136 25
0.44519013 0.48364747 -0.18011977 102 147 5
0.43650442 0.49520335 -0.18498847 91 132 0
0.43612254 0.50114226 -0.18124825 92 141 0
0.42294437 0.50748265 -0.18137693 56 105 0
0.45448732 0.45612782 -0.18298785 105 151 42
0.45771924 0.44930515 -0.18815994 120 161 69
0.41969076 0.51010513 -0.17841657 148 191 99
0.45953664 0.41406718 -0.19490476 71 113 3
0.40276411 0.55759907 -0.19794603 75 115 3
0.47080991 0.43725958 -0.18945126 137 191 15
0.46486187 0.45533556 -0.18219163 160 200 86
0.46668634 0.45029476 -0.18447766 148 189 95
0.46967793 0.45365581 -0.18316354 163 204 100
0.45618692 0.43127725 -0.19030231 98 138 50
0.46944544 0.43252015 -0.19500196 94 153 9
0.43794790 0.48795179 -0.18707314 124 166 54
0.45233691 0.46294448 -0.18133801 70 123 0
0.50497019 0.45249751 -0.19088122 141 152 120
0.46913514 0.43937984 -0.18712761 122 183 4
0.47404069 0.46745065 -0.17854542 151 194 0
0.47093830 0.46624097 -0.17898735 79 127 9
0.45336074 0.52305514 -0.17862235 61 89 12
0.45367324 0.52009118 -0.17757891 61 95 0
0.47157779 0.50020218 -0.17522722 142 173 20
0.45087093 0.47418597 -0.18055898 66 113 0
0.45232725 0.47490972 -0.18004143 91 141 10
0.48138648 0.43397170 -0.19268750 74 122 4
0.48410627 0.42733243 -0.19615905 49 95 0
0.48278770 0.42295057 -0.19696425 107 156 15
0.46223220 0.41133216 -0.19063453 103 93 81
0.47253305 0.40066415 -0.20042746 116 151 59
0.47529948 0.40033701 -0.20135283 123 158 66
0.44403487 0.51644784 -0.17745759 63 90 9
0.44006789 0.51665789 -0.17746507 136 185 8
0.41952986 0.51809704 -0.17633213 109 153 58
0.42365932 0.51840723 -0.17612877 157 202 75
0.46479103 0.40575796 -0.19748573 91 133 49
0.46111003 0.48383671 -0.17936268 155 202 12
0.43914372 0.48662558 -0.18487319 70 114 0
0.44853023 0.47944754 -0.17969191 123 170 4
0.49097377 0.44125172 -0.19159357 108 153 0
0.43316919 0.50823569 -0.18016411 145 181 83
0.43580991 0.50908518 -0.17924351 193 229 139
0.46443221 0.40763152 -0.20192513 88 125 29
0.45522499 0.49663657 -0.17614824 112 148 40
0.47222370 0.47356856 -0.17918743 163 205 7
0.47092256 0.47429654 -0.17944692 117 166 0
0.46699643 0.51311260 -0.17733717 71 94 12
0.42395255 0.54057491 -0.18365243 85 113 11
0.45196372 0.45495611 -0.18406858 138 189 52
0.40819383 0.54988474 -0.19797070 123 162 33
0.50210261 0.45013624 -0.19048691 106 154 8
0.45770076 0.43502566 -0.19169016 97 151 5
0.49471322 0.43533772 -0.19667818 164 197 4
0.50379324 0.44743446 -0.19803682 155 184 94
0.50214338 0.44777560 -0.19488868 100 145 18
0.49651191 0.43775594 -0.19708599 102 145 3
0.50126404 0.44345546 -0.20108552 58 102 0
0.50005341 0.44500086 -0.19363284 110 160 1
0.49631056 0.44194341 -0.19417363 127 170 3
0.46879449 0.46787146 -0.17935494 158 186 112
0.47047752 0.46115205 -0.18044914 135 165 95
0.46160629 0.44337928 -0.18822652 161 201 112
0.46268490 0.44548905 -0.18748049 122 165 75
0.47376654 0.40403253 -0.19618869 130 161 94
0.47428802 0.43513587 -0.18730268 117 157 43
0.47289783 0.43021730 -0.18935852 108 149 45
0.46726122 0.40662622 -0.19243822 99 140 62
0.47427791 0.46453941 -0.17790869 136 173 78
0.45037329 0.44331557 -0.19045927 116 168 6
0.46464920 0.46126589 -0.18025154 123 173 0
0.47832298 0.43315980 -0.19167785 72 118 0
0.44242880 0.46124291 -0.17510104 181 211 111
0.43940115 0.46660769 -0.17593053 169 206 100
0.43901396 0.46013218 -0.17628086 53 81 22
0.50535554 0.45506477 -0.18613026 95 105 71
0.45462719 0.47818694 -0.17862144 118 172 0
0.45752323 0.46217421 -0.17994098 139 195 0
0.45894697 0.45022386 -0.18607928 114 167 1
0.46246570 0.44865000 -0.18475129 134 190 5
0.41517618 0.55914485 -0.19333673 84 122 3
0.41156578 0.56271446 -0.19508785 72 109 6
0.47322875 0.43833238 -0.18648486 124 162 53
0.47224718 0.43610290 -0.18709433 147 190 72
0.47007823 0.44236517 -0.18609765 158 196 95
0.50739533 0.44958878 -0.19211933 68 78 51
0.47730872 0.49982053 -0.17664818 116 146 12
0.41565499 0.51901990 -0.17776552 108 148 36
0.41598243 0.51815766 -0.17772391 102 141 32
0.46233702 0.49318710 -0.17829496 132 177 0
0.50892037 0.44227621 -0.19163707 114 125 91
0.44686610 0.49269813 -0.17914839 135 182 8
0.44458088 0.49254560 -0.18068703 115 163 1
0.51330531 0.40173584 -0.21493493 186 222 54
0.51573169 0.38750756 -0.23427469 66 96 84
0.51500154 0.39697248 -0.21684799 94 133 8
0.50193316 0.38873026 -0.23683333 110 153 45
0.48829082 0.37360796 -0.25201133 67 125 2
0.49348930 0.37743521 -0.24743183 103 150 18
0.49627113 0.38157657 -0.24408004 96 136 50
0.48680303 0.37984398 -0.24829079 58 116 0
0.51594722 0.39127824 -0.22177368 170 209 68
0.48989716 0.39246708 -0.21349014 114 153 72
0.50827062 0.39482415 -0.21900862 107 143 45
0.49302214 0.36526164 -0.26250443 67 103 15
0.49432209 0.37103775 -0.25894663 85 127 27
0.48451635 0.38801035 -0.23556259 136 171 115
0.48452970 0.38541943 -0.23786016 122 153 94
0.49837506 0.37283632 -0.26469776 31 62 2
0.48505479 0.37451094 -0.24853389 107 140 95
0.49802336 0.38526386 -0.24005541 68 102 28
0.49241850 0.38909784 -0.23205292 123 167 70
0.49827269 0.38873643 -0.23473462 111 149 72
0.49795556 0.38784429 -0.23556955 114 150 76
0.49912524 0.39106995 -0.23249853 104 145 66
0.48107049 0.38000944 -0.25263146 93 129 33
0.51403874 0.38767451 -0.23098205 71 129 88
0.48473543 0.37866870 -0.25180092 45 109 0
0.48963523 0.37424257 -0.24629155 111 151 89
0.51468706 0.39436826 -0.21520457 101 126 61
0.51460111 0.39288631 -0.21554969 115 142 71
0.51450646 0.39454994 -0.21932946 145 191 23
0.49431637 0.37948218 -0.24414130 98 143 38
0.49406940 0.38041285 -0.24266377 107 147 58
0.50834131 0.39166728 -0.23050268 130 179 36
0.50404942 0.39829469 -0.21228902 127 161 75
0.50248390 0.40053618 -0.21060133 129 163 79
0.51025474 0.38653588 -0.23767658 84 109 26
0.49131793 0.39206514 -0.21607025 121 159 76
0.49490595 0.39316553 -0.21389462 128 167 60
0.49702656 0.39243329 -0.22487178 117 157 61
0.51471174 0.38887411 -0.22830656 89 102 48
0.51123440 0.40126747 -0.21365669 107 160 0
0.51589239 0.39267504 -0.21862139 119 157 35
0.48981741 0.38935924 -0.23187611 130 171 92
0.49429321 0.39221829 -0.22024803 129 165 65
0.50651330 0.39035314 -0.23399962 119 170 52
0.49165425 0.37326407 -0.25356725 52 98 0
0.48755571 0.37491328 -0.25157809 74 136 0
0.49222970 0.36877865 -0.25906521 38 84 0
0.51289260 0.39321539 -0.21851347 120 151 57
0.49398500 0.37410480 -0.25236130 112 155 47
0.49842215 0.38391480 -0.24236162 91 128 51
0.50486803 0.38662478 -0.24051991 101 145 34
0.49271885 0.37418267 -0.24820635 96 136 65
0.49190700 0.37672198 -0.24414288 101 145 68
0.51596886 0.39075252 -0.22635476 143 181 16
0.50069511 0.39786711 -0.21443360 142 176 53
0.48353645 0.38039318 -0.24381422 104 137 92
0.49797571 0.39381781 -0.21970651 120 158 71
0.48967403 0.37116447 -0.25414336 58 115 0
0.48234326 0.38689673 -0.23798990 111 144 91
0.50111192 0.39231277 -0.22930017 121 166 61
0.48715112 0.37721357 -0.24460186 126 161 103
0.49438423 0.37344724 -0.25385100 99 139 42
0.49285489 0.39181250 -0.22574854 119 154 86
0.48747501 0.38277325 -0.23918736 128 167 102
0.48971260 0.38208202 -0.23955318 129 172 82
0.50119931 0.39638796 -0.21777962 113 153 57
0.50760752 0.39553854 -0.21565966 107 149 51
0.50653565 0.39183888 -0.23065592 114 162 63
0.48196039 0.37849224 -0.24748750 73 105 66
0.50367212 0.37791598 -0.28859678 74 101 24
0.49073747 0.36586654 -0.29155847 58 87 7
0.49843287 0.38471600 -0.29474962 80 109 27
0.50623089 0.38740915 -0.27058068 75 100 35
0.50393271 0.38930807 -0.27287123 95 127 54
0.49282369 0.36358964 -0.26642975 61 95 11
0.50499678 0.37911591 -0.27401412 78 110 35
0.49638769 0.36862028 -0.27215731 90 123 16
0.49822342 0.37133139 -0.26752704 54 87 16
0.50634038 0.38162145 -0.26529381 56 87 17
0.49876374 0.37284973 -0.27512339 37 74 0
0.50162011 0.37706071 -0.27016118 39 73 0
0.50881732 0.38570270 -0.24817221 93 134 16
0.50619352 0.38647565 -0.23739775 109 152 11
0.49566180 0.36938164 -0.28917316 83 111 26
0.49426863 0.36753067 -0.29178378 41 68 0
0.50041807 0.37501281 -0.28427845 58 87 5
0.50294513 0.37752742 -0.27461660 87 111 15
0.50132328 0.37613100 -0.27662328 36 70 0
0.50912797 0.38431144 -0.25389051 76 118 8
0.49713263 0.37004241 -0.27567336 53 85 2
0.49775353 0.37085447 -0.27376282 55 85 11
0.49870008 0.37260094 -0.27419251 49 82 13
0.48878506 0.36021331 -0.29177588 75 69 21
0.51318711 0.38544890 -0.24104361 125 121 92
0.50077963 0.36682263 -0.30937684 66 87 46
0.48476329 0.36028334 -0.27762258 60 93 12
0.50052518 0.37860867 -0.30443624 77 103 42
0.50022811 0.37438855 -0.26583660 99 137 18
0.50281376 0.37877515 -0.25855118 76 113 20
0.50533992 0.38091892 -0.25791982 35 73 0
0.49476871 0.36724767 -0.28014961 68 96 9
0.48849240 0.36514467 -0.28914675 44 69 12
0.50618374 0.37901694 -0.25873366 65 80 37
0.51089901 0.38412744 -0.24540116 77 76 58
0.51023239 0.38241327 -0.25193331 76 82 54
0.50142145 0.37756592 -0.25839433 42 73 0
0.49254534 0.36424139 -0.27245164 64 97 6
0.49496007 0.36693701 -0.26946279 97 131 18
0.50581235 0.38290095 -0.24639934 162 181 136
0.50253069 0.37283051 -0.30586612 62 88 23
0.51145381 0.38348722 -0.24988632 75 79 52
0.50191271 0.37563917 -0.28816897 75 102 21
0.50532413 0.38216299 -0.24879760 73 90 38
0.50415128 0.38124087 -0.28393245 109 134 50
0.50367844 0.38333872 -0.28483939 80 103 25
0.48892644 0.36320916 -0.27914819 48 76 2
0.50119728 0.38124415 -0.29700512 112 140 56
0.50761449 0.39377731 -0.26382282 69 100 43
0.50611639 0.38995695 -0.26819119 82 113 45
0.49670908 0.36804819 -0.29749209 75 101 10
0.50005805 0.37196451 -0.29412913 46 75 8
0.49889216 0.37193504 -0.29033771 92 125 8
0.50681645 0.37638748 -0.26116246 85 98 45
0.50270742 0.37390319 -0.30042768 73 97 39
0.48540777 0.36236575 -0.28051555 68 97 13
0.48350477 0.36211786 -0.28173414 37 65 6
0.49901715 0.36570144 -0.30034515 111 115 54
0.50177759 0.38218939 -0.29225847 118 144 37
0.49632359 0.36919621 -0.29221123 73 102 10
0.49808487 0.36993244 -0.29607835 30 65 0
0.50396991 0.38818699 -0.27494749 77 103 32
0.50279975 0.39045838 -0.27606821 116 148 72
0.50258684 0.39018098 -0.27869949 96 122 48
0.50281817 0.38550165 -0.28605744 89 117 32
0.49225718 0.36689618 -0.28597841 67 98 5
0.50800943 0.38621137 -0.24205682 128 172 37
0.50969744 0.38635135 -0.24716358 86 125 0
0.50790054 0.38297188 -0.26354596 32 65 0
0.50142646 0.38887948 -0.28504559 72 104 21
0.49865469 0.36378652 -0.29529548 117 108 79
0.49186680 0.36142939 -0.29389229 112 110 53
0.50197804 0.37993023 -0.29743525 104 131 60
0.50296205 0.36908883 -0.30944315 93 114 49
0.48259157 0.36106703 -0.28286380 72 103 25
0.48742804 0.36207235 -0.29145575 40 65 0
0.50626850 0.38579705 -0.24203552 120 158 45
0.28695193 0.42808416 -0.17070666 115 145 93
0.28928614 0.42710805 -0.17216024 121 151 101
0.27622667 0.40835738 -0.21354459 71 101 39
0.27672121 0.40755728 -0.21608151 89 111 47
0.26257500 0.42556944 -0.17441642 109 170 7
0.25922075 0.42717123 -0.17547518 82 143 4
0.27306125 0.41008532 -0.18885688 83 148 2
0.27383676 0.41018492 -0.18802039 95 161 12
0.28363878 0.43471795 -0.16712119 129 190 7
0.29187450 0.42701820 -0.17637800 86 150 10
0.27136847 0.43413314 -0.16870031 107 163 0
0.27340633 0.42505062 -0.17484817 119 177 7
0.28100452 0.39745420 -0.21708758 53 116 0
0.27871877 0.40055415 -0.21216375 46 104 0
0.28395990 0.42675430 -0.17188798 79 144 0
0.28566256 0.42752156 -0.17228638 105 175 0
0.29440922 0.43142405 -0.17429431 170 212 104
0.28534025 0.39726526 -0.20984134 55 109 0
0.28555208 0.39717171 -0.20984021 55 109 0
0.28675234 0.41681892 -0.17789531 64 137 0
0.28068671 0.40514264 -0.18843837 59 121 0
0.28062072 0.40631443 -0.18618880 59 126 0
0.28512886 0.39415106 -0.22087501 64 108 19
0.28723785 0.39408728 -0.21793614 80 125 32
0.27820840 0.40465906 -0.19285938 37 98 0
0.27987912 0.41115102 -0.18226878 86 160 5
0.28423795 0.40965414 -0.18132012 127 202 14
0.29196274 0.41370657 -0.18141089 192 215 135
0.27481794 0.43644902 -0.16674981 136 198 0
0.27391636 0.43298399 -0.16886352 113 167 0
0.28554207 0.43879515 -0.16365077 60 119 0
0.28525242 0.43732971 -0.16504963 64 126 0
0.29051846 0.43762913 -0.16686724 125 184 6
0.28097624 0.43197098 -0.16820559 93 154 0
0.29162878 0.44099200 -0.16347694 144 193 14
0.29222852 0.44405651 -0.15913875 121 169 21
0.29264840 0.44342956 -0.16045600 81 128 0
0.27186963 0.40845111 -0.21115872 46 67 11
0.28233263 0.44686413 -0.15652877 124 151 110
0.28115243 0.44371018 -0.15964340 124 149 119
0.28688967 0.44051689 -0.16116479 140 172 96
0.26669553 0.40692669 -0.19170749 142 152 81
0.28619859 0.42071512 -0.17559549 112 179 21
0.27193591 0.41125217 -0.20232484 20 59 0
0.29313263 0.44559148 -0.15654507 94 141 0
0.26779246 0.44140199 -0.17220996 83 139 6
0.29587841 0.43427902 -0.16802052 119 149 85
0.29687345 0.43242854 -0.17084052 128 156 98
0.26631141 0.43840933 -0.16978362 62 94 18
0.29305568 0.44894087 -0.15146913 119 159 24
0.27727062 0.44471192 -0.16493934 171 227 16
0.28171414 0.43956438 -0.16305232 87 146 6
0.29297620 0.44120654 -0.15945858 111 143 70
0.29198346 0.44265652 -0.15791461 127 162 82
0.27407506 0.40593430 -0.19912404 88 149 12
0.27158621 0.40983611 -0.19196093 95 156 3
0.28109816 0.44299564 -0.16018648 128 153 121
0.28469554 0.43734041 -0.16377907 116 145 89
0.26389894 0.42853904 -0.17153932 93 155 8
0.27943408 0.41962057 -0.17590192 88 154 4
0.28063431 0.40164486 -0.19856268 67 126 8
0.26904643 0.41138181 -0.19727015 33 68 2
0.26968962 0.40922987 -0.20238179 48 72 10
0.26302481 0.43178299 -0.17093924 115 144 86
0.26645064 0.41125628 -0.19183111 134 152 92
0.26671940 0.41642481 -0.18841434 40 88 4
0.28203988 0.43249559 -0.16734287 121 152 92
0.28671706 0.43191972 -0.16766214 124 155 88
0.29027435 0.43800905 -0.16297887 127 158 88
0.28869048 0.43778819 -0.16334313 113 142 84
0.28832346 0.44909659 -0.15256952 122 150 99
0.28736067 0.44902077 -0.15311176 132 161 103
0.27527416 0.44666648 -0.16757841 95 149 0
0.27546844 0.44597083 -0.16678731 129 187 7
0.27642053 0.43545362 -0.16688365 89 151 0
0.27448794 0.44056532 -0.16575351 108 168 0
0.27871448 0.44109797 -0.16299601 102 164 3
0.28797209 0.41334671 -0.17951736 87 162 0
0.28488517 0.41891265 -0.17644726 116 186 0
0.29080567 0.43254048 -0.17201255 109 170 7
0.29682183 0.43639359 -0.16724716 101 128 85
0.26931953 0.44762248 -0.16971934 19 47 0
0.28596842 0.41443640 -0.17922138 80 149 0
0.26143155 0.41714120 -0.18148960 117 135 75
0.28993383 0.39603090 -0.20612669 101 132 56
0.29284406 0.43235517 -0.17359696 56 115 0
