0.49295795 -0.39787784 -0.07126212 197 217 68
0.48680940 -0.38712084 -0.07033194 138 165 94
0.49069068 -0.38562754 -0.06900169 134 165 62
0.46533209 -0.41675207 -0.07831521 200 219 15
0.46956384 -0.41397151 -0.07214358 175 204 36
0.47280422 -0.40951574 -0.07215139 145 172 7
0.55415750 -0.34825891 -0.07416155 128 151 11
0.46579275 -0.41270128 -0.07982434 129 161 18
0.48882529 -0.37473583 -0.06061314 180 214 32
0.48780778 -0.39765251 -0.06992593 194 217 77
0.48842415 -0.39445937 -0.06949072 148 173 45
0.56060439 -0.32284224 -0.09639238 167 201 18
0.58489257 -0.30941907 -0.11674733 93 120 5
0.51257652 -0.38534388 -0.07123577 151 190 23
0.59291482 -0.31105468 -0.12383938 91 112 0
0.55391973 -0.32430258 -0.09578373 165 196 6
0.54967189 -0.35659590 -0.06978016 150 163 11
0.55494714 -0.32242092 -0.09619530 161 193 4
0.50224215 -0.35458013 -0.06656593 160 206 0
0.58627522 -0.30530208 -0.12583745 63 88 0
0.53931618 -0.33485562 -0.08190757 117 158 0
0.56405306 -0.31610087 -0.10001669 164 195 6
0.50820231 -0.38444903 -0.06897502 160 210 17
0.51370937 -0.37972793 -0.07114743 119 155 0
0.52780402 -0.35581270 -0.07150181 118 156 0
0.52453923 -0.35434994 -0.07106318 78 114 8
0.48441157 -0.39118847 -0.07121226 100 140 0
0.47684547 -0.39456040 -0.07454646 95 134 15
0.57539856 -0.31344840 -0.11026462 66 94 0
0.58586025 -0.30806065 -0.12091984 60 84 0
0.50305796 -0.36278915 -0.06614164 165 206 4
0.50338542 -0.39463004 -0.06932167 123 158 6
0.58138061 -0.30349091 -0.12299220 104 137 20
0.58538699 -0.31772426 -0.10775075 192 214 5
0.55271590 -0.34548128 -0.07883090 214 226 32
0.50171119 -0.38419098 -0.06713796 195 220 15
0.52791172 -0.36534697 -0.07091403 182 207 53
0.54861581 -0.33618200 -0.08530488 125 158 41
0.54809028 -0.34012192 -0.08120294 143 183 9
0.57072949 -0.31821263 -0.10471697 110 138 27
0.52752751 -0.34027582 -0.07396911 191 222 0
0.59726381 -0.30612287 -0.13292207 77 98 0
0.59684187 -0.30682540 -0.13203491 78 100 0
0.54818803 -0.35841337 -0.07512946 163 178 25
0.49317846 -0.38376686 -0.06929142 105 150 0
0.49165711 -0.38526070 -0.06982817 100 138 1
0.53104693 -0.36071956 -0.07058766 164 192 0
0.53599203 -0.35737407 -0.07115906 211 226 3
0.48875433 -0.38953570 -0.07010257 151 194 16
0.48848826 -0.38910675 -0.07037582 120 163 0
0.59058976 -0.30854493 -0.11994593 112 134 0
0.59201622 -0.30724961 -0.12276372 108 130 4
0.57915556 -0.30274096 -0.11985017 66 99 0
0.53114927 -0.34925285 -0.07316116 68 110 0
0.56013089 -0.31298640 -0.10057493 148 184 0
0.57175905 -0.32292163 -0.10128802 176 206 0
0.59417146 -0.30670974 -0.12690248 120 141 12
0.57384014 -0.30283290 -0.11286594 106 139 32
0.55923378 -0.31476852 -0.09952783 174 210 14
0.53994000 -0.35076225 -0.07342099 154 180 0
0.54054445 -0.34856120 -0.07489935 192 220 11
0.50962120 -0.35490170 -0.06590036 158 201 0
0.59334213 -0.30787820 -0.13329546 119 143 3
0.59747881 -0.30553833 -0.13491331 83 103 0
0.54698914 -0.35851631 -0.06967404 209 229 80
0.56457490 -0.30812731 -0.10153183 149 178 59
0.57761943 -0.30116162 -0.12903976 57 86 0
0.58213788 -0.31099463 -0.11317996 72 95 0
0.51919430 -0.35775441 -0.06903400 118 153 1
0.53784645 -0.36386749 -0.07088264 193 219 50
0.59818238 -0.30313772 -0.13933797 87 107 0
0.59936184 -0.30176362 -0.14186773 83 101 1
0.49830887 -0.37801450 -0.06796815 94 125 5
0.50116241 -0.37608144 -0.06778944 98 131 0
0.59015292 -0.30640879 -0.12650806 96 120 0
0.59024131 -0.30540875 -0.13008682 54 77 0
0.52822638 -0.36693615 -0.07159782 147 172 19
0.55363733 -0.34849569 -0.07886890 147 176 0
0.58703035 -0.30268547 -0.13201736 99 129 17
0.57623363 -0.32070929 -0.10380495 193 218 12
0.49711183 -0.36890799 -0.06449794 189 219 9
0.52837867 -0.36660513 -0.07175402 180 207 6
0.55267876 -0.35160223 -0.07575147 105 134 0
0.53542417 -0.36662051 -0.07287096 128 163 1
0.52064413 -0.36690816 -0.07021668 167 194 1
0.52332878 -0.36320484 -0.07008120 167 203 9
0.53229356 -0.36626920 -0.07143878 199 221 12
0.57167685 -0.30512035 -0.10762681 120 152 27
0.57348400 -0.30964226 -0.10686544 93 125 0
0.50875819 -0.38604590 -0.06922904 136 175 4
0.52209812 -0.35370967 -0.06968823 168 204 6
0.52693361 -0.36401588 -0.07046847 150 173 20
0.52881438 -0.36158052 -0.07039170 160 182 48
0.56684130 -0.31728646 -0.10170721 142 177 25
0.57000101 -0.31507263 -0.10411455 113 144 14
0.56450856 -0.30960599 -0.10139557 184 217 12
0.54265779 -0.35261139 -0.07465042 212 236 28
0.57560343 -0.30133092 -0.12207542 60 90 2
0.56258053 -0.32691446 -0.09568840 84 116 0
0.56978840 -0.32649159 -0.09890206 163 190 1
0.59336412 -0.30918691 -0.12646042 125 148 8
0.58203548 -0.30210659 -0.12832585 73 105 0
0.57200855 -0.30842957 -0.10619853 97 130 0
0.50379729 -0.39171278 -0.06701699 152 194 6
0.50874430 -0.38266641 -0.06868118 90 126 0
0.49777645 -0.37196806 -0.06496260 193 218 13
0.49716961 -0.37362799 -0.06545299 163 197 15
0.51726431 -0.38068283 -0.07322099 94 135 7
0.57890218 -0.30727911 -0.11455914 96 126 4
0.57910639 -0.30595121 -0.11467574 90 122 0
0.52467394 -0.36646825 -0.07046396 144 170 9
0.51986039 -0.36506203 -0.06884310 146 175 56
0.57848114 -0.31496820 -0.10786936 148 173 19
0.49714154 -0.38253000 -0.06769031 171 206 2
0.49928144 -0.38335004 -0.06740162 140 170 0
0.54407692 -0.35123315 -0.07578189 149 177 0
0.59506196 -0.29863960 -0.13667336 107 124 54
0.59348190 -0.30290860 -0.12900627 126 150 38
0.59664160 -0.30012304 -0.13653205 123 145 44
0.50927526 -0.35926431 -0.06674051 184 214 6
0.55850470 -0.32719275 -0.09420820 74 106 0
0.56000739 -0.32631040 -0.09540240 76 108 0
0.49429283 -0.37749514 -0.06650975 67 108 4
0.51988322 -0.37261978 -0.07225116 192 221 19
0.52126998 -0.36123878 -0.06990790 108 145 5
0.58637244 -0.31170025 -0.11373078 168 194 25
0.50665873 -0.36665240 -0.06696533 173 208 4
0.59098285 -0.30994114 -0.12042297 107 132 0
0.55965215 -0.33189166 -0.09034485 161 200 9
0.50475311 -0.39204466 -0.06743967 156 198 26
0.53299451 -0.35407212 -0.07222325 158 195 0
0.49909741 -0.36210409 -0.06632944 166 214 8
0.50237751 -0.35889819 -0.06719667 167 216 10
0.53299308 -0.33731407 -0.07755235 198 229 12
0.53514814 -0.33800063 -0.07707174 206 229 15
0.52347744 -0.37350842 -0.07324727 178 205 6
0.54589802 -0.34002882 -0.08149397 96 131 3
0.57612151 -0.30138868 -0.11918635 38 70 0
0.54609519 -0.33536261 -0.08371737 113 151 14
0.59219545 -0.30510712 -0.12519519 132 158 33
0.59209478 -0.30517301 -0.12504543 132 158 33
0.58790374 -0.30195373 -0.12637088 112 128 57
0.52333426 -0.37557441 -0.07378780 107 141 0
0.51939970 -0.37552872 -0.07302992 92 136 0
0.50069469 -0.37781826 -0.06778281 130 165 13
0.50609565 -0.38046917 -0.06694137 130 165 0
0.57577032 -0.31680286 -0.10601249 96 125 0
0.55584252 -0.33046234 -0.09034368 114 148 36
0.55934197 -0.32829666 -0.09315529 78 104 3
0.57990730 -0.31989247 -0.10582718 180 197 0
0.58160841 -0.31859866 -0.10703908 179 195 0
0.51640189 -0.35415283 -0.06606239 183 215 8
0.51591921 -0.35660365 -0.06654916 186 207 0
0.53453314 -0.33619928 -0.07902855 172 213 15
0.58356804 -0.30710968 -0.12216692 61 88 0
0.55253935 -0.33712476 -0.08393211 150 185 7
0.56519336 -0.32189810 -0.09898800 69 102 0
0.52388299 -0.35415402 -0.07087907 76 111 0
0.52878505 -0.35073480 -0.07234930 75 113 0
0.59320569 -0.30682465 -0.13557088 124 150 14
0.51238185 -0.37372708 -0.06897920 105 144 0
0.51315981 -0.37685189 -0.07039373 119 149 0
0.54397368 -0.33776113 -0.08100599 75 113 0
0.58392251 -0.31283024 -0.11105623 181 207 20
0.48899612 -0.38422769 -0.06993486 136 171 25
0.48997021 -0.38157359 -0.06863638 65 107 0
0.50734067 -0.35800794 -0.06680986 152 188 0
0.50716603 -0.35774809 -0.06677578 162 204 0
0.51424724 -0.37198654 -0.06927241 117 153 3
0.52660894 -0.34906960 -0.07116107 147 184 9
0.52382952 -0.34810427 -0.06856366 166 198 27
0.51495117 -0.37732729 -0.07156023 161 195 21
0.59124655 -0.30582815 -0.13447995 65 88 0
0.56269139 -0.30563214 -0.10213050 158 192 36
0.58083791 -0.30535722 -0.12025616 88 123 0
0.56855679 -0.30502453 -0.10553802 52 89 0
0.54049021 -0.35954118 -0.07054583 144 172 51
0.53833818 -0.35914949 -0.07047693 223 233 59
0.58915699 -0.30531546 -0.12548746 57 80 0
0.53576434 -0.34894374 -0.07474338 109 150 0
0.55131334 -0.33301187 -0.08727342 76 106 0
0.53326607 -0.35927704 -0.07046384 212 224 62
0.50145042 -0.38943318 -0.06760451 178 211 10
0.59040272 -0.31026018 -0.11938652 112 136 0
0.54749632 -0.33959544 -0.08188465 105 144 0
0.58238643 -0.30248564 -0.12643848 105 135 21
0.57916224 -0.32370421 -0.10440309 195 215 6
0.58801353 -0.30205864 -0.13731702 67 90 8
0.53804928 -0.34220150 -0.07745717 108 149 8
0.54829615 -0.34389943 -0.07905944 201 226 13
0.54845381 -0.34697410 -0.07841618 196 217 18
0.54562974 -0.35287648 -0.07710247 94 130 0
0.51695430 -0.36448190 -0.06924637 114 154 5
0.57686174 -0.30668479 -0.11128181 97 132 6
0.57562178 -0.31172979 -0.11011892 62 94 0
0.52734333 -0.34244144 -0.07299370 159 195 1
0.53503650 -0.36435243 -0.07102510 209 224 7
0.57051408 -0.30392066 -0.10659184 105 134 18
0.58289194 -0.30759028 -0.11580776 117 134 63
0.58873791 -0.30573696 -0.12211695 118 144 37
0.58632553 -0.30785218 -0.11768283 117 142 25
0.57494658 -0.31534547 -0.10931861 77 106 0
0.53792095 -0.33263695 -0.08491210 90 127 0
0.51502699 -0.36833948 -0.06872959 133 181 7
0.56083840 -0.31918487 -0.09781221 175 207 2
0.57120323 -0.31087404 -0.10431171 124 154 4
0.56751186 -0.31204545 -0.10151196 164 200 14
0.56844038 -0.30376804 -0.10715453 69 104 0
0.53788990 -0.35619643 -0.07146779 205 224 10
0.54094529 -0.35976303 -0.07447594 198 229 12
0.53571081 -0.34292218 -0.07603934 141 183 11
0.57205093 -0.30210051 -0.11325122 70 100 12
0.57365423 -0.03040201 -0.17956939 93 125 28
0.57606483 -0.02773244 -0.20305896 92 135 19
0.57974309 -0.00692834 -0.22942548 95 123 72
0.58086818 -0.00768084 -0.22745696 97 125 77
0.57172537 -0.02975061 -0.15747456 105 137 28
0.58786410 -0.01341491 -0.20440304 87 117 47
0.58363253 -0.02554107 -0.17600006 88 114 49
0.58051884 -0.02737939 -0.17297974 90 118 60
0.57369208 -0.03253663 -0.19311640 86 121 31
0.57461107 -0.02982126 -0.19707826 68 109 7
0.57571822 -0.00739154 -0.23128340 134 159 104
0.57499111 -0.00837140 -0.23718621 144 169 101
0.58801663 -0.02478182 -0.17617756 114 149 59
0.58036798 -0.02466466 -0.18778543 69 112 4
0.57865316 -0.02666792 -0.18456331 107 150 9
0.58100164 -0.02066682 -0.21940011 25 71 0
0.58089179 -0.04522030 -0.14040253 155 167 55
0.58439732 -0.01814257 -0.20810154 50 89 8
0.56968266 -0.03294584 -0.17277952 96 126 30
0.57485712 -0.02839218 -0.18988602 135 168 27
0.57630903 -0.02534495 -0.19517331 63 105 0
0.58264816 0.00086667 -0.24238175 83 90 118
0.56967402 -0.03536531 -0.14090084 140 177 63
0.57030714 -0.03455887 -0.14237481 113 147 53
0.57034433 -0.03124835 -0.14814523 89 116 35
0.58133870 -0.01416516 -0.20944090 91 114 70
0.57802463 -0.03025102 -0.15936178 99 126 55
0.57483947 -0.03006899 -0.15580748 94 126 51
0.57907993 -0.03039214 -0.15957478 97 125 67
0.58351111 -0.01964359 -0.21631214 55 93 0
0.58253253 -0.00923969 -0.21791255 101 109 86
0.58379495 -0.01565950 -0.19857556 85 115 53
0.59210467 -0.00776279 -0.21423881 104 88 99
0.59273887 -0.00693800 -0.21688715 57 44 54
0.57576674 -0.01067934 -0.21914355 119 144 89
0.57746345 -0.01510817 -0.21745804 87 118 50
0.59390575 -0.01160460 -0.20073119 65 96 29
0.56737977 -0.03347390 -0.16544935 93 128 26
0.58059961 -0.01997144 -0.20431277 69 108 0
0.58875537 -0.00686236 -0.21554857 61 58 69
0.57218480 -0.03318322 -0.17713974 141 175 29
0.57312047 -0.03075605 -0.18491209 102 139 7
0.59256274 -0.04788349 -0.13529728 155 156 114
0.59353602 -0.04335253 -0.13963352 101 122 63
0.58713162 -0.02634127 -0.17425999 94 127 46
0.58736503 -0.01379166 -0.20066005 83 114 46
0.57042634 -0.03427115 -0.18832733 85 119 24
0.57000458 -0.03341653 -0.17445007 120 153 40
0.58052927 -0.01937967 -0.22498861 129 164 74
0.57682508 -0.02571160 -0.18815009 89 120 50
0.57999438 -0.02646572 -0.17443159 89 117 59
0.60001034 -0.00308557 -0.22686402 144 133 101
0.57841891 -0.01893131 -0.22091590 15 53 0
0.59862190 -0.01367646 -0.20419861 114 111 78
0.58834177 -0.01331693 -0.20041345 60 89 35
0.58530635 -0.03197649 -0.15107067 119 154 50
0.58011448 -0.03258351 -0.14760734 103 139 52
0.57869714 -0.00326690 -0.23638266 89 122 69
0.57924455 -0.00921973 -0.22072294 119 147 72
0.56522137 -0.03696683 -0.15716732 101 136 34
0.58305997 -0.02080025 -0.18525772 98 130 45
0.58771533 -0.04204644 -0.13873674 138 151 72
0.57008928 -0.03110340 -0.16495821 113 142 36
0.57039058 -0.03084232 -0.16477667 110 142 35
0.58042544 -0.02408215 -0.18935691 65 110 5
0.57792830 -0.02253983 -0.19834837 120 162 14
0.59959102 -0.00770718 -0.22167309 105 109 72
0.56744784 -0.03700099 -0.16169082 73 117 20
0.56948185 -0.03735924 -0.16645935 88 130 4
0.59591818 -0.00895544 -0.21431011 171 161 126
0.58446300 -0.02266380 -0.18075117 110 141 48
0.58282876 -0.03082460 -0.16010071 96 132 45
0.58332217 -0.03095672 -0.15894423 108 147 40
0.58133352 -0.03129708 -0.15086806 112 151 42
0.58018857 -0.03090333 -0.15482304 109 141 65
0.59872079 -0.01055201 -0.21599624 98 104 78
0.57134414 -0.03011416 -0.17234865 94 127 22
0.58003718 -0.01862857 -0.22787064 16 54 0
0.57110041 -0.03277155 -0.18581998 84 121 7
0.58188325 -0.00333226 -0.23540561 23 19 34
0.58964235 -0.01420651 -0.18606186 123 153 65
0.59619206 -0.01304329 -0.20158917 119 123 100
0.59121126 -0.00910357 -0.20960662 58 56 57
0.59189278 -0.00170555 -0.22845523 156 138 136
0.59561849 -0.00040388 -0.23352517 155 140 135
0.59075004 -0.01281229 -0.18717845 103 131 28
0.57026851 -0.03844391 -0.13853231 122 158 62
0.57113731 -0.02997657 -0.16587240 96 133 28
0.58517540 -0.03116086 -0.16146500 117 157 45
0.58687955 -0.03182424 -0.16059785 101 138 43
0.57476354 -0.02909844 -0.18770730 88 121 40
0.59111720 -0.03913141 -0.14320146 114 142 58
0.58901238 -0.03682740 -0.14525594 106 133 66
0.58759272 -0.02389187 -0.17695864 92 120 46
0.59041703 -0.01242012 -0.19389322 61 88 37
0.59141237 -0.00393051 -0.22337551 135 117 117
0.57773674 -0.02559256 -0.20507976 51 89 6
0.59750420 -0.00455155 -0.22411804 49 45 34
0.56519455 -0.03316684 -0.15417835 112 140 55
0.57624245 -0.02945653 -0.16461097 96 130 53
0.56627786 -0.03927450 -0.15145792 68 115 11
0.56542373 -0.03900585 -0.15335344 60 112 2
0.59965688 -0.00932601 -0.21919730 95 102 68
0.56835884 -0.03725099 -0.14051847 98 128 42
0.57556146 -0.02591720 -0.18166748 86 114 53
0.59168428 -0.01247474 -0.20113631 64 89 47
0.57408559 -0.02907059 -0.17107368 123 155 30
0.57258201 -0.02921203 -0.16669263 103 132 39
0.57544047 -0.02743088 -0.20049769 56 94 0
0.57708687 -0.02368948 -0.20237102 85 132 0
0.57863253 -0.02082962 -0.20599020 90 134 0
0.57534659 -0.00644098 -0.24197841 67 110 5
0.57345939 -0.03202005 -0.17792480 67 108 4
0.57398307 -0.03105682 -0.18030371 101 136 6
0.59031492 -0.00467427 -0.22145431 33 23 31
0.59264076 -0.00591492 -0.21931732 119 108 104
0.59233743 -0.01630509 -0.18735257 168 196 83
0.58281326 -0.01596216 -0.19879860 79 109 49
0.57682091 -0.01653662 -0.20464261 135 167 70
0.57852280 -0.01640298 -0.20490846 123 157 62
0.58648509 -0.04309009 -0.13803406 138 128 57
0.59466946 -0.05216596 -0.13366982 143 152 99
0.58871758 -0.01336970 -0.19051576 85 117 44
0.58758259 -0.03144829 -0.16575915 109 144 54
0.58740300 -0.02916276 -0.17097771 110 147 41
0.57162899 -0.03211225 -0.18750305 70 103 0
0.58892775 -0.03249419 -0.15647303 119 148 58
0.59139365 -0.03330282 -0.15712319 135 145 111
0.58584929 -0.01619131 -0.19007379 109 139 41
0.57546872 -0.01453558 -0.20934168 120 147 92
0.57837945 -0.01488696 -0.20842245 127 157 61
0.58045965 -0.01681416 -0.23324555 8 55 0
0.56634474 -0.03515524 -0.14499775 149 166 124
0.59155327 -0.01904481 -0.18256451 104 132 29
0.58760786 0.00004764 -0.24132445 86 97 80
0.58808565 -0.00008557 -0.23872325 76 78 73
0.59564364 -0.01491443 -0.19688681 119 151 44
0.57874256 -0.02339858 -0.17882593 85 112 59
0.58324969 -0.01758489 -0.19233254 99 132 45
0.58030337 -0.02026062 -0.18910700 96 123 68
0.58718503 -0.00505872 -0.22202714 77 69 80
0.58879292 -0.03987228 -0.14105383 126 150 72
0.58160275 -0.04812774 -0.14016853 134 152 70
0.58227462 -0.04576537 -0.13966940 131 143 35
0.57843179 -0.01808405 -0.21396203 45 88 19
0.57574034 -0.00859882 -0.24120611 60 113 9
0.57842308 -0.01091773 -0.24515232 77 125 13
0.57529169 -0.00956334 -0.22915041 181 196 155
0.57693607 -0.01378137 -0.22573756 70 105 39
0.57571572 -0.01068070 -0.23083058 108 132 80
0.57545149 -0.01498225 -0.20906366 120 149 95
0.58247674 0.00077834 -0.24052054 119 121 146
0.57588917 -0.01978412 -0.20411785 155 168 125
0.57793581 -0.02717466 -0.20753498 60 97 28
0.58010322 -0.01843880 -0.19616406 94 122 73
0.57775134 -0.02501552 -0.20576149 65 103 16
0.58767474 -0.00096438 -0.23344879 73 72 78
0.59807330 -0.01280225 -0.20371190 162 162 134
0.57754010 -0.02107177 -0.20684539 70 113 23
0.58558792 -0.02718525 -0.17259385 119 151 52
0.57813805 -0.02210489 -0.20934942 44 87 0
0.57817388 -0.02100727 -0.20873626 46 91 0
0.57776213 -0.02237504 -0.19449103 119 151 54
0.58714288 -0.00376744 -0.22644171 60 49 63
0.57504702 -0.02924897 -0.19461666 80 115 31
0.58468592 -0.01354762 -0.20740978 98 121 79
0.58702362 -0.05036375 -0.13715577 140 142 79
0.58405548 -0.05098045 -0.13889360 130 142 66
0.57278174 -0.03236875 -0.18272248 101 133 26
0.57032120 -0.03219935 -0.17345095 110 141 21
0.58409894 -0.00556428 -0.22579849 80 73 81
0.58045661 -0.02154465 -0.19752918 63 108 0
0.58536726 -0.02362822 -0.17821112 114 143 51
0.57551742 -0.02788201 -0.18710630 123 159 35
0.57569975 -0.02419833 -0.19936264 129 156 89
0.58987331 -0.00932725 -0.20882942 104 99 106
0.56855595 -0.03005283 -0.15498315 109 139 39
0.59231162 -0.03375902 -0.16756661 123 146 94
0.58127636 -0.02025876 -0.20179702 66 110 0
0.58557558 -0.01912593 -0.22137025 63 110 6
0.58419150 -0.01945949 -0.22320972 38 82 3
0.57795453 -0.00415558 -0.23242284 99 129 77
0.59246606 -0.03475802 -0.16419013 119 135 96
0.58554512 -0.00914655 -0.21233408 68 50 62
0.57809806 -0.00675651 -0.22585136 103 130 77
0.58750093 -0.01079232 -0.20901044 80 79 84
0.59432226 -0.00395200 -0.22471294 29 17 21
0.57834399 -0.01736440 -0.22714476 37 79 0
0.58385092 0.00053453 -0.24432722 166 168 191
0.58982956 -0.00074221 -0.23331173 89 76 83
0.58660412 -0.00040630 -0.23612429 77 84 100
0.58979225 -0.02113860 -0.18017799 104 126 61
0.59227359 -0.03574391 -0.14987025 100 126 65
0.59158450 -0.03729600 -0.14668418 87 112 46
0.57576692 -0.00536814 -0.23685718 137 159 94
0.57550478 -0.00535077 -0.23900189 154 168 109
0.57574958 -0.02033243 -0.20201728 150 172 108
0.59927040 -0.00410955 -0.22550507 88 85 68
0.58097118 -0.03804935 -0.14265341 82 124 74
0.57850981 -0.03568094 -0.14520213 92 121 73
0.57951325 -0.02006445 -0.21248078 46 84 0
0.57018250 -0.03667848 -0.13920225 126 164 53
0.57355076 -0.03660545 -0.14127785 142 181 62
0.57195085 -0.03657971 -0.14035660 94 127 46
0.57531101 -0.03507662 -0.14395772 97 136 69
0.57637650 -0.00533143 -0.24857321 48 99 0
0.58709282 -0.01638434 -0.18721870 117 150 35
0.57603848 -0.01210151 -0.23296678 63 98 18
0.57570183 -0.01125707 -0.23479150 69 103 17
0.57016611 -0.02961423 -0.15968452 110 140 42
0.57822663 -0.01264285 -0.24139047 51 94 2
0.46257237 -0.39987049 -0.08288851 104 135 0
0.46153408 -0.39747670 -0.08418708 164 192 12
0.41448581 -0.43192342 -0.13711973 138 169 42
0.48675469 -0.36907524 -0.05973149 134 172 0
0.40611297 -0.43818381 -0.15367788 53 86 0
0.49188781 -0.37307337 -0.06235260 173 200 27
0.44733271 -0.42846048 -0.10767907 87 124 11
0.44327641 -0.42774814 -0.11844155 84 112 28
0.43903273 -0.42875007 -0.12249102 108 140 57
0.43848959 -0.42339945 -0.13334571 136 146 86
0.43838787 -0.42658639 -0.12615076 133 164 61
0.43077263 -0.42777181 -0.13324030 79 111 26
0.40451914 -0.44567421 -0.15952730 54 87 0
0.42696685 -0.42893910 -0.13490932 78 105 24
0.43273968 -0.43240947 -0.12526818 95 128 15
0.46669400 -0.40418923 -0.08239805 108 136 23
0.46313792 -0.40486920 -0.08399104 111 133 22
0.43078282 -0.41621491 -0.10302951 130 165 21
0.42962459 -0.42004901 -0.10546202 129 166 34
0.40672785 -0.44240767 -0.14070432 74 116 8
0.40695819 -0.44321582 -0.14108117 84 124 12
0.43142098 -0.42701292 -0.13329779 110 143 52
0.45417050 -0.40893260 -0.09062506 77 126 11
0.45357209 -0.40563387 -0.08985811 167 196 30
0.47127676 -0.39693701 -0.07671458 97 128 0
0.42650104 -0.42978880 -0.12723872 84 119 15
0.42337298 -0.42804325 -0.14039218 81 109 50
0.40662301 -0.43879074 -0.13910864 100 136 30
0.45801193 -0.41868633 -0.09404171 84 108 24
0.46036151 -0.41906002 -0.09349295 125 153 32
0.43590280 -0.42523408 -0.13145210 92 120 59
0.44192407 -0.41675159 -0.09870409 74 110 12
0.48407659 -0.37734786 -0.06343089 95 127 0
0.43739074 -0.42453578 -0.13590848 146 156 83
0.43013287 -0.42969400 -0.14090364 39 82 0
0.49505115 -0.37083048 -0.06376103 188 211 19
0.40193003 -0.44168684 -0.16411850 98 131 50
0.40960652 -0.43266755 -0.14723143 105 133 23
0.42537719 -0.42943516 -0.14417715 38 85 0
0.43427578 -0.43048653 -0.11626916 100 135 5
0.43392649 -0.42705226 -0.13869634 42 82 0
0.40601930 -0.43859655 -0.14596891 91 128 25
0.42604539 -0.42370200 -0.14261995 136 148 82
0.40532693 -0.44182342 -0.15266414 68 105 12
0.40675691 -0.43576455 -0.15300697 97 130 41
0.41834232 -0.43175659 -0.14047815 92 121 39
0.41508558 -0.43159419 -0.13783976 89 111 13
0.41743472 -0.42818689 -0.14320160 110 138 54
0.42071170 -0.43270960 -0.13573045 91 127 31
0.41848424 -0.43237761 -0.13665870 69 98 16
0.40920988 -0.43337825 -0.13995792 91 123 22
0.46837404 -0.40202469 -0.07937908 83 117 7
0.45012110 -0.39920902 -0.09372280 101 146 0
0.42775175 -0.42955351 -0.12575658 101 139 17
0.45522389 -0.39686835 -0.09203468 126 161 17
0.43346116 -0.42885381 -0.13021889 95 124 57
0.46907294 -0.40097946 -0.07846843 91 124 11
0.43942735 -0.40653035 -0.09857710 98 146 11
0.48955044 -0.37573659 -0.06345669 101 132 0
0.45137358 -0.40286410 -0.09221203 180 203 24
0.44389358 -0.40658855 -0.09539864 184 212 29
0.48681095 -0.38008285 -0.06624112 142 178 26
0.41762716 -0.42729798 -0.14522991 147 170 90
0.43030706 -0.42681131 -0.11157795 113 146 3
0.43061787 -0.42809099 -0.11370914 166 194 14
0.43056822 -0.42431971 -0.10816991 111 147 15
0.43442735 -0.42689401 -0.11026514 48 73 16
0.42761555 -0.42776123 -0.14269756 56 92 0
0.43986186 -0.42873430 -0.11086888 84 114 0
0.43591079 -0.42510778 -0.10774065 56 84 7
0.40451217 -0.44371369 -0.16060790 76 111 19
0.40161866 -0.44272634 -0.16285728 78 113 21
0.44214836 -0.42189255 -0.10260809 129 167 20
0.45774958 -0.39842552 -0.08768870 151 183 14
0.45546776 -0.39952293 -0.09001444 184 205 14
0.40199104 -0.45386830 -0.15640761 60 97 0
0.42589787 -0.42005512 -0.10834282 129 164 36
0.49025002 -0.37872094 -0.06620857 155 190 34
0.43305075 -0.42350960 -0.10663347 132 168 8
0.40094727 -0.45179597 -0.15310211 71 109 6
0.40368521 -0.44595322 -0.15498632 78 112 28
0.42739049 -0.42551258 -0.13913278 104 130 69
0.42719483 -0.43018967 -0.13304405 75 109 15
0.42036301 -0.43149537 -0.14669520 26 69 0
0.41588420 -0.42991886 -0.13052115 72 109 6
0.44957760 -0.42834178 -0.10457589 80 113 0
0.42762801 -0.42534328 -0.11113937 144 182 19
0.49667567 -0.36338848 -0.06545407 160 208 10
0.43026841 -0.42733127 -0.14104182 65 103 0
0.48173678 -0.38394499 -0.06845860 161 196 40
0.43937045 -0.42962754 -0.11987079 74 106 33
0.43630511 -0.41245416 -0.09930223 137 173 1
0.46012866 -0.40812266 -0.08733234 90 120 22
0.43821397 -0.41633245 -0.09954993 155 198 20
0.46236831 -0.40920752 -0.08808301 112 140 19
0.40452352 -0.44161242 -0.15793781 54 91 0
0.46145451 -0.41070592 -0.08892955 93 118 0
0.45970404 -0.41445878 -0.09109481 160 180 33
0.44791469 -0.41205564 -0.09524545 153 190 15
0.42239037 -0.43184373 -0.13088909 78 108 18
0.46439025 -0.40703925 -0.08546586 119 152 21
0.45878670 -0.40601894 -0.08649103 154 184 38
0.44399300 -0.41612548 -0.09772735 118 151 20
0.44854188 -0.41541716 -0.09606694 120 156 0
0.44765481 -0.41844606 -0.09705323 188 230 32
0.44660497 -0.41754472 -0.09737018 172 214 18
0.44771332 -0.42361060 -0.09965383 73 107 0
0.45623612 -0.42357072 -0.09610616 134 164 32
0.45106977 -0.41215217 -0.09395167 110 153 3
0.48055199 -0.38904059 -0.07272209 125 158 41
0.42422116 -0.42937031 -0.13823155 108 135 56
0.44381937 -0.42806801 -0.11158089 55 90 6
0.46034825 -0.39920649 -0.08535250 184 205 24
0.42226765 -0.42961201 -0.12377970 101 143 9
0.44085711 -0.42646900 -0.10791398 94 125 8
0.43432096 -0.40787452 -0.09986284 107 151 6
0.44696206 -0.42530042 -0.10188080 68 100 3
0.41953930 -0.43045580 -0.13035850 58 103 8
0.43822637 -0.42986402 -0.11890670 91 124 7
0.48638779 -0.37243092 -0.05971618 153 193 17
0.44096363 -0.42394444 -0.10486992 141 182 15
0.40574476 -0.44001910 -0.14966449 77 118 22
0.45242837 -0.42237189 -0.09605566 164 201 35
0.45335960 -0.42581391 -0.09880763 105 140 0
0.43369213 -0.41939652 -0.10226871 157 188 35
0.47923118 -0.38727158 -0.07138310 70 101 0
0.44617522 -0.42653686 -0.10467579 66 98 0
0.43983963 -0.42521578 -0.13323618 150 163 91
0.49129057 -0.36601475 -0.06233520 102 146 0
0.43934458 -0.42980462 -0.13174352 45 88 0
0.42479143 -0.42898825 -0.12138630 72 111 4
0.43566746 -0.42365992 -0.13537726 89 102 56
0.40462759 -0.44348699 -0.15160885 51 86 2
0.43528706 -0.43056783 -0.13430983 63 103 7
0.40395129 -0.45776051 -0.15674599 77 118 16
0.41508710 -0.43198526 -0.14947823 29 71 0
0.44399121 -0.42787617 -0.12420697 96 122 35
0.44467309 -0.42708695 -0.11829271 122 155 40
0.42201516 -0.43001628 -0.14028342 84 106 41
0.41426021 -0.42778963 -0.14580005 103 126 56
0.44026205 -0.42373720 -0.13090509 181 196 127
0.41336384 -0.43185478 -0.13268834 103 141 28
0.41399929 -0.43131697 -0.13211182 100 137 41
0.40633923 -0.43792006 -0.14265364 51 86 0
0.44190937 -0.40417206 -0.09794347 131 180 29
0.40900740 -0.43301821 -0.14154319 77 105 18
0.48108298 -0.37612695 -0.06076011 66 94 0
0.42435321 -0.42925814 -0.12203615 69 111 3
0.59603459 -0.05528325 -0.15012136 97 122 31
0.59655333 -0.02070588 -0.21911499 106 131 50
0.59475923 -0.04903684 -0.15993141 99 129 17
0.58640498 -0.04360051 -0.15445815 69 110 0
0.58679467 -0.04128589 -0.15820858 111 158 16
0.58801758 -0.04133350 -0.15865716 79 125 0
0.59329373 -0.03475108 -0.16729084 111 145 71
0.59585351 -0.03273536 -0.17361511 110 144 50
0.59276348 -0.03714573 -0.16465053 135 165 105
0.59362400 -0.04220029 -0.16288535 90 122 47
0.59517151 -0.03530251 -0.17011994 87 120 33
0.58881956 -0.02006531 -0.18817613 161 190 20
0.58758903 -0.02096811 -0.18757483 96 129 0
0.59304339 -0.01987476 -0.23871174 36 65 0
0.59582949 -0.01984375 -0.23865485 46 74 13
0.59782851 -0.01994203 -0.23869996 37 61 11
0.59260005 -0.02271586 -0.18107863 83 126 0
0.59292686 -0.04345354 -0.16032690 95 134 15
0.59342706 -0.04719709 -0.15719642 37 74 0
0.57368213 -0.03307979 -0.17416263 74 113 0
0.58520734 -0.03729530 -0.16319355 65 107 5
0.59141690 -0.03394554 -0.16781572 124 162 25
0.59469867 -0.03709523 -0.16791853 51 89 0
0.59654772 -0.04392354 -0.16873942 94 126 25
0.59696013 -0.03386635 -0.17287876 90 124 29
0.59601086 -0.01490931 -0.19963340 87 116 8
0.58929306 -0.01843811 -0.19107290 107 145 6
0.59045774 -0.01694768 -0.19904886 62 98 0
0.59130484 -0.01682564 -0.19644117 68 104 0
0.59792840 -0.01624779 -0.20912769 109 127 7
0.59762436 -0.01637306 -0.21042216 101 121 8
0.59243220 -0.01620966 -0.20169541 107 142 24
0.59302479 -0.05683894 -0.14097275 86 121 3
0.59461081 -0.05767397 -0.14350991 33 62 0
0.59126693 -0.01704430 -0.20896567 111 149 28
0.58109450 -0.02912088 -0.17781070 59 99 0
0.58114910 -0.03087516 -0.17370881 51 98 0
0.59729296 -0.02120491 -0.22459692 136 154 104
0.58654642 -0.01886523 -0.19917102 108 148 26
0.59382725 -0.02801703 -0.17615211 139 173 50
0.59547257 -0.02957560 -0.17457330 134 170 38
0.58891505 -0.01752241 -0.20103593 75 111 13
0.58541435 -0.01878709 -0.20202479 64 106 0
0.59057266 -0.02176251 -0.18371424 78 121 5
0.58776909 -0.03202330 -0.17118163 109 148 19
0.58682317 -0.02723774 -0.17845096 110 148 13
0.58845866 -0.02518722 -0.18038027 129 176 12
0.59471816 -0.02939538 -0.17331471 120 152 41
0.59660929 -0.03922925 -0.17240530 81 118 2
0.59531379 -0.04613345 -0.16490565 81 107 10
0.57848519 -0.02797099 -0.18084259 112 156 7
0.58046174 -0.02886590 -0.17850423 60 103 0
0.59321713 -0.01801959 -0.21259661 102 141 34
0.59926748 -0.01813387 -0.22023675 141 160 79
0.60040402 -0.01637648 -0.21413149 51 50 45
0.60032558 -0.01665739 -0.21789709 68 71 44
0.60045201 -0.01635370 -0.21495003 58 58 48
0.59448898 -0.05651345 -0.14552256 53 87 0
0.59863693 -0.02097742 -0.22888535 116 130 77
0.59251004 -0.04384708 -0.15827420 68 105 0
0.59108156 -0.04902382 -0.15180306 47 84 0
0.57100052 -0.03647330 -0.16820295 92 133 15
0.56970650 -0.03776116 -0.16600570 121 169 23
0.58955109 -0.01991973 -0.21815437 110 152 28
0.59160805 -0.03039802 -0.17230643 104 142 7
0.58675855 -0.02859763 -0.17674364 124 162 23
0.58463913 -0.02523661 -0.18311949 75 114 0
0.58784932 -0.02202650 -0.18524562 125 166 10
0.58402121 -0.04476748 -0.15049297 39 78 0
0.58626288 -0.04604870 -0.15007861 70 109 0
0.58688700 -0.01891168 -0.19328849 70 113 0
0.58308345 -0.03714931 -0.16343358 35 78 0
0.57995063 -0.03570323 -0.16535717 89 135 1
0.58333504 -0.03377141 -0.16894327 33 74 0
0.57980704 -0.03394169 -0.16818990 115 161 11
0.59530526 -0.02180102 -0.22218893 61 93 17
0.57540852 -0.03544936 -0.16414857 77 124 0
0.58740991 -0.01884161 -0.21481396 56 91 0
0.59141940 -0.01977593 -0.21720022 78 119 15
0.59054214 -0.04917875 -0.15051703 92 134 8
0.59209269 -0.05131618 -0.14953382 84 122 11
0.57078731 -0.03839315 -0.16067591 111 153 17
0.57610589 -0.04045689 -0.15281795 66 111 0
0.58118200 -0.04298935 -0.15133330 73 118 0
0.59209836 -0.03618439 -0.16604540 71 109 0
0.59274709 -0.04073452 -0.16151841 77 117 0
0.59061801 -0.03180084 -0.17052951 124 167 15
0.58882159 -0.01973215 -0.22594021 71 114 22
0.58862495 -0.01969768 -0.22680955 89 133 36
0.58841181 -0.03826163 -0.16188689 71 110 0
0.58806908 -0.03724032 -0.16273805 109 153 8
0.58036363 -0.03753151 -0.16219510 91 139 3
0.57730740 -0.03891556 -0.15668598 119 169 10
0.57848585 -0.03898318 -0.15736952 83 134 0
0.59751397 -0.13544102 -0.21367984 22 48 3
0.59972942 -0.13613336 -0.21528491 27 57 0
0.59456772 -0.20107862 -0.19730051 155 170 51
0.59377939 -0.20235637 -0.19899075 86 121 0
0.60582066 -0.16518490 -0.19746244 116 145 27
0.58522165 -0.12521896 -0.21506269 33 65 0
0.58756083 -0.12416454 -0.21835765 31 64 0
0.59089226 -0.13954437 -0.20392288 21 48 0
0.61124194 -0.20939247 -0.19741382 54 72 20
0.59404927 -0.13011317 -0.21338829 67 96 14
0.59393555 -0.13231865 -0.21161695 67 96 16
0.59474498 -0.13966116 -0.20663722 51 77 3
0.59129399 -0.12574066 -0.21894696 29 58 0
0.59579331 -0.11981974 -0.22467905 81 115 54
0.61374021 -0.19197263 -0.19047138 37 58 0
0.59834909 -0.13210393 -0.21754403 22 53 0
0.59130573 -0.11724149 -0.22663832 82 119 52
0.58923489 -0.13565695 -0.20393701 39 67 0
0.58883530 -0.12812623 -0.20990968 85 115 27
0.59855539 -0.14494395 -0.20589910 75 97 24
0.58440924 -0.11948835 -0.22005875 54 95 17
0.60502672 -0.16490629 -0.19776370 95 123 12
0.60637397 -0.20521857 -0.19953199 126 143 11
0.59838837 -0.14216208 -0.20791510 29 58 0
0.59825885 -0.14139253 -0.20863120 31 60 4
0.59689748 -0.13879222 -0.20943692 34 64 4
0.61077702 -0.19985177 -0.19792159 92 125 8
0.60877407 -0.20507756 -0.19775410 72 100 0
0.60078585 -0.20600089 -0.18967842 89 114 22
0.58919764 -0.15044208 -0.20109791 69 92 22
0.59034795 -0.14600246 -0.20083320 88 113 29
0.59475911 -0.15840487 -0.19867092 94 116 41
0.60949105 -0.20638931 -0.19739425 72 103 0
0.60534656 -0.18445995 -0.19242033 110 145 29
0.58769101 -0.12348453 -0.21674728 72 104 28
0.61183387 -0.19002265 -0.18941857 67 92 0
0.60774773 -0.18957394 -0.19114749 140 169 41
0.61036229 -0.20320401 -0.19142167 86 116 2
0.59134710 -0.13935222 -0.20182982 59 85 11
0.60119069 -0.14397134 -0.20964238 73 96 18
0.61371797 -0.18534727 -0.18837880 130 154 58
0.61306828 -0.20644945 -0.19687234 45 63 15
0.58695513 -0.14430505 -0.20274627 78 105 26
0.60730875 -0.20125762 -0.19157030 107 132 51
0.61386722 -0.19914228 -0.19106188 44 70 0
0.60189730 -0.15997288 -0.19947548 104 130 41
0.60266113 -0.16458130 -0.19819272 107 135 35
0.60427362 -0.19392614 -0.19118840 109 138 58
0.60635602 -0.19290540 -0.19141078 109 141 34
0.59216976 -0.13065970 -0.21176772 44 74 2
0.59430295 -0.14137889 -0.20330641 55 81 8
0.59284920 -0.14300075 -0.20162885 79 103 25
0.61362821 -0.20875296 -0.19284476 77 101 7
0.60328323 -0.17413270 -0.19505034 117 144 39
0.58971858 -0.11691248 -0.22617687 89 127 54
0.59008521 -0.11717633 -0.22584991 79 119 48
0.59093201 -0.12984411 -0.20935117 56 86 0
0.61315411 -0.19722462 -0.19715098 76 101 18
0.61377484 -0.19131567 -0.18918015 88 114 5
0.61411959 -0.21264443 -0.19695558 56 75 20
0.61131448 -0.18319437 -0.18825211 118 140 29
0.60042185 -0.17218228 -0.19555143 85 112 35
0.59801573 -0.21190181 -0.18836272 122 151 25
0.61254716 -0.18454127 -0.18822110 107 132 14
0.60352027 -0.20690827 -0.18982147 70 107 4
0.60284185 -0.20162648 -0.19084568 85 121 25
0.60450655 -0.19784686 -0.20213337 81 108 3
0.59057224 -0.12858847 -0.21201244 95 126 33
0.59035283 -0.13083440 -0.20845526 66 92 31
0.61811393 -0.19586089 -0.19453979 57 75 13
0.59322280 -0.13394782 -0.20952453 66 91 10
0.59956193 -0.15432438 -0.20087357 86 110 48
0.59750795 -0.15252119 -0.20105357 60 86 12
0.60765243 -0.15184033 -0.20267865 83 108 7
0.61586720 -0.19743124 -0.19186921 41 66 0
0.59981102 -0.19949263 -0.19095130 86 123 18
0.61691225 -0.19526717 -0.19174491 67 89 16
0.61641634 -0.20010208 -0.19588304 60 83 15
0.61467445 -0.20061390 -0.19230935 59 87 2
0.59528136 -0.12807275 -0.21680766 76 103 36
0.59334266 -0.12828808 -0.21537806 57 85 11
0.59966469 -0.16356188 -0.19763586 69 92 22
0.59198040 -0.12800200 -0.21574052 55 88 9
0.58933860 -0.12472828 -0.21953894 53 83 13
0.59746832 -0.15410398 -0.20033927 66 93 12
0.59196049 -0.14686726 -0.20060205 79 104 38
0.59216797 -0.14852911 -0.20058726 89 112 40
0.60555786 -0.20591791 -0.19989228 114 135 14
0.59371942 -0.13712245 -0.20692466 89 117 30
0.61371756 -0.18755637 -0.18866949 70 95 11
0.59440416 -0.12818260 -0.21712178 36 66 6
0.60314703 -0.15673095 -0.20071802 105 132 35
0.60388327 -0.15650210 -0.20079841 93 121 18
0.60697186 -0.17685120 -0.19230650 126 153 24
0.60102034 -0.15235837 -0.20241195 98 122 46
0.59849167 -0.14691989 -0.20433016 62 85 15
0.57913762 -0.04490284 -0.14597663 98 142 5
0.61098492 -0.16880803 -0.10579897 121 142 1
0.57704890 -0.10211289 -0.11485595 144 193 6
0.60603976 -0.18077606 -0.10958149 80 111 8
0.57820773 -0.09806918 -0.10846566 199 220 65
0.57499683 -0.09929316 -0.10872792 221 228 26
0.58567834 -0.21086659 -0.11759368 184 200 67
0.61695999 -0.18486816 -0.09558871 206 211 31
0.58425844 -0.11899719 -0.11688825 180 204 0
0.58289409 -0.12493469 -0.11458970 186 218 21
0.57129550 -0.06754004 -0.13210811 135 168 63
0.57916313 -0.13811149 -0.11259278 126 164 0
0.57801294 -0.08103452 -0.12364230 147 194 18
0.57970321 -0.07942012 -0.12464690 116 165 22
0.60279322 -0.08286424 -0.11122289 194 203 14
0.60726082 -0.09160059 -0.11026634 194 203 24
0.60832971 -0.10086832 -0.10834359 184 204 27
0.56925064 -0.06112687 -0.13462797 90 126 39
0.58576465 -0.20598139 -0.11786345 188 205 73
0.58592117 -0.20689575 -0.11724800 165 185 54
0.58973438 -0.09257932 -0.11515618 133 158 14
0.61736888 -0.28073198 -0.17657414 105 120 15
0.61629510 -0.28381717 -0.17239860 94 117 1
0.62050641 -0.20180395 -0.11279433 166 174 65
0.57070202 -0.06638168 -0.13371491 88 123 33
0.61544108 -0.16908644 -0.09879719 168 166 47
0.61000222 -0.27974877 -0.16521430 127 143 21
0.58637595 -0.05635577 -0.13828589 69 117 0
0.61558115 -0.17268556 -0.10119858 135 140 11
0.57687420 -0.04153412 -0.15065371 52 88 0
0.60157514 -0.18802607 -0.10055339 208 213 49
0.60392910 -0.18357044 -0.09900684 182 180 20
0.60310572 -0.12750496 -0.10629465 192 197 19
0.62230915 -0.20145175 -0.10696158 176 185 66
0.61944848 -0.20065837 -0.10437667 152 163 0
0.60538834 -0.20122673 -0.10350629 166 174 0
0.60320079 -0.20099175 -0.10498594 201 210 23
0.60216349 -0.19934320 -0.10465862 174 184 1
0.58982247 -0.09326176 -0.11486940 148 175 32
0.61320001 -0.21404727 -0.11735938 222 217 89
0.61538368 -0.24051015 -0.12319258 190 188 41
0.61122608 -0.22573890 -0.12019975 241 233 134
0.61211073 -0.22232603 -0.11920331 207 207 97
0.61251408 -0.19460742 -0.09786130 190 204 7
0.61238897 -0.22951297 -0.12098434 218 210 109
0.60442758 -0.19046591 -0.09946702 190 197 32
0.60316330 -0.19158182 -0.10033013 237 241 69
0.61157346 -0.20596869 -0.10896986 195 195 21
0.61610311 -0.19986200 -0.10194288 206 205 19
0.61076719 -0.20424132 -0.10689715 175 186 20
0.61235392 -0.20306420 -0.10569967 203 201 18
0.60518014 -0.20274208 -0.10468557 167 172 0
0.57478178 -0.07513023 -0.12828459 156 191 35
0.61054212 -0.19942173 -0.10125968 212 212 20
0.61567521 -0.19700141 -0.09761770 199 203 4
0.61515296 -0.19698863 -0.09745207 201 203 6
0.60819376 -0.20705990 -0.10957322 199 201 30
0.61715835 -0.23413534 -0.12207312 246 241 121
0.60338300 -0.23135911 -0.12300165 98 117 1
0.60748267 -0.22752640 -0.12076654 206 209 30
0.60640550 -0.22568323 -0.12008075 207 210 45
0.61007035 -0.19046436 -0.09787592 248 247 69
0.60181087 -0.21755965 -0.11676664 169 186 22
0.60332990 -0.21091671 -0.11211385 173 182 13
0.60343063 -0.21458437 -0.11492876 176 185 42
0.61204141 -0.20881756 -0.11191158 188 189 25
0.60167867 -0.21933095 -0.11794465 175 192 34
0.60351837 -0.21933790 -0.11797056 188 199 33
0.60468370 -0.22181766 -0.11875527 178 191 16
0.57553279 -0.06206610 -0.13860063 113 158 7
0.60119730 -0.16826862 -0.09330735 213 218 28
0.60188073 -0.16551034 -0.09099687 214 220 26
0.60266382 -0.16560984 -0.09067696 238 243 52
0.58944589 -0.10907848 -0.10348112 192 219 102
0.58853662 -0.11467363 -0.10209543 187 205 119
0.59166449 -0.11221805 -0.10187889 186 212 102
0.61208260 -0.23218064 -0.12185036 215 211 86
0.57569945 -0.05837057 -0.13953458 64 106 0
0.59487873 -0.20619927 -0.11139838 107 131 9
0.59753394 -0.20275410 -0.10867880 132 155 23
0.59614718 -0.20564777 -0.11068646 121 141 30
0.60556066 -0.23166735 -0.12295492 174 184 27
0.60519195 -0.23171718 -0.12301278 164 176 28
0.57505906 -0.06767679 -0.13478749 146 187 33
0.57942438 -0.07272048 -0.13121036 42 94 0
0.57610786 -0.07008852 -0.13226491 95 144 0
0.59512734 -0.06318070 -0.12862407 146 170 10
0.61306316 -0.17258874 -0.08791789 213 219 21
0.60532349 -0.17036411 -0.10862787 87 109 11
0.57649630 -0.15795141 -0.11436496 170 190 13
0.57650417 -0.15989833 -0.11535124 177 196 6
0.59580308 -0.05257076 -0.15147500 114 135 60
0.59291357 -0.15399635 -0.09708766 164 198 24
0.60722399 -0.18844306 -0.09821868 198 203 22
0.60914713 -0.18440644 -0.09721294 229 230 50
0.60509115 -0.12560728 -0.10675661 176 194 24
0.61818665 -0.28870049 -0.16838318 108 130 0
0.57745504 -0.21433181 -0.12413059 154 173 21
0.60453749 -0.21797442 -0.11815955 163 177 20
0.58114821 -0.14387171 -0.11303777 154 177 1
0.57677698 -0.13676301 -0.11111159 103 138 10
0.61565745 -0.18125655 -0.10251470 184 186 59
0.58029616 -0.21855684 -0.12270866 187 206 55
0.57912719 -0.22258110 -0.12350214 124 139 0
0.57659906 -0.13109003 -0.10364822 229 244 83
0.59937221 -0.08492679 -0.10102676 202 211 30
0.58331412 -0.18304729 -0.11649156 171 185 28
0.58197790 -0.17957672 -0.11606327 169 181 33
0.61646217 -0.27101645 -0.16930477 116 121 31
0.61608398 -0.26764879 -0.16318174 151 154 51
0.60314471 -0.07353905 -0.11551632 155 162 0
0.60124403 -0.16834520 -0.11525115 154 170 61
0.59932160 -0.16556759 -0.11700352 157 169 11
0.58515388 -0.06434747 -0.13305582 94 143 15
0.61299586 -0.16257431 -0.09865294 115 124 7
0.60414612 -0.09866998 -0.11013325 157 177 0
0.60684985 -0.09604883 -0.11018093 144 159 0
0.57201719 -0.13351482 -0.10658967 158 183 53
0.61126077 -0.27809101 -0.16615216 128 139 0
0.61292148 -0.27920386 -0.17128161 132 144 18
0.59529352 -0.07383456 -0.11517178 205 219 72
0.59350705 -0.07331980 -0.11649404 186 201 48
0.56810617 -0.15721767 -0.10262752 168 195 4
0.58030826 -0.17408934 -0.12441748 166 179 12
0.56781173 -0.13989441 -0.10617278 140 163 11
0.60185343 -0.15070532 -0.11362900 133 160 19
0.60389805 -0.15122952 -0.11327234 177 195 25
0.58311689 -0.20899895 -0.12113754 176 193 55
0.61635351 -0.17544976 -0.09968001 139 148 21
0.58085316 -0.17684557 -0.11982278 148 172 12
0.58139443 -0.18002102 -0.12137414 139 158 4
0.60311121 -0.07396881 -0.10849171 178 185 9
0.56574798 -0.15598293 -0.10950626 202 226 18
0.56772351 -0.15719892 -0.09512990 161 182 45
0.60602939 -0.12265894 -0.10830437 156 174 10
0.60604256 -0.12351464 -0.10825235 167 185 13
0.60396761 -0.07065397 -0.11740091 163 178 15
0.58189112 -0.04765517 -0.14536311 81 125 2
0.58104092 -0.14862044 -0.11266665 156 182 0
0.61874133 -0.24463090 -0.12447420 188 188 42
0.57491726 -0.16856620 -0.11031975 118 144 0
0.57667357 -0.16953309 -0.10880078 83 113 0
0.57948363 -0.17458333 -0.11354590 93 119 0
0.58397591 -0.17878011 -0.10299480 135 155 8
0.58488542 -0.17612243 -0.10017975 202 226 90
0.57454294 -0.16720866 -0.10686093 101 132 12
0.56990194 -0.16506818 -0.11093706 180 199 30
0.58510643 -0.18673956 -0.11285617 142 158 10
0.58333194 -0.18038507 -0.10524547 174 187 35
0.57969952 -0.17163348 -0.10334062 159 187 17
0.58005011 -0.17014587 -0.09947907 132 160 0
0.57985592 -0.17273156 -0.10463715 150 172 0
0.58514464 -0.18586926 -0.10775414 137 159 14
0.58083409 -0.17521200 -0.10562336 138 158 0
0.58159101 -0.17676100 -0.10539280 100 126 1
0.58995485 -0.18105155 -0.10065966 136 167 48
0.56745583 -0.16490614 -0.09626053 86 118 11
0.58656454 -0.19926223 -0.11688987 164 181 40
0.58590245 -0.19480130 -0.11802337 192 201 60
0.56983066 -0.03896498 -0.15678109 102 142 9
0.61329538 -0.17944933 -0.09403905 200 207 31
0.61089694 -0.18471663 -0.09660969 221 228 52
0.61042571 -0.18375047 -0.09663826 246 248 76
0.61017257 -0.17408885 -0.09068213 149 161 1
0.59409970 -0.19122848 -0.10402659 175 190 97
0.59139144 -0.19024371 -0.10464762 123 145 37
0.58450985 -0.20849402 -0.11943648 241 251 118
0.57422262 -0.04116997 -0.14724170 57 97 0
0.58798915 -0.10987867 -0.11049297 164 196 11
0.57929617 -0.05342173 -0.13594630 156 182 49
0.59848654 -0.05864153 -0.12975653 154 156 93
0.59767348 -0.05554497 -0.13071577 146 146 94
0.59742910 -0.18683581 -0.10160749 162 187 31
0.59861881 -0.18622887 -0.10116149 168 191 23
0.59756428 -0.18060124 -0.10012185 171 192 51
0.57704473 -0.05409874 -0.13377196 154 182 35
0.58000576 -0.06012012 -0.13075496 175 201 32
0.59613734 -0.04931147 -0.13442294 147 158 92
0.59648281 -0.04560533 -0.14285035 97 118 49
0.58672810 -0.16811012 -0.09727051 171 201 41
0.58312106 -0.17131972 -0.09723645 191 212 47
0.58906174 -0.16683111 -0.09781930 142 172 74
0.58783907 -0.16647048 -0.09729962 142 177 49
0.61537629 -0.19052911 -0.11336496 151 171 12
0.60963619 -0.18990983 -0.11321010 98 130 0
0.56591231 -0.15873225 -0.09597722 186 211 58
0.57729995 -0.05026213 -0.13698143 129 155 45
0.57389194 -0.04658409 -0.13677070 160 195 39
0.57332075 -0.04542717 -0.13698465 145 173 63
0.56961763 -0.04866076 -0.13627271 153 185 74
0.57351178 -0.04803241 -0.13579896 166 197 42
0.57346487 -0.05159348 -0.13530174 180 204 66
0.59751391 -0.19008607 -0.10227241 165 188 36
0.56691086 -0.09497929 -0.11950107 158 199 9
0.59919655 -0.07333514 -0.11265150 187 203 32
0.59209067 -0.18075305 -0.10057268 163 182 103
0.57499737 -0.12499911 -0.10356108 205 226 37
0.57560456 -0.12686227 -0.10393021 208 231 37
0.56577229 -0.16408198 -0.10036837 129 156 25
0.56633103 -0.16220418 -0.10727208 157 183 0
0.57189649 -0.05582226 -0.13377132 163 187 73
0.57335889 -0.05830790 -0.13199930 208 230 93
0.57578880 -0.06066018 -0.13037096 201 214 100
0.57517385 -0.05539009 -0.13308156 159 180 61
0.56481642 -0.12483783 -0.11248096 154 181 14
0.56766593 -0.13148782 -0.11044709 124 150 25
0.58480012 -0.07485771 -0.12899458 123 159 0
0.58532792 -0.06319273 -0.12980309 150 166 91
0.58566225 -0.06344451 -0.12962484 152 168 93
0.59327704 -0.16811445 -0.12109935 169 184 21
0.56968117 -0.13435614 -0.10758182 184 204 57
0.57414365 -0.12122589 -0.10261084 208 231 52
0.57793039 -0.12674297 -0.10208314 199 216 22
0.57438320 -0.14043146 -0.11015791 150 190 14
0.61754006 -0.23459283 -0.12197212 231 223 125
0.56745374 -0.09677963 -0.11699691 132 165 22
0.56989223 -0.09393389 -0.11860099 137 173 39
0.56564224 -0.15166581 -0.10136324 155 179 0
0.56651080 -0.15210840 -0.10389972 194 215 26
0.56237388 -0.10702189 -0.10779434 145 184 7
0.56483477 -0.12528306 -0.11242632 167 190 22
0.58715892 -0.06427214 -0.12934808 152 176 82
0.61052966 -0.24087320 -0.13069548 149 150 33
0.60830206 -0.23774354 -0.12966171 171 176 48
0.61062986 -0.23558897 -0.12473868 215 208 101
0.60378367 -0.23904976 -0.13603492 105 117 43
0.57613629 -0.15444747 -0.09712542 219 230 92
0.57224095 -0.08969057 -0.12021012 147 186 0
0.56566375 -0.15299806 -0.09733720 132 152 18
0.56934136 -0.15044476 -0.09938890 133 151 13
0.59121913 -0.17332499 -0.09958626 172 193 118
0.59019083 -0.17322758 -0.09951868 143 168 67
0.59229040 -0.16946687 -0.09917627 168 192 96
0.57541865 -0.04530160 -0.14273159 80 127 13
0.57903397 -0.04766939 -0.14286403 116 155 10
0.59861135 -0.19077338 -0.12135696 157 175 27
0.57503581 -0.13869150 -0.10292970 171 186 41
0.57312614 -0.15329018 -0.11314066 94 130 0
0.57356042 -0.15354241 -0.11307158 94 130 0
0.57123333 -0.14361623 -0.11036320 177 205 0
0.58458996 -0.11952583 -0.11596095 181 207 12
0.61261022 -0.18859576 -0.09642712 225 231 47
0.56573451 -0.11444844 -0.10470194 160 185 42
0.60316217 -0.22959854 -0.12698762 115 136 35
0.60327518 -0.23023871 -0.12751873 114 134 39
0.60880959 -0.23538664 -0.12654874 180 181 51
0.60663497 -0.23667198 -0.13033608 155 167 29
0.60607600 -0.23207507 -0.12623617 170 180 32
0.61256510 -0.23648183 -0.12374454 224 222 87
0.59086245 -0.10230809 -0.10347126 179 205 69
0.59749496 -0.11169653 -0.10179279 156 177 10
0.59858638 -0.11647326 -0.10273772 203 213 28
0.57316548 -0.15101029 -0.09927847 188 200 64
0.57295495 -0.14682926 -0.10071381 203 218 75
0.59625846 -0.12009531 -0.10108152 188 208 35
0.59784764 -0.11658855 -0.10226377 144 165 8
0.56512541 -0.12698175 -0.11204371 178 193 42
0.58496773 -0.18294419 -0.10484393 116 141 0
0.58485508 -0.18075337 -0.10379674 118 140 3
0.57228285 -0.14955896 -0.10017104 199 206 64
0.57497358 -0.15240216 -0.09835158 174 191 61
0.59935051 -0.13978784 -0.09876331 208 215 24
0.60736281 -0.09036160 -0.10946321 164 181 7
0.57139695 -0.10301809 -0.11624358 152 188 0
0.58548725 -0.09598763 -0.11779934 193 210 16
0.58525109 -0.08822680 -0.12006143 173 207 9
0.58842564 -0.07075193 -0.12186477 158 187 71
0.57718849 -0.16665643 -0.09513324 128 158 0
0.57877755 -0.16821520 -0.09585266 142 164 19
0.59781313 -0.13196832 -0.10079718 168 191 23
0.60066164 -0.13584217 -0.10155474 173 190 16
0.58290362 -0.11108860 -0.10214321 190 214 76
0.58533120 -0.10690678 -0.10448845 162 185 107
0.58189702 -0.14471966 -0.09754904 213 231 67
0.58324331 -0.14460099 -0.09681172 200 224 64
0.59967148 -0.17445886 -0.11385730 119 134 15
0.60258037 -0.17110895 -0.11141354 128 148 0
0.56770235 -0.04143626 -0.14035618 73 115 7
0.57779258 -0.15450130 -0.09695657 205 214 69
0.58289218 -0.15103270 -0.09596150 202 220 60
0.59722459 -0.14114396 -0.09787221 205 223 79
0.58968163 -0.13984464 -0.09804228 181 206 104
0.58427894 -0.16284361 -0.09602013 165 186 23
0.58089983 -0.16046187 -0.09565891 201 215 68
0.60113710 -0.09369732 -0.10201200 216 235 47
0.59462059 -0.10622062 -0.10173041 198 222 74
0.60530847 -0.07313438 -0.11125124 171 178 12
0.59112102 -0.12738946 -0.11200871 157 184 0
0.58905011 -0.14009067 -0.09802987 191 213 115
0.58581769 -0.14072646 -0.09784554 149 185 49
0.58515799 -0.14541969 -0.09690740 156 187 47
0.58248651 -0.15821533 -0.11756488 202 211 30
0.57759142 -0.16071139 -0.11618019 215 231 47
0.56658953 -0.11805931 -0.10767725 121 149 13
0.58316624 -0.15338615 -0.11588922 179 190 10
0.58569503 -0.15248084 -0.11619878 173 173 17
0.61359668 -0.27630705 -0.16234422 154 163 34
0.59383589 -0.14028311 -0.09775049 199 221 95
0.59327197 -0.14109090 -0.09764557 195 220 92
0.57739842 -0.15093757 -0.09789842 197 205 57
0.57875603 -0.14442173 -0.09932272 214 223 70
