0.44302723 -0.06489149 0.07402051 137 137 7
0.46000403 -0.06070736 0.09841657 126 126 0
0.44292426 -0.06517272 0.07437767 145 145 13
0.45703873 -0.06092091 0.10177933 168 150 12
0.43921840 -0.06535307 0.05782647 172 136 52
0.44769105 -0.06410265 0.10467657 126 133 3
0.44675115 -0.06544995 0.10088801 135 141 5
0.45706227 -0.06288697 0.08953409 176 169 37
0.45835099 -0.06170655 0.09326120 155 148 16
0.46737641 -0.05596646 0.11147546 120 123 16
0.46451733 -0.05682494 0.10969994 140 141 14
0.45156103 -0.05921480 0.08954091 149 143 5
0.46764472 -0.05516140 0.11392788 127 130 15
0.45918849 -0.05798542 0.10018113 159 155 4
0.45802942 -0.05727281 0.10045569 152 146 0
0.46538121 -0.05862104 0.10611803 153 157 34
0.43828753 -0.06483529 0.05470340 145 147 37
0.46080023 -0.05922272 0.10431611 155 160 6
0.44887739 -0.06399806 0.09657723 137 142 0
0.44502530 -0.06602979 0.09389598 129 132 0
0.44732916 -0.06479760 0.09538756 127 129 2
0.44488224 -0.06724209 0.09255167 116 126 0
0.45038396 -0.06411346 0.11088084 142 142 22
0.44601706 -0.06154799 0.07173532 158 144 19
0.45084330 -0.06196003 0.08121923 135 127 16
0.45029324 -0.06184892 0.08029894 141 131 18
0.44520628 -0.06847868 0.08769148 117 128 10
0.44812083 -0.06072401 0.08231913 152 144 9
0.46523377 -0.05575055 0.11298935 146 147 20
0.46296513 -0.05907350 0.10444138 139 144 18
0.44681451 -0.06430283 0.10646242 121 130 3
0.44484764 -0.06424304 0.10831609 113 123 0
0.44343027 -0.06306391 0.06919781 159 147 13
0.46410969 -0.05745517 0.10776135 132 134 11
0.43967080 -0.06449073 0.06161327 168 140 41
0.46946159 -0.05378290 0.11655867 126 131 11
0.44143146 -0.06476530 0.06641811 140 130 9
0.44003311 -0.06347504 0.06351539 185 155 31
0.44208068 -0.06813587 0.06613378 192 168 72
0.44103369 -0.06742264 0.06470815 188 161 44
0.44194040 -0.06675797 0.06094771 173 180 24
0.44662645 -0.07038901 0.09394391 147 155 33
0.44616878 -0.06985924 0.09389865 119 129 16
0.44829559 -0.06957716 0.07462654 182 178 91
0.47096616 -0.05432527 0.11681893 143 147 10
0.44728234 -0.05991565 0.11187200 119 131 0
0.44665346 -0.06307784 0.11165328 109 119 6
0.45000753 -0.06003770 0.11138998 151 163 1
0.44558752 -0.07072164 0.11138753 151 154 3
0.44529057 -0.07000597 0.10850974 148 147 3
0.44489712 -0.06916445 0.11110307 135 141 5
0.45027232 -0.06318472 0.11066335 137 134 21
0.45098743 -0.06051352 0.08971380 146 145 5
0.46159574 -0.06102848 0.09825089 143 139 13
0.46058449 -0.06070464 0.09744789 148 144 18
0.45034435 -0.06414915 0.08514887 153 145 2
0.44831029 -0.06378369 0.08118875 139 134 6
0.45113501 -0.06378479 0.09252501 146 140 2
0.45156980 -0.06253656 0.08918401 165 157 12
0.45409846 -0.06161259 0.08776495 161 149 13
0.45477238 -0.06255940 0.08685402 154 140 18
0.44336241 -0.06541329 0.07707838 143 146 5
0.44553989 -0.06513193 0.07862214 119 123 3
0.45793116 -0.05767355 0.10253502 147 146 4
0.44838339 -0.06441827 0.08545952 140 141 3
0.46425983 -0.06132099 0.10063022 150 145 15
0.44378346 -0.06597526 0.07927161 127 135 0
0.44564384 -0.06494599 0.07826142 119 122 5
0.44023883 -0.06263274 0.06120968 193 165 30
0.46862546 -0.06036253 0.10586260 147 142 12
0.46582928 -0.05844348 0.10598786 126 129 14
0.44186407 -0.06129684 0.06364647 198 173 31
0.44191775 -0.06156612 0.06197321 193 168 24
0.44767511 -0.06424554 0.09072585 132 138 6
0.46722490 -0.05727793 0.10887524 121 120 12
0.46555462 -0.05784361 0.10658342 120 123 10
0.45204163 -0.06064613 0.09567443 153 150 11
0.45528835 -0.05780347 0.10042147 153 146 13
0.45460322 -0.05829882 0.10012679 153 146 13
0.45897627 -0.05899405 0.10416323 162 161 0
0.44958696 -0.06940565 0.07567635 169 165 78
0.44820273 -0.06353802 0.10550929 127 133 0
0.44641817 -0.07006291 0.11166406 153 159 1
0.44440851 -0.06638385 0.11145140 113 123 0
0.45742550 -0.05878250 0.09680997 173 163 3
0.45705244 -0.05865065 0.09672612 178 168 8
0.45127973 -0.06159826 0.10071106 130 134 0
0.45762640 -0.06098627 0.09990922 170 160 13
0.45225835 -0.06081087 0.09926218 144 145 5
0.45219555 -0.06223680 0.10297864 135 136 8
0.44374949 -0.06932508 0.07128806 176 173 60
0.44371891 -0.06219088 0.11131774 111 125 2
0.44570348 -0.05915312 0.11155386 119 128 0
0.44879091 -0.06111126 0.08044499 144 133 7
0.44927099 -0.06176895 0.07898153 147 138 19
0.44969121 -0.06387007 0.09304760 134 137 4
0.45032901 -0.06420314 0.08785894 157 151 1
0.40363824 -0.07702103 0.09387940 133 130 35
0.41544381 -0.07553983 0.08468650 163 153 56
0.39816108 -0.07703876 0.09856072 99 107 21
0.39929569 -0.07764003 0.09636985 131 127 36
0.40277514 -0.07416005 0.09708916 121 126 32
0.40929264 -0.07275330 0.09349535 136 126 39
0.40464479 -0.07355698 0.09554292 142 137 43
0.42063290 -0.07300424 0.08097538 110 116 6
0.40732440 -0.07493307 0.09366243 107 121 24
0.40408227 -0.07728826 0.09509850 129 134 40
0.42399102 -0.07140847 0.07695360 121 126 8
0.40170425 -0.07586258 0.09769142 114 125 29
0.40447164 -0.07521317 0.09644598 125 140 35
0.40734309 -0.07864588 0.08944174 156 153 36
0.41169867 -0.07507136 0.08693972 137 128 35
0.40959165 -0.07775735 0.08764542 151 143 36
0.44184852 -0.06289657 0.04132966 203 126 74
0.44026434 -0.06120872 0.03716987 235 209 148
0.44393390 -0.06201144 0.04134395 120 111 34
0.44694573 -0.06069502 0.03800105 59 63 4
0.44801894 -0.05881651 0.03797437 168 162 104
0.44246379 -0.05966375 0.03578332 95 100 18
0.43932909 -0.06095783 0.04023943 93 83 0
0.43856692 -0.06070009 0.03252498 83 81 4
0.44224042 -0.06276554 0.04133305 209 131 83
0.44572836 -0.06122820 0.03630988 144 142 81
0.44393557 -0.05858567 0.03512179 111 113 40
0.44451895 -0.05864191 0.03552504 116 118 45
0.44582757 -0.05777099 0.03894384 89 98 7
0.44403768 -0.06242679 0.03722630 220 177 122
0.38916865 -0.07573075 0.10441489 138 138 64
0.38936016 -0.07633924 0.10435941 117 131 46
0.39261422 -0.07820415 0.10053331 111 124 34
0.38193837 -0.07748213 0.10640186 118 127 36
0.39297462 -0.07543565 0.10239111 104 110 36
0.39100507 -0.07690302 0.10259242 101 115 36
0.39314860 -0.07729114 0.10096132 115 127 43
0.37278131 -0.07826662 0.11011645 116 117 39
0.37968209 -0.07829049 0.10824017 109 120 41
0.38442722 -0.07811198 0.10481009 136 145 64
0.39601463 -0.07723078 0.09816919 154 149 49
0.39017767 -0.07766484 0.10118456 160 157 64
0.48135823 -0.05721819 0.11987443 136 124 38
0.49003315 -0.04413842 0.13027291 95 90 6
0.47646523 -0.05412551 0.11997075 139 136 29
0.47534817 -0.05684491 0.11661864 146 141 21
0.48677742 -0.04791244 0.12767926 106 114 15
0.48918027 -0.04359752 0.13102998 86 91 0
0.48528594 -0.05079405 0.12629445 127 118 23
0.47911730 -0.05201346 0.12350001 123 121 21
0.47941640 -0.05277333 0.12276579 136 131 29
0.48072180 -0.05203600 0.12397648 134 129 25
0.47376806 -0.05155890 0.12113662 117 127 4
0.47699213 -0.04940269 0.12533174 120 129 10
0.47575545 -0.05055756 0.12362015 142 154 26
0.47702622 -0.05370992 0.12258761 158 167 22
0.47825551 -0.05735060 0.12060618 135 147 3
0.48758674 -0.04205240 0.13683650 80 90 3
0.48862255 -0.04081309 0.13827080 78 90 4
0.48811522 -0.04187587 0.13538055 82 90 4
0.49013165 -0.04014269 0.13605545 62 69 0
0.48412460 -0.04755752 0.12869200 107 114 18
0.48035327 -0.04970466 0.12614958 93 99 11
0.48126394 -0.04640573 0.13012539 82 97 6
0.48858780 -0.04013070 0.14177656 85 98 6
0.47865495 -0.05670233 0.12171672 134 154 0
0.48003232 -0.05411144 0.12332450 173 185 25
0.48245558 -0.05167439 0.12478900 152 154 44
0.48311731 -0.05447097 0.12529626 143 160 20
0.47152323 -0.05694742 0.11420932 149 157 19
0.47414476 -0.05541260 0.11867760 140 152 8
0.48241809 -0.05636674 0.12110383 133 107 46
0.43611798 -0.06326684 0.04386218 118 123 21
0.43625546 -0.06177039 0.03571724 128 127 19
0.43590251 -0.06249534 0.02774280 90 101 0
0.42066848 -0.08629557 0.02720187 254 233 176
0.43885955 -0.06343940 0.03930390 108 110 3
0.44205409 -0.06274755 0.03927509 172 135 80
0.44064379 -0.06262925 0.03398140 103 108 26
0.43883386 -0.06314860 0.05046453 100 96 0
0.43920106 -0.06269466 0.04909273 101 100 7
0.44064668 -0.06361900 0.04284136 130 143 29
0.43567461 -0.06242975 0.03996925 118 113 9
0.43605527 -0.06213205 0.03941637 123 120 15
0.43712687 -0.06305125 0.04003384 126 140 27
0.43844423 -0.06186404 0.04346890 92 87 0
0.41298422 -0.07315581 0.08667922 97 99 2
0.41511041 -0.07334412 0.08422970 118 117 9
0.41055188 -0.07285702 0.08989172 113 107 31
0.40537751 -0.07901572 0.09292025 123 131 28
0.40471539 -0.07955949 0.09366485 131 136 33
0.41500062 -0.07281038 0.08741769 105 121 23
0.41037357 -0.07829367 0.08860428 165 152 73
0.41399994 -0.07644791 0.08935737 137 148 44
0.42535368 -0.07005613 0.07463470 117 123 15
0.41424829 -0.07541817 0.08889849 127 134 41
0.41525808 -0.07353378 0.08727390 114 125 33
0.41978893 -0.07446499 0.08366736 129 140 36
0.43300807 -0.06828794 0.06457580 109 118 3
0.43363491 -0.06580588 0.06218860 108 116 7
0.40352422 -0.08016505 0.09481720 145 142 47
0.43653470 -0.06411427 0.05207615 122 116 4
0.42858326 -0.06963596 0.07073496 138 139 46
0.41630262 -0.07035777 0.08329532 120 118 17
0.41532394 -0.07089966 0.08402176 100 99 16
0.41737664 -0.07296056 0.08541494 129 139 50
0.42069259 -0.07222746 0.08173271 127 139 37
0.41811472 -0.07019144 0.08154829 111 116 13
0.43475902 -0.06681816 0.06169466 110 117 5
0.42470780 -0.07091966 0.07682569 110 123 5
0.42829162 -0.06986710 0.07256839 120 134 21
0.42557168 -0.06975263 0.07457722 113 125 17
0.43943179 -0.06425470 0.05720909 161 143 7
0.43917969 -0.06239216 0.05276192 135 121 0
0.45915309 -0.05321506 0.04882253 51 76 0
0.44943497 -0.05532917 0.04204927 80 93 3
0.44866607 -0.05694164 0.04191374 92 108 10
0.46475059 -0.04955402 0.05099495 247 225 150
0.45373809 -0.05271905 0.04580028 54 78 0
0.45597184 -0.05095895 0.04769212 61 86 2
0.45662716 -0.05152225 0.04557895 165 166 96
0.45437342 -0.05490941 0.04363332 193 161 112
0.45866978 -0.05072852 0.04879962 75 100 0
0.48674282 -0.04234250 0.14083295 108 123 20
0.48638457 -0.04225145 0.14263944 114 131 29
0.48132724 -0.05130338 0.12567635 164 176 28
0.49556449 -0.03165637 0.15005878 75 87 1
0.48649582 -0.03865300 0.14811757 97 116 9
0.48563173 -0.04201566 0.14273906 97 108 14
0.48353860 -0.04377662 0.13691118 100 115 10
0.48925039 -0.04359979 0.13471162 147 167 44
0.49066231 -0.04043889 0.14614144 109 129 18
0.48894456 -0.04165845 0.14170757 93 115 7
0.49422902 -0.03701761 0.14610894 96 120 34
0.49391267 -0.03981587 0.13889514 128 161 18
0.49655518 -0.03055328 0.14832434 151 197 2
0.49445984 -0.03653282 0.15010566 100 122 0
0.49372861 -0.04150449 0.13525516 160 202 66
0.48560613 -0.04284576 0.13964367 107 120 28
0.49438179 -0.03057899 0.14621864 74 78 1
0.49315342 -0.03425715 0.14293401 72 76 0
0.49180323 -0.03652872 0.14580499 80 90 1
0.49601275 -0.03283481 0.14462964 121 173 0
0.48435438 -0.04310510 0.13996877 88 102 5
0.48069808 -0.04696421 0.13002288 95 107 5
0.48308340 -0.04885699 0.12854254 139 157 35
0.48210678 -0.04772167 0.13013856 132 150 40
0.49006248 -0.04441752 0.13124433 169 191 46
0.48420781 -0.04601769 0.13335219 134 152 50
0.48600915 -0.04752295 0.12941125 150 170 36
0.49232623 -0.03769527 0.13919543 74 76 1
0.49495676 -0.03393874 0.14279969 131 158 25
0.49924108 -0.02818998 0.15233889 87 97 0
0.49405438 -0.03984759 0.13808124 120 155 9
0.49176791 -0.04314516 0.13254254 167 187 54
0.49063900 -0.04041225 0.14803407 103 120 16
0.49357286 -0.04084898 0.13688223 120 162 28
0.49109477 -0.04162871 0.13821140 113 147 34
0.51577663 -0.01554366 0.18274045 112 119 41
0.48630169 -0.04089161 0.14301525 96 116 1
0.49740937 -0.03409856 0.15757233 108 123 6
0.51684743 -0.01334783 0.18360384 128 120 48
0.51433599 -0.01406818 0.17869666 134 132 45
0.51185971 -0.01857784 0.17766769 124 149 32
0.49152988 -0.03647620 0.15192546 103 118 1
0.49771896 -0.03157424 0.14994898 117 151 4
0.50051439 -0.02873968 0.15445951 109 138 0
0.49052975 -0.03783516 0.14543739 86 95 2
0.51061761 -0.01397252 0.18080103 130 148 40
0.48948938 -0.03814441 0.15067400 102 118 9
0.51318353 -0.01299610 0.18325850 134 151 37
0.51054311 -0.01818361 0.17820409 128 152 42
0.48958912 -0.03841371 0.14553471 94 106 4
0.49119422 -0.03998082 0.14925092 101 115 18
0.51203996 -0.01520719 0.17801198 102 113 9
0.48833737 -0.03907328 0.14926440 113 113 25
0.50147784 -0.02842813 0.16158672 78 98 3
0.50238496 -0.02601545 0.16552421 91 112 17
0.49449971 -0.03712289 0.15249985 116 132 10
0.49950740 -0.03259499 0.15789281 91 106 3
0.49959788 -0.03179450 0.15665734 109 124 5
0.49351442 -0.03707718 0.15417534 122 131 12
0.49737450 -0.03271778 0.15890421 106 123 11
0.51143366 -0.01764320 0.17681840 127 134 20
0.51367724 -0.01461759 0.18235709 142 161 43
0.50271535 -0.02680146 0.16243033 114 134 49
0.49681458 -0.03476905 0.15365796 110 130 5
0.49282494 -0.03449991 0.15432747 98 107 0
0.49440789 -0.03315438 0.15266734 89 101 1
0.49639353 -0.03174571 0.15443666 98 106 3
0.49494141 -0.03295231 0.15079442 99 107 4
0.46370813 -0.05104775 0.04940238 166 137 93
0.46504572 -0.05063188 0.05059886 201 181 94
0.45616648 -0.05999366 0.04434339 109 131 56
0.45400468 -0.05961676 0.04265414 97 103 29
0.45406750 -0.06053768 0.04359898 114 123 44
0.45938489 -0.05398327 0.04820641 64 75 9
0.45706227 -0.05385228 0.04484737 184 102 80
0.46368521 -0.05240651 0.05041815 205 183 108
0.45162904 -0.05775375 0.04446979 73 93 6
0.45455468 -0.05849396 0.04492027 140 144 60
0.45521596 -0.05499871 0.04657683 44 72 0
0.45438904 -0.05654631 0.04340009 199 91 78
0.45613599 -0.05693986 0.04418046 203 134 105
0.43104148 -0.06740133 0.06470176 123 125 26
0.43169296 -0.06665789 0.06474520 100 107 4
0.43524513 -0.06493708 0.05489317 118 118 20
0.43490449 -0.06573719 0.05725941 121 124 17
0.50275642 -0.02510365 0.15915750 86 92 6
0.50515825 -0.02391523 0.16620834 106 127 32
0.50380391 -0.02388564 0.16401549 99 115 8
0.50109529 -0.02681680 0.15945157 96 108 6
0.49812758 -0.02887767 0.15947470 93 105 3
0.50541693 -0.02266229 0.16888425 107 123 16
0.51478201 -0.01070305 0.18026216 166 163 68
0.50555110 -0.02092017 0.17185099 107 124 9
0.50014305 -0.02575324 0.16453294 109 121 11
0.49855703 -0.02992561 0.15693453 101 108 4
0.50224686 -0.02435819 0.15923347 87 97 0
0.50209194 -0.02506712 0.16428062 100 116 9
0.50214112 -0.02458471 0.15779622 83 92 0
0.51587504 -0.01180707 0.18081084 128 119 50
0.51010257 -0.01688815 0.17810160 140 149 34
0.49525002 -0.03017555 0.16017057 99 113 2
0.51322049 -0.01084846 0.18338515 131 139 36
0.51395094 -0.01156100 0.17877692 167 163 72
0.50872159 -0.01742378 0.17828396 130 147 51
0.51025748 -0.01765431 0.17754181 137 143 21
0.50073236 -0.02748111 0.15571524 89 99 2
0.50008130 -0.02522902 0.16732918 94 111 33
0.45129514 -0.06646350 0.07315137 137 126 44
0.45127112 -0.06739148 0.07406250 124 119 27
0.44986713 -0.06624319 0.06970818 144 128 51
0.44694886 -0.06824883 0.06485960 139 117 8
0.45376444 -0.06501430 0.08051421 147 156 51
0.45287567 -0.06952196 0.08246385 160 163 46
0.45390314 -0.06987537 0.08537575 142 143 23
0.44562042 -0.06930596 0.06514750 163 144 24
0.44732529 -0.06655113 0.06413322 121 96 12
0.44679955 -0.06729951 0.06362577 122 100 0
0.45624855 -0.06844767 0.08800230 177 171 61
0.46389681 -0.06417396 0.09744777 158 155 0
0.45464748 -0.06513981 0.08416039 174 175 39
0.45731616 -0.06848856 0.08953544 124 122 0
0.45808730 -0.06565018 0.08966249 216 209 56
0.46385890 -0.06443704 0.09655179 165 160 4
0.46127611 -0.06571105 0.09213806 226 214 50
0.44657353 -0.06859486 0.08108271 118 132 9
0.44545543 -0.06971335 0.10063856 120 125 7
0.44729415 -0.07145992 0.09441097 173 180 6
0.44554088 -0.07045273 0.10523818 134 140 0
0.44336766 -0.06520209 0.05250220 177 171 57
0.44033819 -0.06624246 0.04920844 132 162 30
0.44092011 -0.06453244 0.04641712 156 175 57
0.44430387 -0.06716172 0.05934670 157 153 4
0.44499937 -0.06680225 0.05883935 144 148 2
0.44980988 -0.06613233 0.10618702 133 139 7
0.45889685 -0.06338860 0.09517547 141 144 3
0.45301190 -0.06850764 0.08835662 129 131 0
0.45463875 -0.06635202 0.09124582 126 129 0
0.45674342 -0.06435899 0.09367539 147 143 17
0.45650339 -0.06662589 0.09167592 160 160 4
0.45974135 -0.06599360 0.09411167 157 156 3
0.45122331 -0.06723148 0.09035166 126 140 5
0.44772750 -0.06873411 0.07957486 133 145 11
0.44144332 -0.06284601 0.04460394 220 176 105
0.43950278 -0.06118854 0.04176196 102 85 5
0.46726888 -0.06146004 0.10324768 149 141 14
0.45163450 -0.06412753 0.07530493 143 73 65
0.44758108 -0.06237739 0.07252512 143 131 23
0.44952336 -0.06465696 0.07122633 129 78 57
0.45395431 -0.06372010 0.08235958 130 108 33
0.46711802 -0.06161758 0.10285465 142 141 0
0.46829933 -0.06044513 0.10488646 149 143 3
0.46417567 -0.06256615 0.10033939 148 148 0
0.46885565 -0.05795782 0.10985844 143 151 6
0.47257957 -0.05790694 0.11149371 146 155 4
0.46191880 -0.06264253 0.09860939 149 152 3
0.45978522 -0.06175505 0.09721169 139 139 7
0.44582099 -0.06351819 0.05777412 150 90 30
0.44335163 -0.06356181 0.05340067 125 99 4
0.44073933 -0.06238789 0.05351073 126 112 3
0.44278798 -0.06197203 0.06025672 166 145 18
0.44486186 -0.06166857 0.06659775 169 153 31
0.43855998 -0.06596404 0.04932667 144 169 41
0.43945068 -0.06659218 0.04931348 144 175 35
0.44789740 -0.06401081 0.06639924 131 101 39
0.44631395 -0.06275185 0.06261908 154 138 25
0.44758192 -0.07087404 0.09168604 163 171 8
0.44755408 -0.07003397 0.10468119 144 150 0
0.44929945 -0.06946860 0.08890940 133 144 16
0.44842699 -0.07031663 0.09043084 157 165 17
0.44767094 -0.06886330 0.08279147 125 136 0
0.44772103 -0.06994288 0.11023819 144 150 0
0.44693598 -0.07220922 0.10121466 157 167 6
0.44923091 -0.06919436 0.09183839 116 124 2
0.45009813 -0.06678234 0.10297935 127 134 4
0.44850311 -0.06835731 0.10744270 147 151 2
0.44834656 -0.06904236 0.10655764 152 157 3
0.44885942 -0.06810666 0.10181341 147 155 17
0.44868532 -0.06794840 0.10029936 122 133 0
0.44973508 -0.06699672 0.09896316 122 134 10
0.45011881 -0.06706175 0.10171948 123 133 0
0.45162240 -0.06874497 0.08696602 136 146 0
0.44736138 -0.06977508 0.07142904 170 140 44
0.44530541 -0.06756081 0.07830704 109 120 2
0.43667319 -0.06008542 0.03022763 115 116 22
0.43541214 -0.06119114 0.02727317 116 114 14
