0.19402716 0.24491049 0.13806437 107 134 5
0.19424567 0.24147514 0.14023992 139 160 7
0.19387667 0.24445362 0.13877243 117 140 10
0.19890906 0.26354966 0.14218068 156 175 8
0.19985954 0.26019481 0.13826765 159 180 53
0.19531891 0.23589213 0.13621044 154 175 38
0.21185352 0.22745745 0.18683618 86 120 0
0.21876031 0.22557060 0.19222528 167 209 0
0.19840148 0.24388984 0.13128756 152 172 38
0.19713572 0.26447406 0.13244830 165 185 28
0.19775273 0.26558593 0.13561422 138 157 3
0.21006364 0.24202038 0.18325485 145 170 17
0.21450861 0.23909083 0.19068515 176 215 64
0.21146043 0.24496751 0.18256341 148 183 29
0.19248958 0.23687880 0.15465488 168 190 30
0.19887638 0.24798004 0.12927316 166 187 48
0.19953242 0.24795111 0.12855196 155 176 37
0.20045604 0.25770536 0.13699989 156 172 22
0.19610076 0.26458436 0.13100995 138 159 0
0.19463973 0.23616201 0.13219948 142 162 13
0.19084698 0.23347600 0.13056204 164 183 32
0.20779492 0.23093481 0.18432198 123 147 7
0.20689265 0.23000848 0.18339048 136 154 10
0.20535767 0.23250195 0.18057981 118 143 13
0.20326284 0.23744546 0.17627989 152 183 64
0.20816267 0.22816713 0.18564919 118 138 5
0.19855607 0.26067054 0.13215603 146 157 53
0.19981925 0.25771797 0.12617674 157 180 40
0.19698507 0.24099551 0.12644805 168 184 34
0.19664516 0.24043624 0.12690212 169 185 35
0.19144537 0.23606364 0.12812918 159 178 27
0.20022091 0.25031462 0.12511022 167 189 80
0.22155954 0.22715150 0.19545811 190 228 19
0.22358836 0.23300782 0.19221914 174 207 12
0.19485857 0.23685254 0.15826847 134 157 4
0.21558265 0.24292441 0.18779622 182 228 70
0.21530424 0.24328090 0.18734083 183 229 71
0.19691333 0.26199457 0.13426179 191 209 25
0.19899978 0.26109439 0.13611774 154 173 0
0.19686051 0.25130853 0.13214993 156 176 19
0.20045149 0.23502421 0.16764584 101 133 8
0.20165928 0.23476438 0.17013089 101 131 1
0.20068343 0.25462574 0.12147045 169 198 82
0.20042033 0.25222278 0.12344473 167 190 84
0.19921833 0.24376394 0.12521242 145 167 24
0.21592496 0.22647096 0.19707158 97 133 0
0.20940675 0.22767794 0.18757376 107 132 2
0.19270562 0.23786674 0.14056756 121 155 17
0.19249575 0.23908205 0.14134388 159 186 29
0.19161895 0.24112263 0.15400827 126 148 0
0.19197190 0.24264939 0.14953086 157 178 13
0.21006027 0.23946778 0.18539800 121 149 2
0.21283184 0.23350868 0.19432269 141 171 11
0.21500883 0.23345816 0.19665271 132 167 11
0.19768736 0.23642594 0.16032317 164 188 16
0.20004106 0.25285965 0.12768203 159 178 50
0.20901045 0.23112033 0.18691514 98 126 3
0.21440263 0.22954509 0.19988698 99 128 0
0.21186630 0.22848767 0.19412792 94 123 0
0.20925274 0.22800650 0.18807761 128 151 11
0.19740069 0.26072466 0.12391347 153 176 23
0.19976901 0.25787345 0.12463483 168 191 61
0.19419405 0.23749593 0.16215056 158 182 62
0.19568649 0.23779687 0.16444066 118 141 27
0.19883750 0.25424579 0.13302208 165 182 24
0.06234755 0.08701149 0.09140074 113 149 51
0.11106341 0.12644285 0.11184275 143 207 71
0.08886871 0.15060836 0.12478571 118 125 94
0.05943103 0.12408483 0.13175520 88 149 12
0.05282221 0.12055450 0.13110575 62 127 0
0.13329722 0.15620983 0.11615284 158 221 81
0.10736007 0.15796481 0.11333688 143 202 60
0.07604100 0.09325451 0.09508898 79 110 17
0.07322798 0.09332513 0.09504677 180 195 50
0.07119521 0.13344221 0.13940775 2 55 0
0.07474262 0.13169216 0.13897516 116 158 92
0.07439698 0.13085712 0.13887997 172 206 145
0.07377843 0.10383570 0.10172614 90 131 39
0.12360339 0.16381669 0.11411730 112 177 113
0.12263002 0.16620664 0.11409753 136 206 134
0.08698563 0.15786581 0.14816925 67 132 0
0.13622947 0.14880168 0.11872351 146 204 81
0.10679395 0.11899079 0.11337718 87 144 29
0.10242032 0.11438046 0.10772550 89 138 20
0.11673830 0.14019641 0.11231720 151 204 54
0.07833387 0.14486933 0.11858910 182 224 78
0.09507621 0.09848410 0.11046191 140 199 89
0.10203910 0.10957187 0.10615895 173 220 56
0.08466221 0.09358338 0.10492119 69 102 11
0.06499027 0.09307592 0.09521356 101 138 60
0.03972907 0.10298745 0.11275143 146 186 10
0.09784333 0.11163015 0.10697336 148 211 70
0.08189288 0.15178904 0.11493514 118 161 79
0.05763938 0.10848550 0.09472167 81 131 0
0.04455741 0.10005451 0.11334340 140 173 8
0.08805179 0.14063422 0.11685628 170 232 107
0.06639496 0.11594301 0.13328965 39 54 49
0.09261475 0.14551869 0.11522450 117 175 65
0.07613374 0.13938721 0.11330309 179 218 27
0.07878441 0.14270751 0.11346234 149 208 6
0.06950658 0.09125929 0.09434553 180 202 65
0.04412135 0.10071183 0.11526442 192 222 38
0.06675998 0.11454582 0.13590150 27 42 23
0.06610166 0.11513571 0.13689055 75 90 61
0.06302336 0.11283110 0.13729030 124 164 94
0.13118349 0.15332025 0.11880223 135 183 13
0.05805590 0.10256562 0.12832285 210 231 114
0.04195848 0.10277677 0.11720207 178 207 18
0.12055216 0.14481245 0.11421706 152 201 57
0.10613912 0.14477046 0.11463197 108 169 100
0.10608500 0.13892850 0.11490384 113 168 77
0.10513891 0.14123774 0.11463260 109 162 106
0.08178471 0.09863787 0.10288730 99 131 4
0.09974018 0.13778764 0.11418585 98 159 89
0.10492614 0.14621019 0.11491723 104 170 82
0.06053272 0.09455572 0.09222243 74 108 48
0.06084995 0.09441862 0.09251337 73 106 53
0.06136476 0.10997207 0.13648614 94 137 66
0.05855398 0.10504638 0.13530584 74 127 83
0.09282926 0.12931430 0.11221440 98 148 89
0.09931235 0.12820414 0.11386151 93 156 51
0.09923473 0.15173334 0.11578123 129 175 50
0.06172829 0.10738649 0.13176066 94 131 64
0.07845643 0.08443769 0.08984936 107 140 9
0.08020203 0.08654630 0.09269483 67 98 5
0.12379365 0.14855920 0.11665794 150 206 55
0.08123565 0.14471930 0.12256855 141 167 106
0.05812195 0.10266808 0.12811704 208 237 87
0.08558271 0.15050335 0.11316830 180 229 111
0.06023473 0.10468262 0.09763424 97 138 46
0.03920641 0.10073565 0.10311209 172 207 42
0.09455020 0.14056234 0.11617594 118 187 81
0.09546011 0.13428593 0.11376422 98 160 77
0.09289952 0.13228931 0.11324637 96 159 68
0.13490669 0.15133087 0.11627167 118 171 5
0.07884685 0.14586385 0.14470561 78 138 0
0.10867485 0.13226084 0.11449902 105 174 67
0.05348303 0.10504802 0.12243539 113 133 44
0.05335107 0.10561465 0.12254176 140 166 59
0.08615061 0.11824300 0.11013606 63 118 35
0.08346123 0.12485047 0.10960988 110 162 62
0.08837341 0.11877263 0.11074821 108 163 35
0.06951072 0.12521054 0.13697705 15 73 14
0.13564119 0.14980803 0.12010300 118 174 51
0.10573501 0.12583584 0.11359639 184 234 123
0.12848108 0.14726722 0.11579990 138 192 18
0.10974758 0.14045426 0.11541951 139 198 90
0.11115073 0.14384164 0.11545622 116 180 86
0.10983630 0.13789023 0.11555689 156 203 71
0.10417607 0.11358041 0.10769623 94 135 0
0.07154774 0.09753108 0.09685419 153 179 54
0.04753732 0.11186764 0.12180540 107 148 0
0.11771277 0.16301869 0.11408398 145 215 129
0.11891602 0.16603586 0.11434840 141 213 127
0.08278097 0.12661095 0.11083479 97 147 58
0.06039499 0.09930673 0.09416065 97 136 53
0.09812082 0.14630882 0.11466063 120 182 81
0.08514585 0.10573419 0.10747620 90 125 9
0.08986574 0.10706996 0.10946325 155 210 64
0.07036781 0.10405162 0.10089293 93 128 64
0.06815943 0.10616327 0.10090558 104 143 52
0.10023712 0.15856872 0.11772401 129 179 46
0.05711241 0.12716022 0.13259682 65 138 0
0.05773157 0.13112572 0.13457452 58 127 0
0.05065659 0.12273684 0.12982696 100 154 14
0.08059707 0.13578354 0.11485835 112 155 13
0.08291486 0.13327293 0.11459965 130 184 36
0.12164811 0.14145555 0.11183598 135 185 38
0.10200614 0.15717264 0.11519137 166 208 84
0.06801692 0.12928598 0.13762833 0 57 0
0.06805115 0.13035549 0.13794880 0 53 0
0.08329101 0.15296839 0.14741956 81 144 3
0.08619703 0.09356830 0.10748231 71 103 6
0.08921351 0.08933187 0.10317235 139 153 76
0.08816663 0.09182926 0.10644124 115 141 16
0.07197002 0.12278616 0.13711666 74 86 64
0.06515957 0.11870978 0.13183571 27 71 35
0.06678095 0.13754085 0.13982885 59 113 0
0.06319135 0.13695690 0.13850677 62 119 6
0.05140065 0.11014975 0.12422432 162 201 30
0.08590396 0.14954200 0.14227106 18 77 0
0.08704277 0.14816816 0.14112726 24 83 0
0.07587128 0.13101915 0.11081265 137 177 18
0.07931357 0.13145743 0.11238097 90 134 11
0.07284936 0.13722716 0.14052549 38 87 32
0.08045505 0.14180191 0.14006460 40 106 9
0.04175859 0.10823901 0.11565363 114 151 0
0.07500510 0.08872419 0.09212518 92 131 22
0.11540888 0.14933236 0.11555964 111 173 90
0.11712575 0.15256904 0.11498169 120 178 117
0.11449993 0.15529409 0.11401866 124 192 119
0.07747379 0.09197197 0.09427253 95 129 9
0.10929483 0.15414938 0.11479322 110 178 69
0.08403672 0.14128183 0.12115732 142 198 99
0.08182996 0.14455119 0.14128348 28 93 1
0.06266800 0.11042368 0.13154116 131 168 98
0.06471173 0.12928008 0.13558930 90 161 5
0.06304754 0.13203050 0.13636790 59 129 0
0.06114009 0.11456491 0.12928788 188 226 29
0.07664684 0.12524872 0.10788388 89 133 10
0.07637056 0.12385052 0.10693727 97 141 28
0.07170578 0.12059473 0.10275209 86 122 0
0.12610808 0.15603130 0.11625944 117 174 43
0.12300329 0.14928128 0.11764689 127 183 56
0.12808730 0.16033633 0.11537401 134 198 76
0.08180910 0.09207179 0.09779251 75 112 9
0.10974055 0.11249241 0.10919917 155 171 73
0.09257573 0.15412644 0.14233148 52 106 20
0.11005794 0.11340301 0.10976164 173 200 69
0.06007386 0.11776692 0.12842295 146 186 2
0.05409305 0.11629266 0.13011505 172 215 47
0.06927751 0.13643265 0.14033388 81 150 5
0.05768160 0.11234755 0.12692045 177 223 37
0.08947970 0.14400484 0.11843681 153 208 78
0.07872393 0.09954328 0.10139593 164 174 25
0.07680546 0.09902948 0.09998830 184 190 38
0.08499192 0.15398560 0.11436044 164 211 95
0.13195880 0.14429712 0.11515251 132 180 19
0.09548770 0.13809679 0.11550350 89 154 70
0.04317390 0.09911782 0.10485466 138 167 17
0.09227715 0.14686285 0.12022653 157 220 87
0.06478175 0.12024537 0.13219108 17 68 9
0.08897422 0.13726869 0.11667756 140 206 74
0.08800651 0.13409068 0.11526483 98 156 54
0.09010100 0.11666037 0.11038717 124 169 52
0.09576204 0.11892978 0.11031602 89 146 41
0.06820785 0.11002456 0.10133993 69 118 9
0.06562698 0.10789486 0.10057171 87 133 34
0.06816128 0.11353555 0.10072729 68 112 0
0.11521106 0.14062312 0.11354677 120 180 48
0.11302116 0.13794333 0.11297118 115 182 50
0.11831939 0.13747191 0.11077399 136 190 34
0.08466589 0.14056814 0.11742730 131 192 89
0.13288720 0.14864103 0.11885049 133 179 18
0.09677583 0.14967726 0.11589199 159 209 86
0.12740932 0.16249378 0.11456230 114 173 109
0.12286188 0.15431617 0.11556328 155 211 74
0.12834266 0.16169246 0.11493054 123 187 75
0.09172928 0.12548752 0.11184441 83 131 71
0.09007998 0.12164672 0.11128972 99 155 64
0.05866236 0.10156855 0.09556828 109 150 54
0.04752595 0.11855607 0.12706082 64 121 0
0.09286571 0.09863701 0.11027034 153 212 68
0.09369608 0.10177775 0.11030052 103 170 75
0.08341758 0.15488251 0.11705836 107 156 51
0.04138045 0.10089539 0.09499016 148 177 59
0.07965222 0.10342311 0.10488708 140 158 14
0.09962322 0.15973496 0.11649592 130 167 28
0.05549478 0.10586391 0.09419929 106 154 6
0.09647515 0.15819532 0.14362805 61 118 13
0.09814539 0.14364995 0.11575756 100 169 76
0.13024418 0.14508826 0.11495280 175 216 16
0.11925584 0.14117435 0.11166930 131 183 0
0.12305038 0.14077345 0.11208031 121 163 0
0.11483677 0.16215907 0.11473481 119 189 65
0.11432006 0.15843900 0.11479396 109 180 74
0.12966599 0.14853784 0.11663561 113 161 0
0.08774656 0.15188995 0.12479438 150 166 119
0.08645976 0.14697051 0.12398393 124 139 84
0.03848879 0.10518183 0.10698815 113 155 7
0.04589496 0.09840002 0.11219032 150 180 46
0.09507556 0.15905388 0.11645024 147 180 39
0.09064082 0.15648900 0.12076373 100 132 69
0.09080036 0.15395655 0.12267245 109 129 70
0.09444102 0.15421794 0.12071333 124 138 87
0.08491042 0.09578879 0.10762823 79 117 6
0.07834587 0.10083301 0.10255826 173 182 27
0.07923962 0.14955553 0.11884114 201 226 169
0.07809481 0.12210389 0.10686101 79 127 27
0.07322728 0.11653831 0.10304051 64 107 0
0.07710730 0.11753193 0.10599975 73 122 17
0.08746244 0.15744348 0.11830357 133 179 70
0.04903515 0.09969146 0.11821582 156 193 80
0.13416152 0.14782424 0.11686551 127 174 10
0.08558562 0.15330073 0.12225388 135 171 110
0.06585458 0.11419247 0.09894187 107 155 9
0.05988993 0.10891684 0.09619715 95 147 3
0.05068929 0.10538844 0.12051722 113 123 52
0.04793405 0.10086163 0.11761056 125 170 17
0.10742023 0.12842919 0.11393210 164 218 70
0.10837191 0.12674786 0.11346207 95 165 76
0.09938877 0.12017696 0.11074463 125 171 39
0.10140634 0.11839099 0.11106865 111 153 19
0.09370188 0.14849724 0.11759266 99 157 44
0.08722413 0.09862756 0.10933268 99 139 24
0.08460322 0.09782255 0.10806828 58 94 0
0.08404354 0.10126225 0.10715060 96 126 2
0.08106132 0.15021245 0.12266091 138 167 109
0.08728126 0.11577041 0.11021234 132 189 34
0.08018009 0.12219273 0.10841200 101 150 59
0.08527953 0.11586986 0.10941515 80 131 26
0.09295107 0.11030284 0.10895419 146 208 81
0.05185068 0.09945510 0.12026047 156 160 99
0.05163212 0.09851110 0.12052659 146 151 84
0.08084594 0.10598303 0.10588436 105 137 10
0.08127448 0.10842734 0.10649025 138 177 36
0.08395550 0.10898822 0.10767036 148 177 35
0.07041536 0.10034912 0.09943716 95 140 45
0.08974996 0.15684693 0.11417475 142 183 43
0.06262673 0.10354753 0.09767842 104 141 46
0.10425493 0.15476128 0.11399384 111 167 32
0.09763852 0.10250128 0.10850275 95 163 60
0.09704842 0.15435284 0.11886863 101 142 20
0.08142002 0.14756891 0.12402119 159 178 148
0.05279744 0.10786080 0.09296700 90 138 2
0.05131102 0.10492866 0.09243597 45 88 0
0.09390939 0.10687932 0.10861460 141 208 102
0.10652523 0.13365662 0.11512182 196 228 105
0.09998860 0.12890024 0.11401470 102 159 54
0.10488701 0.15019007 0.11470941 108 165 70
0.09320345 0.09119032 0.10418391 118 143 52
0.09575487 0.09798558 0.10944010 183 224 84
0.07088955 0.11938705 0.13669707 82 91 62
0.11023838 0.11471777 0.11115959 154 190 58
0.07650636 0.14361335 0.11612809 146 214 7
0.08016121 0.13806465 0.11569268 136 183 41
0.09247437 0.14969316 0.12007220 195 234 128
0.08038811 0.14257511 0.11839014 157 212 59
0.09746896 0.10864981 0.10686762 109 176 73
0.08259933 0.15280765 0.11470155 134 181 85
0.05698143 0.10518982 0.12585904 157 196 25
0.04404479 0.10315307 0.09216584 121 165 44
0.09983141 0.09979577 0.10502543 108 115 48
0.15458381 0.21157496 0.14295816 174 214 40
0.15204349 0.21321535 0.14176592 157 191 52
0.13817990 0.19266377 0.14393969 145 168 0
0.14820880 0.21905486 0.13796893 195 220 64
0.14744823 0.21739592 0.13842544 196 220 60
0.18289350 0.22066355 0.14400233 133 176 9
0.18090722 0.22258395 0.14042704 154 192 8
0.18645959 0.23852468 0.11567637 137 153 3
0.18989773 0.24130946 0.11224043 147 166 15
0.19095935 0.24093087 0.11407294 156 177 24
0.13224430 0.18230639 0.14042392 140 161 0
0.18269618 0.24506570 0.13384169 117 151 4
0.20921397 0.26420698 0.09875006 180 204 68
0.18234611 0.21756695 0.14271709 136 174 26
0.18356183 0.22104222 0.14327878 161 198 41
0.17036885 0.21093653 0.14672276 177 212 47
0.20145139 0.25089303 0.06594625 167 204 73
0.19889742 0.24899946 0.05931583 97 132 2
0.19919355 0.24920544 0.05956982 97 132 2
0.17218794 0.21088590 0.14896289 151 183 24
0.17532876 0.21376444 0.14806172 145 183 18
0.19443093 0.24102578 0.12022717 138 162 16
0.19299139 0.24294263 0.11202368 145 168 18
0.18988340 0.23676775 0.12323651 166 181 30
0.19512528 0.24204652 0.11872831 134 153 11
0.19913736 0.25123721 0.09892784 135 159 45
0.20023195 0.25419870 0.09766009 159 187 74
0.19991890 0.25400248 0.09693959 158 187 71
0.13219586 0.18730941 0.13560560 171 185 4
0.14215200 0.18707287 0.14502642 149 187 4
0.13964613 0.18392242 0.14665483 144 190 3
0.15529960 0.19730353 0.14912808 162 191 23
0.17183615 0.23454839 0.12089743 196 230 58
0.17999396 0.23498929 0.11869088 148 166 6
0.17294581 0.23855573 0.11507329 124 154 4
0.20706345 0.27808473 0.09257647 195 212 120
0.20672418 0.27889434 0.09296316 186 202 113
0.20585389 0.28182486 0.09570486 185 203 104
0.16902137 0.24533239 0.13111727 117 143 0
0.16468088 0.22025861 0.14489605 179 217 33
0.16315532 0.22223754 0.14087793 198 224 29
0.16395266 0.22079186 0.14369954 163 208 30
0.15267715 0.22348110 0.13977088 149 203 53
0.15368311 0.22284286 0.14038727 167 221 75
0.15482694 0.21827605 0.14535165 162 188 5
0.15714975 0.22522748 0.13742313 163 212 60
0.16844755 0.23088162 0.12754732 194 222 52
0.16609529 0.22774859 0.13287956 210 232 62
0.16485636 0.22701105 0.13443880 211 228 52
0.15114999 0.19125086 0.15563284 117 140 10
0.14433040 0.19058684 0.16024882 146 197 66
0.14341347 0.18792571 0.15858504 132 191 51
0.15268239 0.21382356 0.15259412 132 160 0
0.16949333 0.22012894 0.14549349 169 223 37
0.17129783 0.22106764 0.14388476 165 219 35
0.17097349 0.22037791 0.14508672 173 223 40
0.16986123 0.22421955 0.13833417 145 192 0
0.17009990 0.21999234 0.14574486 173 223 38
0.19042727 0.26272655 0.12677287 189 218 38
0.20660108 0.27240559 0.07794468 182 193 54
0.20657444 0.26986143 0.06761406 169 181 53
0.20868759 0.26557243 0.06794583 169 182 76
0.20912091 0.26478556 0.06838210 157 172 71
0.16655350 0.20705363 0.15098155 175 201 42
0.13527109 0.18546100 0.14547202 119 159 8
0.17711939 0.24145961 0.12928438 118 142 0
0.17295045 0.22741613 0.13168772 166 201 11
0.17789070 0.22735983 0.13192871 160 201 9
0.17970251 0.22524609 0.13664909 161 196 5
0.17159046 0.22671019 0.13321795 179 211 12
0.14657651 0.19010206 0.14401439 96 137 0
0.14876124 0.19363587 0.14489861 90 136 4
0.19103983 0.26240948 0.12267006 133 167 10
0.18815655 0.26033473 0.11796722 145 178 25
0.17242587 0.21751568 0.14825059 160 213 45
0.17554367 0.21947543 0.14514892 165 215 58
0.17746823 0.22059989 0.14333740 152 200 26
0.15681440 0.20074649 0.14733504 162 199 8
0.15175331 0.22469729 0.13836499 142 195 89
0.14815189 0.21734226 0.14497368 165 214 86
0.14999554 0.21798614 0.14476545 177 224 96
0.14806248 0.21835971 0.14391711 169 222 88
0.16586830 0.24256922 0.12769781 132 162 6
0.18007669 0.21676566 0.14531933 184 224 76
0.18078172 0.21940197 0.13939159 170 200 50
0.19445880 0.26146862 0.11686726 153 184 18
0.19289970 0.25998113 0.11276022 149 175 22
0.17696607 0.21516962 0.14778700 154 206 62
0.17793448 0.21619926 0.14728588 138 193 40
0.15340984 0.21494822 0.15083532 165 190 0
0.16077612 0.21583872 0.15176171 126 170 0
0.16322555 0.20240761 0.16057575 143 167 9
0.16970333 0.21921945 0.14546873 157 203 9
0.17647597 0.22020562 0.14022072 187 220 79
0.15673001 0.19954668 0.15065059 173 195 34
0.19282766 0.23920603 0.13431564 142 180 7
0.17752604 0.22195348 0.13813554 186 215 73
0.17170584 0.22391675 0.13715459 178 216 71
0.17588614 0.22276482 0.13737544 152 191 22
0.16279818 0.21824966 0.14525594 168 198 16
0.14784923 0.20970413 0.15505680 136 163 0
0.14667042 0.20815907 0.15663190 110 145 0
0.14309908 0.19462098 0.14389075 136 178 8
0.14136894 0.19034493 0.14431356 142 187 0
0.16297013 0.21494001 0.14662884 185 218 49
0.16809227 0.21902123 0.14590214 138 191 0
0.17185810 0.23657513 0.11805844 149 188 9
0.16738568 0.23018338 0.12811968 209 235 100
0.17055592 0.23628590 0.11879690 156 198 26
0.16957334 0.23707530 0.11794950 136 172 20
0.16825892 0.23492530 0.12128492 146 187 21
0.17099507 0.24126905 0.12842074 161 178 14
0.15787116 0.22165719 0.14228250 211 223 79
0.16153449 0.25015512 0.13265891 170 198 51
0.13904504 0.19896297 0.15959238 144 188 41
0.13978589 0.19947271 0.15998265 137 182 37
0.14366503 0.19356586 0.16315627 146 200 60
0.14468053 0.20539752 0.16059630 113 158 7
0.15032746 0.20898972 0.16170457 105 144 0
0.15028296 0.20976290 0.15929087 118 157 6
0.15131101 0.20944214 0.16241743 117 153 1
0.16541040 0.20453377 0.15585555 180 208 48
0.15941569 0.20246975 0.15608913 174 182 35
0.14871785 0.20680240 0.14137007 180 211 29
0.15446229 0.20576946 0.14356533 151 189 26
0.17703511 0.24437760 0.13425463 177 206 40
0.20870793 0.25732529 0.08008877 132 161 51
0.20967582 0.26279655 0.07926589 182 209 104
0.21003237 0.26413664 0.07700510 158 179 86
0.18348572 0.24278490 0.10272911 99 120 1
0.17745949 0.24024506 0.11007323 113 141 5
0.18053296 0.23834339 0.11295524 148 165 25
0.15265858 0.19398299 0.15936092 107 135 12
0.15491612 0.19724432 0.15898839 138 155 25
0.19428688 0.24954851 0.08444914 121 144 12
0.19204326 0.24905887 0.08307098 96 121 1
0.18428947 0.24557522 0.13420038 112 145 12
0.19167544 0.24572258 0.09800187 112 131 3
0.19092140 0.24597862 0.09633015 114 133 5
0.19276175 0.24701978 0.09395026 110 130 0
0.19051263 0.24704854 0.09181359 118 140 13
0.20890163 0.26257169 0.06550942 161 175 77
0.20912947 0.26350239 0.06697416 158 172 74
0.20806743 0.26159886 0.06120240 157 172 67
0.18016787 0.24253437 0.13067542 135 164 24
0.18694130 0.24406204 0.14164220 149 177 7
0.16012199 0.21467522 0.15753424 170 216 22
0.16068204 0.21492836 0.15711810 162 209 19
0.15911390 0.21408243 0.15914805 145 192 0
0.17719565 0.25308168 0.12904695 128 151 1
0.13266745 0.18229252 0.14362909 110 153 1
0.14673813 0.20216456 0.16337581 118 170 33
0.15104802 0.20397073 0.16521868 157 209 82
0.14948201 0.20668007 0.16336429 123 166 1
0.14938316 0.20143779 0.16515285 115 171 34
0.12306011 0.18121976 0.13349395 145 172 7
0.12375650 0.17884527 0.13537134 136 162 11
0.15757355 0.20418572 0.14597194 177 209 24
0.16181888 0.22672027 0.13425553 201 231 75
0.15659359 0.22422494 0.13891198 173 208 30
0.16066444 0.22842166 0.13224065 172 215 38
0.16231659 0.22755812 0.13300110 186 218 55
0.19579759 0.24689096 0.09721638 143 169 59
0.19305961 0.24509805 0.10211442 147 165 43
0.19956836 0.24557497 0.11769327 174 199 72
0.19939710 0.24658698 0.11477084 174 198 74
0.19675216 0.24626012 0.11058787 153 178 51
0.16338997 0.24884477 0.13027453 172 190 26
0.16062577 0.20956647 0.16342863 165 220 4
0.16129522 0.20817500 0.16288359 170 217 23
0.20090818 0.25346997 0.11033013 176 206 110
0.19996145 0.25573295 0.11184672 185 218 131
0.19964017 0.24973889 0.08888330 139 168 62
0.19319376 0.24820936 0.08968224 111 133 0
0.18567728 0.24438940 0.13910298 153 184 3
0.20273675 0.25449342 0.09124653 158 190 83
0.18737632 0.23183154 0.12960181 154 175 22
0.18582059 0.22584789 0.13600974 173 193 42
0.14792553 0.21300109 0.13941845 203 228 64
0.14890388 0.21556145 0.13968116 188 209 54
0.18489519 0.23448962 0.12631962 123 155 0
0.18889749 0.23757435 0.12878406 128 161 0
0.12854993 0.18246685 0.13570198 155 174 7
0.12896404 0.18308789 0.13556141 163 181 9
0.18860935 0.24017274 0.13061129 99 142 1
0.19006711 0.23882878 0.13033764 120 156 4
0.18386157 0.24241586 0.12859069 112 141 0
0.15357637 0.23356374 0.13178520 188 224 92
0.15606441 0.23301613 0.13062036 188 229 88
0.15503521 0.23294166 0.13126296 187 224 92
0.15492874 0.23948601 0.12783022 203 229 93
0.14769842 0.18812162 0.14782482 148 185 17
0.15034845 0.19148724 0.14605366 130 169 2
0.15277660 0.19896056 0.14552115 122 166 7
0.15429966 0.20216700 0.14486286 132 171 2
0.19569644 0.24602973 0.10807463 120 144 8
0.19578980 0.24621111 0.10582726 143 164 33
0.19570573 0.24601631 0.10854144 121 145 9
0.17834024 0.23043653 0.12896141 145 180 18
0.17473423 0.22927538 0.12897161 205 229 107
0.17411317 0.22980058 0.12711760 200 231 94
0.18219011 0.23501773 0.12039953 156 171 18
0.14669171 0.18875237 0.15772945 147 209 46
0.14625724 0.18740001 0.15520865 158 189 23
0.16743420 0.25037411 0.12960577 157 183 14
0.16858639 0.25186208 0.13089137 151 178 11
0.16086559 0.20579997 0.14882238 148 166 6
0.16634504 0.23272707 0.12624998 168 217 37
0.17205064 0.23531263 0.12680662 160 200 15
0.19292544 0.23734596 0.13552229 140 177 1
0.19251572 0.23670378 0.13721617 154 190 6
0.17510907 0.24728790 0.13560823 138 158 7
0.13585912 0.18910941 0.14097151 152 175 7
0.20139377 0.25105622 0.07733888 161 193 70
0.20038265 0.25035390 0.07458474 124 156 29
0.18480544 0.22645746 0.13736524 152 180 0
0.18974027 0.24187492 0.13392788 115 148 5
0.18839768 0.24421053 0.13543950 127 162 0
0.17905784 0.24778076 0.13823515 160 197 6
0.18545173 0.25084987 0.13259025 89 146 0
0.20814933 0.26884601 0.07646076 160 174 60
0.20949335 0.26546305 0.07388977 193 203 114
0.20765701 0.27214742 0.08247486 162 172 60
0.16150221 0.24228892 0.12748623 214 241 100
0.16022162 0.23639008 0.12689836 192 232 74
0.18822023 0.23214413 0.12958652 141 164 14
0.18320882 0.22516407 0.13709474 151 182 3
0.17982416 0.22074094 0.13865021 147 178 22
0.12949015 0.17880596 0.14158039 166 186 13
0.20180732 0.26696411 0.10207780 165 192 63
0.13348256 0.19074309 0.13500684 177 192 5
0.13223945 0.19560455 0.13297598 133 160 3
0.20853305 0.25606588 0.08135206 151 182 55
0.15281580 0.19298172 0.15134048 142 176 2
0.20027147 0.25515875 0.10439335 187 214 119
0.19963467 0.25555682 0.10648884 179 207 120
0.20068502 0.25530151 0.10210895 184 212 112
0.20077810 0.25230438 0.11544976 189 220 127
0.20024085 0.24713212 0.11537163 175 200 82
0.15170757 0.20073187 0.16644304 140 193 59
0.15827112 0.20727769 0.16427542 137 163 36
0.15597984 0.20383684 0.16485094 194 230 94
0.16697450 0.24729440 0.12982208 129 154 1
0.19994196 0.25314438 0.09403024 128 158 44
0.19843690 0.25017825 0.09443601 171 194 88
0.20079926 0.25141734 0.08770578 164 201 88
0.20772110 0.25777695 0.09389343 187 212 69
0.21035215 0.26422167 0.08920848 162 190 103
0.21007745 0.26446065 0.08701149 163 188 94
0.15507576 0.22306281 0.14034851 189 229 36
0.15379563 0.22495715 0.13644513 110 151 13
0.16956972 0.21772921 0.14594154 193 230 64
0.14568140 0.21578111 0.13763042 174 195 30
0.17671612 0.22895907 0.13053060 155 190 28
0.18126564 0.23125577 0.12897015 150 179 13
0.17882699 0.22432260 0.13560003 170 206 48
0.17710868 0.22771880 0.13185744 175 209 62
0.18889076 0.22786063 0.13614555 129 147 9
0.21074250 0.26828694 0.09688476 161 185 89
0.21099776 0.26580298 0.09855085 182 199 97
0.15953089 0.20275128 0.15304272 202 212 55
0.20825514 0.25585648 0.06989270 142 174 41
0.20850794 0.25684550 0.07008185 163 193 71
0.20853038 0.25667453 0.07299437 149 180 51
0.18741956 0.24520436 0.13837518 160 191 10
0.15828061 0.22009498 0.14376616 199 211 65
0.17030531 0.21318665 0.15378872 149 208 2
0.17604634 0.21600336 0.14920737 146 196 35
0.14452119 0.19256829 0.16207744 137 189 62
0.14899290 0.19266459 0.16030467 151 201 24
0.20932409 0.25793472 0.08964003 151 185 72
0.20913926 0.25777128 0.08595379 135 172 59
0.18435693 0.24972977 0.13671000 110 162 0
0.18077761 0.22585346 0.13550501 161 194 1
0.18063217 0.22941595 0.12897338 147 185 2
0.18573093 0.24147338 0.10726740 115 133 0
0.18623470 0.24281125 0.10423063 124 142 6
0.18828698 0.24161728 0.10971480 160 173 33
0.21062163 0.27193838 0.09784756 149 173 79
0.21057600 0.26528329 0.09120430 147 177 91
0.16111246 0.21395369 0.15934274 146 196 21
0.16522270 0.21728322 0.15051675 165 213 15
0.18873139 0.24191937 0.14427938 128 154 5
0.14702100 0.21368863 0.14855935 183 217 58
0.14714400 0.21092510 0.15171933 157 185 5
0.16256505 0.20765258 0.14495721 180 210 36
0.16198620 0.24429719 0.12811236 220 240 109
0.16008809 0.24366587 0.12791650 227 247 114
0.20714404 0.25452584 0.05845951 188 221 91
0.20745951 0.25504905 0.07040864 156 184 61
0.20643048 0.25437278 0.07100376 163 191 80
0.20589612 0.25413066 0.07550094 143 175 48
0.14513113 0.21056260 0.15150279 172 197 17
0.14290643 0.20666775 0.15480027 134 166 0
0.18028760 0.25545555 0.12559520 116 135 0
0.19676957 0.26112926 0.11832058 142 174 39
0.19937798 0.25852206 0.11913687 173 207 86
0.14350607 0.20891024 0.13994986 211 231 54
0.16025168 0.22577883 0.13648103 169 209 50
0.15943883 0.22790989 0.13389343 176 223 67
0.15421274 0.22613242 0.13667370 134 188 51
0.16168429 0.22855677 0.13284542 153 204 49
0.17205377 0.20841488 0.15363254 148 185 45
0.19023617 0.24668479 0.13139781 150 180 7
0.19275320 0.24658877 0.12617591 93 127 0
0.19375183 0.24515210 0.12681675 124 158 12
0.20748173 0.25664422 0.09301361 148 179 39
0.18824685 0.24406396 0.14009255 138 168 0
0.13892759 0.19801760 0.14049673 152 171 1
0.13322893 0.19596227 0.13351113 136 158 0
0.16873051 0.20902812 0.15636186 172 223 32
0.16125022 0.20550470 0.14715266 190 210 50
0.18732157 0.24051805 0.15017898 124 151 10
0.13807218 0.19351247 0.14223973 193 202 35
0.19889191 0.26351622 0.10281912 162 192 36
0.19776937 0.26128447 0.10615835 201 224 94
0.14253746 0.20206754 0.14292791 173 203 19
0.18797052 0.23967911 0.14989342 154 183 15
0.17566936 0.24970458 0.13389374 101 129 0
0.17707589 0.23206881 0.12544204 181 208 15
0.17887700 0.23201971 0.12570716 130 166 0
0.18523614 0.23084487 0.12900530 142 171 5
0.18215060 0.22609456 0.13637574 131 169 0
0.18248577 0.22692522 0.13451637 153 182 4
0.20160004 0.25894329 0.09692617 184 216 91
0.20329292 0.26120105 0.09685872 160 191 51
0.18204403 0.25248092 0.13148282 191 234 31
0.14024529 0.20464405 0.13911252 206 219 43
0.14480677 0.18627208 0.14515655 102 146 1
0.15416464 0.19562168 0.14886019 166 205 26
0.20922656 0.27624172 0.09820138 180 197 93
0.20958635 0.27146515 0.08854765 195 207 123
0.20969942 0.27552554 0.09871753 182 199 95
0.14175361 0.18425474 0.15466730 100 154 34
0.13960323 0.18257071 0.14877558 117 162 1
0.16697319 0.22109623 0.14308783 191 225 66
0.16945632 0.22368212 0.13825321 161 198 41
0.15876496 0.25158447 0.13529252 165 198 45
0.16097738 0.20170386 0.16022594 164 187 37
0.20696490 0.26592320 0.09996337 196 220 110
0.16136606 0.20128848 0.16172077 174 200 29
0.15136299 0.19878365 0.16599134 149 204 74
0.14548531 0.20339450 0.14272247 172 206 5
0.21055527 0.26305243 0.09331524 134 166 59
0.21002480 0.26011840 0.09528031 184 211 82
0.17374459 0.24154061 0.13022573 131 151 0
0.19357070 0.26323056 0.12539624 134 161 0
0.18298213 0.22655395 0.13724735 127 163 1
0.19255134 0.23469082 0.13694908 134 172 1
0.20624009 0.25418013 0.08590510 163 187 65
0.13430107 0.18157840 0.14578889 102 147 4
0.17674637 0.23445340 0.12562846 156 182 0
0.18008144 0.23897564 0.12529866 106 139 0
0.15780444 0.21717057 0.14492932 174 192 28
0.15964787 0.21388300 0.14640160 164 197 20
0.16024415 0.21172485 0.16312361 129 181 0
0.22766560 0.24875912 -0.04252615 153 170 74
0.22383620 0.24692914 -0.04303537 126 139 34
0.22429921 0.25309020 -0.03203881 111 119 60
0.22682321 0.26479712 -0.05409680 63 92 25
0.22766726 0.26287743 -0.05801328 65 95 23
0.22846505 0.26168427 -0.06141685 58 88 14
0.22358088 0.24921224 -0.04813317 97 108 12
0.22259778 0.24993336 -0.03768391 111 138 9
0.22240449 0.24858026 -0.03832008 182 205 73
0.22906272 0.25818688 -0.03674688 113 148 80
0.22335109 0.25032157 -0.03562180 149 163 40
0.22387217 0.24829756 -0.03952673 146 165 50
0.22601348 0.25573403 -0.03063244 118 153 89
0.22608028 0.25812545 -0.05453213 111 139 78
0.22399093 0.25891915 -0.04602096 74 104 32
0.22394320 0.25737920 -0.04642543 76 100 38
0.22745860 0.25418732 -0.03860055 106 137 61
0.23009987 0.26036716 -0.03484426 129 162 105
0.23093589 0.26274937 -0.03618736 132 165 110
0.22975451 0.25724745 -0.04488394 110 143 64
0.22222103 0.24911332 -0.04330570 110 127 12
0.22243372 0.25336352 -0.04191819 73 104 10
0.22856443 0.24751028 -0.04792359 200 218 142
0.22394192 0.25528574 -0.04804437 173 193 130
0.22386117 0.25516957 -0.04786547 173 193 130
0.17420115 0.20351207 -0.08422906 213 226 232
0.17170647 0.20703156 -0.08446847 219 229 231
0.16775508 0.20898521 -0.08505911 182 116 94
0.21957430 0.26303312 0.01749291 179 202 112
0.22467104 0.26700076 0.00603153 130 177 99
0.22578456 0.26655179 0.00553842 144 192 116
0.21468560 0.26779094 0.01706203 130 163 76
0.21377768 0.26710960 0.01726427 135 169 75
0.22261789 0.25589505 -0.01259242 150 178 140
0.22287333 0.25817683 -0.00971589 140 172 131
0.22184405 0.25833070 -0.00464586 146 171 116
0.21940778 0.29037559 0.02101436 99 155 28
0.21500818 0.31542310 0.04026198 136 177 147
0.21538316 0.31559905 0.04023990 153 194 162
0.22071196 0.32185271 0.04312018 149 191 21
0.22234732 0.30154026 0.03257395 116 177 24
0.21935517 0.27511543 0.01718611 104 130 69
0.21975176 0.27459428 0.01685808 113 144 68
0.22981471 0.28704095 0.01715553 88 112 50
0.20230193 0.26790485 0.05538394 106 134 23
0.20491391 0.26722524 0.05533263 151 173 73
0.21047273 0.25968608 0.03836475 192 209 94
0.21031359 0.26170474 0.04083688 161 179 67
0.21152189 0.25078514 0.02089915 113 144 51
0.20757988 0.26046285 0.05633610 174 185 80
0.20782541 0.25909516 0.05522522 170 189 73
0.20880607 0.26398334 0.04907639 152 169 54
0.20797020 0.25637916 0.05488594 195 215 102
0.21033956 0.26280084 0.03941495 150 176 66
0.20707335 0.26611903 0.05159424 133 151 43
0.20766705 0.26570997 0.05464878 129 146 14
0.21542981 0.25733072 0.01817879 157 179 42
0.20844850 0.32126278 0.03884462 129 186 11
0.20964630 0.32235482 0.04080650 148 202 26
0.21333337 0.28668243 0.02255398 118 164 99
0.21255752 0.28533879 0.02207638 120 166 102
0.22170036 0.28041551 0.01008093 108 162 4
0.21928558 0.29224595 0.02335858 109 165 28
0.21320902 0.32320431 0.04437939 115 178 29
0.22225864 0.31330460 0.03995981 83 136 44
0.22405262 0.26466995 -0.00979158 111 135 75
0.22394976 0.26474062 -0.00948120 111 132 67
0.18796374 0.23600653 0.06090412 89 134 17
0.19040501 0.23641858 0.05882281 94 139 10
0.19694655 0.23549207 0.05173982 142 196 38
0.19611037 0.23371787 0.05346618 154 205 66
0.20183808 0.25036365 0.05158909 147 179 42
0.20498990 0.25270671 0.05193168 141 176 30
0.22139929 0.29665238 0.02714018 96 160 1
0.22169362 0.29662400 0.02691734 93 159 0
0.22416854 0.29346505 0.02232758 97 166 0
0.20329730 0.24947661 0.04228505 139 165 55
0.21525133 0.27473059 0.00387198 49 93 0
0.22489457 0.25678822 -0.01888072 142 168 123
0.22494140 0.26127926 -0.01329830 154 183 137
0.22341040 0.25653031 -0.01446199 140 171 130
0.22140318 0.27623138 0.01806689 111 151 63
0.22593088 0.28001606 0.02020650 76 114 31
0.22762647 0.26669663 -0.02106891 140 164 128
0.22839609 0.29213983 0.02172894 75 89 54
0.22822018 0.29421455 0.02310668 88 109 42
0.21172792 0.28862208 0.02347977 112 157 92
0.22196767 0.28854504 0.01911197 97 118 53
0.22169939 0.26601648 0.00431835 157 192 138
0.22425801 0.26440468 0.00326520 123 166 76
0.20100418 0.25005302 0.05470777 137 170 31
0.21131533 0.31372470 0.03718405 106 168 7
0.22565614 0.25658181 -0.02403242 136 166 114
0.22790498 0.25845191 -0.02683435 136 167 108
0.22324182 0.25522995 -0.01759379 157 182 140
0.21935181 0.30465057 0.03486215 130 185 19
0.19990531 0.23554784 0.05279697 162 210 126
0.19711459 0.24152569 0.05014706 123 170 100
0.21146105 0.28357133 0.01618031 75 132 0
0.22712685 0.26743454 0.00558291 126 172 100
0.21773207 0.30044997 0.03116037 100 155 27
0.22454128 0.26842895 -0.00139647 130 150 78
0.22534882 0.26969254 0.00214496 126 155 75
0.22401537 0.26481494 -0.00763153 101 123 59
0.22106618 0.31290746 0.03910094 128 178 19
0.22559287 0.26407838 -0.00153549 206 218 144
0.22477156 0.26498032 -0.00332799 110 131 54
0.22577679 0.26215732 -0.00499145 107 132 66
0.22514383 0.26132816 0.00172705 151 180 100
0.22152707 0.27107623 0.00186303 110 144 83
0.19299436 0.22592267 0.05784336 115 155 59
0.19855393 0.22985344 0.05298944 153 199 111
0.22425705 0.26733279 -0.01184943 98 119 60
0.22388972 0.26707789 -0.01046847 84 106 44
0.21718669 0.26716438 -0.00632920 59 81 16
0.21591330 0.26887369 -0.00238980 20 58 0
0.22531332 0.27926037 0.01216307 113 157 20
0.22351168 0.27631149 0.00894001 110 162 18
0.21434657 0.30680919 0.03237494 99 156 49
0.21617983 0.30188206 0.02881915 95 141 53
0.21418120 0.30481553 0.02803892 84 133 51
0.20800844 0.24676292 0.03958522 119 160 54
0.21752618 0.28044790 0.01074830 69 113 26
0.19756728 0.24372411 0.04875601 141 184 113
0.21331932 0.26303756 0.02590764 185 213 92
0.20986140 0.25582519 0.03675879 159 187 76
0.21706474 0.30288473 0.03351579 76 125 34
0.21579549 0.31344375 0.03759114 87 138 59
0.21253766 0.30692220 0.03536410 108 160 96
0.21284324 0.30498993 0.03378908 104 156 90
0.22041163 0.26709831 -0.01220747 72 99 28
0.19173840 0.23069002 0.05999117 166 218 118
0.19230564 0.22933204 0.05940287 152 200 114
0.21921614 0.26150489 0.01834277 176 200 102
0.22674510 0.27163407 0.01018462 108 152 75
0.21467941 0.26477405 0.01824576 179 206 99
0.21489911 0.28579855 0.01358105 102 153 52
0.22389862 0.29931465 0.03230768 103 161 49
0.22488849 0.29519534 0.03060961 117 170 90
0.22043265 0.27714014 0.00765427 113 169 8
0.22906828 0.28842610 0.02043497 73 91 41
0.21305345 0.24917725 0.03067934 203 241 140
0.21501397 0.27763268 0.00588863 125 172 68
0.21258025 0.27254251 0.00307123 40 77 0
0.22497301 0.27056736 -0.03038474 75 110 28
0.22496741 0.27034262 -0.02933067 93 137 48
0.22445838 0.26969889 -0.02688329 84 121 41
0.20001371 0.25010160 0.05149459 114 139 21
0.22371265 0.26601541 -0.04076656 54 86 13
0.22539453 0.27044225 -0.03535744 72 105 26
0.22328162 0.26819989 -0.03311887 61 91 19
0.21077187 0.29216671 0.01790015 138 187 46
0.21716607 0.29198909 0.02359250 114 150 122
0.21601191 0.29807165 0.02885025 106 145 114
0.22723900 0.27247417 0.01039700 106 150 71
0.20718634 0.24200574 0.04119910 149 196 94
0.21831051 0.28661990 0.01762518 85 129 50
0.21513541 0.28015006 0.00987316 113 166 36
0.22511154 0.28953788 0.02786882 109 161 76
0.22365905 0.28989169 0.02725913 104 156 74
0.20234793 0.23659721 0.04973408 144 188 93
0.21724635 0.31400171 0.03819361 86 136 41
0.22698198 0.27736327 0.01431259 102 139 43
0.22179948 0.27307558 0.01550985 123 162 81
0.19066554 0.22638512 0.06169955 132 179 75
0.19127050 0.22625716 0.06058931 119 166 62
0.21467666 0.25265506 0.02974231 185 225 110
0.21185701 0.30501312 0.03064728 57 91 40
0.21217002 0.30992016 0.03344043 54 118 0
0.21279988 0.28080413 0.01892160 109 151 85
0.21728714 0.31545565 0.03990119 104 149 92
0.21722816 0.30712372 0.03517102 92 134 98
0.19491956 0.24861702 0.05132050 168 184 77
0.21291672 0.27192262 0.01953322 113 127 78
0.22918020 0.26854798 -0.03274704 124 157 86
0.22649005 0.27104339 -0.03399464 96 134 51
0.21175405 0.28270170 0.01376799 96 151 21
0.21174017 0.28226617 0.01196264 73 126 0
0.22878692 0.26461351 -0.02395494 156 172 133
0.22872943 0.26716563 -0.02478432 122 144 97
0.20993909 0.29281220 0.01912981 117 161 46
0.21035329 0.29379824 0.01992455 101 144 36
0.20515342 0.24972805 0.04159336 92 127 11
0.21273538 0.28932557 0.01522775 85 136 7
0.18647136 0.22768210 0.06647594 110 161 56
0.18434276 0.22558700 0.06930906 94 143 34
0.18406084 0.22490135 0.06990079 104 151 47
0.18820095 0.22886065 0.06445371 138 190 80
0.21995749 0.27388024 0.00483166 103 138 70
0.20812862 0.26564541 0.03642124 115 146 19
0.20613794 0.26671338 0.04009510 104 136 3
0.20943333 0.25593576 0.04230641 151 176 58
0.20741786 0.25445345 0.04739452 153 184 57
0.20580924 0.25318503 0.04699282 132 164 39
0.21964903 0.26634079 0.00650332 134 172 131
0.22922131 0.28612712 0.01875051 78 108 44
0.22662467 0.26075977 -0.01938982 145 173 124
0.19990093 0.23452067 0.05359831 168 219 62
0.22848722 0.28479612 0.02044480 57 83 36
0.21642214 0.31552550 0.03879154 66 114 38
0.21531883 0.31565323 0.03876689 75 129 43
0.21980686 0.26444125 0.01446489 77 103 40
0.21527955 0.25509039 0.02198402 110 143 30
0.21073298 0.26665580 0.02366886 175 203 119
0.21169111 0.25894868 0.03241574 211 233 125
0.20167302 0.24210152 0.04077680 105 157 12
0.22247329 0.29440218 0.02906704 125 177 102
0.21959218 0.28400055 0.01450651 75 122 10
0.20942152 0.31625080 0.03928462 40 93 0
0.20710407 0.32080084 0.04106762 113 169 18
0.21302518 0.27489659 0.00681290 29 67 6
0.20893130 0.24466659 0.03885422 171 218 112
0.22960256 0.26474175 -0.02679447 157 176 131
0.21524964 0.29758391 0.02878442 103 144 102
0.20100442 0.24133112 0.04340740 129 181 37
0.19854447 0.24978815 0.05007611 117 136 31
0.22775447 0.28241712 0.02121771 53 63 11
0.21744369 0.26786748 0.01670275 129 160 92
0.20035747 0.24960285 0.04795940 136 157 52
0.22049266 0.30706668 0.03658086 107 160 72
0.22046909 0.30516630 0.03562626 125 181 92
0.21678588 0.29538268 0.02221520 75 121 33
0.21158688 0.31025973 0.03519255 42 91 0
0.22280852 0.28528214 0.01437960 91 130 23
0.22273342 0.28648785 0.01613152 119 144 60
0.22157022 0.28455219 0.02374466 99 146 54
0.19291924 0.22586153 0.05759268 129 166 70
0.19721031 0.22897856 0.05382903 134 186 0
0.19753182 0.23236713 0.05584145 162 214 43
0.20007877 0.24401733 0.04537649 124 166 94
0.19589192 0.24681872 0.05052650 103 143 57
0.21037360 0.29567680 0.02487024 65 101 37
0.20939922 0.28839552 0.02245256 111 154 100
0.19393289 0.24791202 0.05286272 142 159 55
0.19216959 0.23643348 0.05722161 107 154 24
0.19271137 0.23566487 0.05704530 129 178 61
0.20937333 0.24898534 0.02331121 107 144 39
0.21331184 0.25253114 0.02121472 99 130 13
0.20525737 0.24559198 0.03279212 93 138 11
0.20804563 0.24772753 0.03284664 149 193 44
0.20595859 0.24425766 0.03903209 167 210 77
0.22834659 0.28483063 0.02595211 19 26 0
0.20378573 0.24541949 0.04195707 122 161 70
0.21230181 0.24996963 0.02703499 205 242 113
0.22820278 0.29408574 0.02351223 72 98 24
0.22388922 0.30053195 0.03200346 106 155 73
0.22685075 0.29633227 0.02576952 105 159 22
0.20976855 0.25992155 0.04347804 196 211 94
0.21009795 0.26120961 0.04174910 182 199 84
0.21067405 0.24743965 0.03026182 152 196 49
0.21907221 0.28468210 0.02166907 107 143 71
0.21965607 0.30263144 0.03395635 122 175 85
0.19441701 0.22777964 0.05462340 159 211 22
0.19683139 0.22788291 0.05350097 167 218 35
0.21196634 0.25325716 0.03419849 158 190 89
0.19690403 0.24011621 0.05137451 121 170 91
0.19612002 0.23596464 0.05494582 159 209 120
0.22085179 0.27073330 0.01274693 123 162 97
0.21681462 0.28741452 0.02138860 121 157 121
0.21787441 0.28766859 0.02090811 102 134 93
0.21316253 0.27811003 0.00898435 54 100 36
0.21734063 0.29557273 0.02679447 106 143 109
0.21759848 0.29646739 0.02934761 95 132 91
0.19964428 0.25222534 0.14253999 144 165 0
0.19900188 0.25295138 0.13765255 150 167 3
0.19939917 0.25820094 0.13202739 173 197 15
0.19748591 0.24378517 0.15614426 163 185 15
0.19949837 0.24681132 0.15300335 144 159 14
0.22665989 0.22618176 0.21791883 130 174 53
0.21437299 0.24649695 0.17914045 180 222 24
0.20050463 0.26036242 0.14290302 132 149 21
0.19405691 0.24621764 0.15241671 145 163 3
0.19537736 0.24250333 0.15992796 152 171 55
0.19800203 0.24164443 0.16387643 134 158 46
0.22355832 0.23078972 0.20590042 169 216 76
0.20258971 0.25550094 0.15321319 176 182 58
0.19953591 0.25103533 0.14564052 136 151 0
0.19905536 0.25210646 0.13950899 143 161 0
0.20933290 0.24826163 0.17772080 156 180 24
0.20769161 0.24348605 0.17941064 123 145 0
0.20820026 0.24451876 0.17921409 155 178 28
0.20679575 0.24921012 0.17423999 141 156 1
0.20601726 0.25580814 0.16372181 150 167 53
0.20357992 0.26086333 0.15600246 161 172 18
0.20258933 0.25883460 0.15194882 143 155 17
0.20070562 0.25762853 0.14302455 170 182 54
0.20319055 0.26153567 0.15545152 169 178 25
0.21649723 0.22760995 0.18602355 151 178 23
0.20902820 0.26171920 0.16382858 138 156 57
0.21495579 0.26016644 0.17107832 65 63 40
0.19874379 0.24843198 0.14810210 151 166 25
0.19997342 0.25064835 0.14865440 139 156 28
0.20803891 0.23757920 0.17704666 158 181 2
0.20199038 0.25387466 0.15611984 132 147 0
0.20217603 0.25756854 0.15667717 126 149 0
0.20362560 0.25694543 0.16241100 125 140 0
0.20075586 0.25447038 0.15123357 145 159 1
0.20117405 0.26069820 0.15114295 189 200 18
0.20003653 0.25777620 0.14000666 178 193 6
0.20047486 0.25282651 0.14930540 159 171 0
0.19972278 0.25985759 0.14050590 191 208 32
0.20059580 0.26184869 0.14823152 164 176 4
0.21644820 0.23199520 0.19967483 140 179 24
0.23130938 0.22668414 0.21284238 172 207 117
0.20672359 0.24700467 0.17110214 136 150 15
0.21191059 0.24821132 0.17652330 163 195 26
0.20657739 0.25897723 0.16144817 117 138 11
0.20949994 0.25366393 0.17478974 156 179 26
0.21054927 0.25130180 0.17726523 152 181 27
0.21214041 0.25901091 0.17669612 180 215 73
0.21588230 0.22920643 0.18551409 130 160 2
0.20532335 0.23302650 0.17207228 127 162 0
0.22918351 0.23004910 0.20449069 179 221 123
0.22789013 0.23218212 0.20064357 187 235 113
0.22506361 0.23740812 0.19056818 182 215 128
0.23291045 0.22201751 0.22086805 173 201 101
0.22532776 0.22981557 0.20747757 175 221 96
0.20095052 0.24077156 0.16440241 146 167 10
0.19883114 0.24041401 0.16205718 152 179 6
0.20513368 0.25527140 0.16137534 128 141 27
0.19850844 0.24927643 0.14575396 152 170 26
0.19832635 0.25048098 0.14310925 145 162 24
0.19965546 0.25413758 0.14073940 162 179 21
0.22934665 0.22681671 0.21487093 142 182 85
0.19484660 0.23951504 0.16321537 140 161 42
0.19721669 0.23933385 0.16696635 164 185 68
0.22241731 0.24114685 0.18464343 172 214 0
0.22067820 0.24597479 0.18115672 160 198 14
0.21327494 0.24690582 0.17835927 179 220 38
0.21657506 0.22797401 0.20428367 104 140 8
0.22092366 0.22783309 0.21032174 119 165 30
0.20533498 0.25236216 0.16413784 165 177 51
0.20514722 0.25136948 0.16477779 154 166 40
0.22231801 0.22870515 0.21094617 132 180 45
0.23792598 0.21860048 0.23603487 151 168 124
0.23614444 0.21970385 0.23139580 155 179 131
0.19968556 0.26361594 0.14201862 158 173 22
0.22241601 0.23498467 0.19847348 209 253 108
0.22225103 0.23848867 0.19236219 177 227 102
0.22256546 0.23711428 0.19503947 158 209 90
0.21951991 0.24453758 0.18441686 171 227 64
0.22053041 0.24507338 0.18268400 181 224 57
0.21027397 0.23676506 0.17949086 140 169 0
0.23575355 0.21854436 0.22733156 164 188 128
0.20206477 0.24020326 0.16653925 131 153 8
0.20208810 0.24001753 0.16673109 136 159 6
0.22517568 0.22969937 0.19757573 140 172 9
0.22608115 0.23322250 0.19521497 169 200 97
0.21867357 0.23409401 0.18780898 161 195 13
0.21582347 0.23512904 0.18607397 158 188 12
0.23374498 0.22144444 0.23058653 169 208 129
0.19619669 0.24795027 0.14171873 138 157 15
0.19544700 0.24607529 0.14544582 144 164 17
0.20387693 0.24072789 0.17158332 152 171 17
0.20476960 0.24056481 0.17306358 159 176 8
0.20028241 0.24704701 0.15518884 146 161 10
0.20002958 0.24810703 0.15292634 146 158 24
0.21550478 0.25651541 0.17523414 102 106 79
0.21506280 0.25161645 0.17587624 155 187 44
0.21188904 0.23403917 0.18463024 150 175 9
0.21705845 0.23247194 0.18717901 173 203 19
0.21377209 0.24000289 0.18023123 142 167 5
0.22372264 0.22492617 0.20501737 143 182 5
0.22430688 0.22333087 0.20987664 168 205 37
0.22424139 0.22727780 0.20072669 179 216 22
0.19937725 0.23515105 0.16286266 166 189 13
0.20025612 0.23714450 0.16461542 110 137 0
0.20157933 0.25719491 0.14767608 172 178 52
0.21101312 0.25133446 0.17364898 144 171 14
0.20716597 0.25409570 0.16673203 153 169 45
0.20881991 0.23118103 0.17814556 106 135 0
0.23206685 0.22185417 0.21835166 131 168 11
0.19439667 0.24301971 0.15099514 143 167 11
0.19607012 0.24420004 0.15181731 147 167 18
0.21720879 0.24126671 0.18410526 173 215 17
0.20173459 0.23680897 0.16717641 127 156 2
0.21634769 0.25118354 0.17849925 185 220 94
0.20625097 0.25062895 0.16824549 160 170 37
0.20739023 0.24253893 0.17412701 124 146 12
0.20787236 0.24393827 0.17346905 150 169 18
0.22151113 0.22485475 0.20017262 168 210 12
0.20858409 0.22837844 0.18474784 106 127 0
0.22850497 0.22979376 0.20397328 190 230 133
0.20427445 0.24645174 0.16819908 148 165 25
0.23270738 0.22018699 0.22069649 162 199 34
0.22574174 0.22236702 0.21651147 158 201 26
0.22030054 0.22365484 0.20998010 94 136 10
0.21136659 0.25709432 0.17060137 215 236 135
0.22747484 0.22457154 0.22232504 118 157 64
0.20460135 0.24326500 0.17259939 141 161 27
0.20322688 0.24524383 0.16627437 137 156 14
0.20486392 0.24318111 0.17324570 143 161 25
0.20455292 0.24287519 0.17325461 162 178 43
0.20151982 0.24708042 0.15960555 151 168 12
0.20486079 0.25043732 0.16904666 131 148 0
0.20553042 0.24492894 0.17334656 136 157 18
0.20446350 0.25030369 0.16738126 136 153 0
0.20600545 0.24707125 0.17482166 151 167 17
0.20313278 0.25430027 0.16064595 165 181 12
0.20453759 0.24528244 0.16900572 134 150 15
0.20494384 0.24668354 0.17037944 141 154 12
0.19470586 0.24839464 0.14113687 156 175 6
0.19900469 0.24973452 0.15036333 146 162 1
0.20296560 0.25256026 0.15640406 134 148 34
0.20302770 0.25016299 0.15974069 161 174 34
0.21985549 0.22378367 0.20062970 84 120 0
0.20620523 0.26108956 0.16358218 137 151 6
0.21019018 0.26264337 0.16959946 218 226 115
0.20799842 0.25962046 0.16908671 146 165 14
0.21534438 0.25495774 0.17715691 191 225 105
0.22184359 0.22394767 0.21441826 101 141 18
0.21826263 0.22623628 0.20778169 101 139 4
0.23207033 0.26437712 -0.03938141 136 169 116
0.23402266 0.26500756 -0.04684193 141 171 119
0.23353826 0.26307964 -0.04730153 132 166 105
0.23407397 0.26250285 -0.05015712 127 163 99
0.22649282 0.25684628 -0.05723606 122 146 94
0.22576654 0.25156975 -0.06020153 86 111 43
