-0.19219422 0.26053357 0.07608189 232 246 101
-0.31328955 0.27769783 0.06878655 85 114 8
-0.18580566 0.22102202 0.06086607 96 136 1
-0.13874435 0.22928825 0.02304958 34 62 3
-0.14516242 0.22620967 0.03082760 26 55 0
-0.14286338 0.22957005 0.02703147 30 59 0
-0.14284827 0.22916949 0.02719560 50 78 4
-0.15316276 0.23883091 0.02382435 90 117 20
-0.29407191 0.25922626 0.07015626 167 207 23
-0.13490038 0.22747041 0.01981683 37 65 6
-0.13393442 0.22221574 0.01881758 40 69 3
-0.13386750 0.22417451 0.01861392 78 104 17
-0.30697975 0.25372609 0.06449112 137 151 38
-0.16300113 0.22165099 0.04709374 77 108 0
-0.16381243 0.22199681 0.04875153 143 181 36
-0.28439844 0.25482136 0.06706719 175 218 17
-0.30382970 0.25594416 0.06605765 74 84 0
-0.26642054 0.23739319 0.07204711 138 180 10
-0.26062676 0.23735064 0.07134947 115 157 19
-0.29886079 0.26483074 0.07401811 198 228 80
-0.24323563 0.24387854 0.06762865 187 205 5
-0.24352601 0.24872217 0.06849973 195 217 18
-0.28361079 0.25748393 0.06811680 111 144 0
-0.23943232 0.24279122 0.06572943 103 142 1
-0.24254203 0.24207281 0.06700417 168 195 6
-0.26299101 0.26680142 0.07642708 72 102 4
-0.26415133 0.26800638 0.07723239 73 103 7
-0.30735579 0.27281073 0.07629824 83 96 0
-0.31337199 0.27544960 0.06996128 183 197 26
-0.28944519 0.24442990 0.06555459 124 141 9
-0.28499544 0.24648789 0.06619088 184 193 22
-0.29048279 0.28354087 0.08929661 102 133 6
-0.36368853 0.27538651 0.03547946 154 177 27
-0.36657593 0.27495721 0.03704992 69 85 0
-0.37005290 0.27455458 0.03761751 119 133 20
-0.36922577 0.27427500 0.03817176 162 159 20
-0.36010042 0.27326530 0.04126665 170 167 28
-0.27442408 0.25375825 0.06761475 164 191 24
-0.31291118 0.25280708 0.06026579 103 135 10
-0.20923148 0.24444252 0.05741552 198 202 4
-0.20824350 0.24425007 0.05741250 212 217 26
-0.20654747 0.26397288 0.06601918 103 132 42
-0.22171678 0.25997952 0.06603759 51 100 9
-0.22012606 0.23571026 0.06354957 194 206 2
-0.21933840 0.23429261 0.06349864 177 193 8
-0.30581290 0.27748966 0.08008152 145 170 27
-0.15980642 0.22328094 0.04508787 95 123 12
-0.15826720 0.22491986 0.04116236 61 83 0
-0.15751256 0.22508238 0.04223327 87 114 17
-0.15895082 0.22410306 0.04332122 95 124 18
-0.16421281 0.22913648 0.03472466 119 142 12
-0.16974436 0.23772292 0.04033453 102 126 6
-0.30169851 0.28178629 0.08536924 117 145 0
-0.21034792 0.25102738 0.06031474 68 105 0
-0.18926193 0.24295232 0.06151452 153 180 0
-0.18712005 0.24338736 0.06028377 211 246 32
-0.34095943 0.26667154 0.05801623 50 73 1
-0.33924565 0.26668555 0.05926973 66 89 19
-0.28501433 0.26860392 0.07536102 175 214 25
-0.33182332 0.25937837 0.06654527 120 146 81
-0.31502226 0.26304805 0.06136217 50 84 0
-0.31750003 0.26423818 0.05896976 49 88 0
-0.28770566 0.27332038 0.08124138 204 230 21
-0.18907706 0.25958815 0.08094345 123 154 0
-0.18824838 0.26104978 0.08020255 195 224 12
-0.18634899 0.22209606 0.05551703 132 169 27
-0.29918233 0.27725363 0.08576024 156 160 3
-0.34130615 0.25679648 0.06185450 160 190 90
-0.19731092 0.26427090 0.07716470 143 183 51
-0.36658946 0.24416211 0.02976619 85 123 24
-0.16646598 0.23295228 0.03584722 71 93 0
-0.19575812 0.26215398 0.07415222 164 196 11
-0.16588457 0.23935632 0.03545559 60 84 0
-0.20151262 0.24044557 0.05818927 138 167 1
-0.12817825 0.21757530 0.01458602 70 99 7
-0.32009816 0.26148033 0.07292518 133 153 90
-0.31723577 0.26141235 0.07381178 134 157 87
-0.17032371 0.24544019 0.04831760 116 142 6
-0.17042817 0.24611095 0.04867492 99 118 11
-0.21400820 0.24399506 0.05778418 107 146 0
-0.21599497 0.24417137 0.05895144 102 135 0
-0.27040499 0.24765071 0.06909208 197 211 12
-0.27559701 0.24770191 0.06810889 125 159 3
-0.22417571 0.23982628 0.06388387 153 178 0
-0.29249638 0.28057656 0.08843623 97 122 5
-0.36891142 0.23838811 0.02640117 70 109 2
-0.37264213 0.23983057 0.02916681 34 75 0
-0.37069494 0.23811096 0.02566657 58 96 0
-0.16788864 0.25256231 0.05577492 113 145 46
-0.21350539 0.23931873 0.05949843 147 167 0
-0.29093620 0.28333783 0.09328476 142 175 86
-0.25332695 0.25698555 0.07385910 47 79 4
-0.31431606 0.24739403 0.05989239 71 95 17
-0.31477174 0.25090355 0.05904000 77 111 0
-0.31696007 0.24768491 0.05768247 104 129 35
-0.30183500 0.23986147 0.06374843 136 174 35
-0.33151749 0.25673559 0.06829260 116 146 56
-0.32774422 0.25417754 0.07115762 153 176 85
-0.32120430 0.26483005 0.07216347 118 142 48
-0.31592906 0.26294455 0.07428848 157 172 103
-0.36759031 0.24650304 0.03010528 56 97 1
-0.36978969 0.24856988 0.03076971 53 98 0
-0.31328252 0.27315775 0.06951403 98 116 0
-0.27686250 0.26045731 0.06842397 113 164 0
-0.17070194 0.23897302 0.04502803 94 131 0
-0.19502605 0.24481647 0.06208569 226 239 38
-0.21524006 0.22702971 0.06391374 137 184 10
-0.21925969 0.22867239 0.06441970 139 169 19
-0.35426849 0.24566184 0.03673211 45 81 0
-0.19383115 0.24144900 0.06107592 240 248 51
-0.19345121 0.23868923 0.05851627 216 250 5
-0.30107886 0.27316764 0.08269896 106 121 0
-0.30492702 0.27210799 0.07712261 185 194 13
-0.28923005 0.26702344 0.07526308 167 211 28
-0.21122582 0.23035863 0.06320744 89 129 6
-0.20732540 0.25346547 0.06177302 201 219 23
-0.32947451 0.25257957 0.04038058 137 163 36
-0.32929322 0.25353310 0.03977704 105 133 12
-0.33580551 0.26420417 0.04652792 142 163 34
-0.33769965 0.26525795 0.04682639 122 150 29
-0.33834890 0.26557261 0.04682912 114 141 12
-0.21274252 0.22599320 0.06409437 143 184 4
-0.29318783 0.26536790 0.07534534 82 126 0
-0.17145331 0.25027168 0.05366996 69 94 11
-0.20121282 0.23522045 0.05890128 204 212 31
-0.20270970 0.23448476 0.05941352 205 216 38
-0.16953227 0.22735408 0.04113167 159 183 11
-0.18860188 0.23628223 0.05742039 96 112 39
-0.19621317 0.23013079 0.05840308 98 119 24
-0.19255501 0.23437442 0.05811836 141 156 39
-0.22278136 0.26098797 0.07007014 172 194 85
-0.28279299 0.26563320 0.07267010 57 105 0
-0.28571737 0.26089764 0.07037847 129 179 0
-0.22776683 0.25702998 0.07091897 147 168 11
-0.18312268 0.25340167 0.06162492 96 124 39
-0.18063201 0.25303668 0.05946827 109 134 43
-0.19467504 0.22831503 0.05811345 73 103 13
-0.19608587 0.22942320 0.05837958 111 139 39
-0.19791663 0.22441451 0.06043830 112 159 0
-0.17772955 0.22204231 0.05167752 98 121 0
-0.27318355 0.26221204 0.07006644 184 221 20
-0.31623700 0.27276978 0.06183772 128 149 18
-0.31684604 0.27149323 0.06069330 114 133 8
-0.35023254 0.26926288 0.05054649 152 158 26
-0.16261238 0.24404567 0.03382315 73 103 0
-0.15829593 0.23505433 0.02850645 84 110 0
-0.16043855 0.23738700 0.03073381 68 95 0
-0.15827049 0.23954639 0.02848537 68 103 0
-0.17718372 0.25784987 0.07528423 120 161 5
-0.31378341 0.27258903 0.06907489 105 115 2
-0.17366663 0.24686453 0.05248749 120 137 25
-0.15642627 0.24330133 0.02728920 68 90 15
-0.16941519 0.23653688 0.06131653 175 205 135
-0.16538881 0.23184635 0.05933257 119 164 59
-0.17461510 0.23379417 0.06615189 131 178 82
-0.17022400 0.23320431 0.06281925 124 171 67
-0.16610457 0.23130080 0.06004155 134 179 76
-0.27247059 0.25876901 0.06903449 162 203 11
-0.22246377 0.25821272 0.06478239 152 185 18
-0.22723289 0.25469688 0.06468761 178 203 13
-0.25431123 0.23831075 0.07018960 97 125 6
-0.25541103 0.23848554 0.07037648 92 122 8
-0.17349929 0.23864581 0.04935979 133 165 22
-0.17105263 0.24191694 0.04779134 78 121 5
-0.22196095 0.24777299 0.06094840 101 128 0
-0.22210211 0.25014782 0.06098847 214 212 49
-0.29104146 0.25760868 0.06941290 156 201 12
-0.22026369 0.25374770 0.06097085 97 124 0
-0.22103694 0.25352910 0.06108261 85 115 3
-0.37109479 0.23622476 0.02158996 76 100 40
-0.22246291 0.24543919 0.06174238 108 134 9
-0.22270286 0.24694669 0.06139259 78 108 0
-0.30517691 0.28136212 0.08068947 71 112 0
-0.29563832 0.24473950 0.06495939 111 133 51
-0.29371062 0.24599335 0.06564881 138 151 45
-0.32055277 0.26310742 0.05451513 59 94 4
-0.18743321 0.25018066 0.06292337 97 117 4
-0.18022782 0.25590360 0.08297497 161 191 15
-0.17526975 0.25488773 0.08374551 115 150 0
-0.23311333 0.25072104 0.06442825 210 220 37
-0.23186313 0.25572056 0.06618404 144 178 22
-0.27569169 0.25289083 0.06711835 188 209 10
-0.22688505 0.25749016 0.06690618 156 186 13
-0.28727293 0.28107145 0.08625557 86 115 0
-0.32493904 0.26693627 0.04678036 88 113 11
-0.23863670 0.24860351 0.06634822 127 158 2
-0.23671705 0.24946506 0.06567328 189 207 9
-0.16817769 0.25133976 0.04773147 81 111 25
-0.16874216 0.25085926 0.04805485 79 109 23
-0.32686323 0.26071849 0.04351541 108 146 33
-0.34233478 0.26398182 0.03897607 69 86 0
-0.22846346 0.23760249 0.06427071 113 134 5
-0.23370734 0.24139136 0.06444073 114 156 12
-0.23798379 0.25345135 0.06733163 105 143 32
-0.19226258 0.21547957 0.06487451 172 208 38
-0.32342324 0.25688916 0.04868525 58 88 0
-0.32218391 0.25839683 0.05032356 96 133 27
-0.20692722 0.22670239 0.06369248 116 164 0
-0.36017063 0.27432814 0.03595246 135 164 22
-0.17452954 0.25459152 0.05805049 123 156 65
-0.21122389 0.25883746 0.06301647 148 177 27
-0.21202637 0.25776917 0.06207908 49 91 7
-0.19060168 0.25456670 0.06560998 111 137 46
-0.21786511 0.25999945 0.06454662 49 91 17
-0.21646473 0.26253611 0.06661939 45 90 0
-0.35013899 0.26999992 0.04875292 165 168 37
-0.34751275 0.26889357 0.04457303 51 69 0
-0.21058030 0.24905284 0.05871444 219 220 22
-0.17565531 0.26030993 0.07078363 77 119 21
-0.18987142 0.24444510 0.06241699 225 238 34
-0.20083568 0.26235887 0.06669037 91 128 48
-0.21198194 0.26163164 0.06533121 70 120 31
-0.20463708 0.24816322 0.06130596 112 144 0
-0.20474428 0.26101997 0.06549160 105 128 22
-0.20150197 0.26167575 0.06677274 68 107 14
-0.19277276 0.24562106 0.06292676 189 220 3
-0.29674187 0.28158739 0.09023207 130 150 29
-0.34360269 0.26006991 0.05975021 107 130 76
-0.20752409 0.24647231 0.05767969 94 122 0
-0.21093400 0.24808583 0.05775352 95 121 0
-0.20063365 0.25474215 0.06571703 102 148 0
-0.19830850 0.25556844 0.06692319 90 120 8
-0.22637901 0.26116183 0.06969589 172 207 81
-0.20445168 0.24528721 0.05933232 220 232 24
-0.35654238 0.27228123 0.04359600 118 133 14
-0.35790190 0.27021545 0.04646878 183 182 29
-0.17535052 0.25675604 0.07988501 154 178 2
-0.17614846 0.25591168 0.08027808 89 120 0
-0.20516989 0.24097522 0.05761857 170 185 8
-0.20903164 0.25609940 0.06212602 60 107 1
-0.14993116 0.23975298 0.02288951 62 89 8
-0.30983129 0.27844352 0.07623807 115 148 0
-0.20086524 0.22187358 0.07028113 200 231 128
-0.19357935 0.22049534 0.07382064 165 190 46
-0.19394916 0.22096498 0.07354520 132 164 21
-0.16770551 0.25587946 0.05685548 107 143 17
-0.17228040 0.25840074 0.06007570 96 132 6
-0.17414898 0.23409300 0.04903943 96 125 9
-0.33515421 0.26207197 0.03866249 110 134 36
-0.33382204 0.26164451 0.03771005 108 136 26
-0.35159525 0.26819816 0.03604522 100 122 22
-0.35001758 0.26731628 0.03627547 115 138 32
-0.36660975 0.27361032 0.02910258 91 118 15
-0.36425632 0.27303988 0.02995761 78 107 25
-0.35771120 0.26485634 0.03033005 110 130 9
-0.35334209 0.26627162 0.03217532 77 104 11
-0.28280431 0.25389594 0.06638847 150 188 15
-0.36155325 0.27354950 0.03226670 103 129 20
-0.35317919 0.27082357 0.03736067 76 101 0
-0.34708774 0.26685929 0.04063240 94 109 6
-0.35840765 0.27376750 0.03779975 145 166 39
-0.31716245 0.27506009 0.06191408 60 90 0
-0.31679729 0.27020568 0.06055236 105 136 7
-0.32859984 0.26075152 0.04095551 60 101 0
-0.36576653 0.27630669 0.03405435 86 105 0
-0.32365447 0.26868400 0.04847789 150 175 45
-0.36196050 0.26862174 0.02988727 90 112 11
-0.36105800 0.26963791 0.03056386 65 86 0
-0.33726361 0.24385734 0.03974538 163 196 57
-0.33284467 0.24850924 0.03931720 148 175 36
-0.29906458 0.27450743 0.08408754 120 133 0
-0.34974343 0.26785603 0.03854363 49 68 0
-0.34743294 0.26574871 0.03612063 47 71 0
-0.29277864 0.27992555 0.09292265 119 153 30
-0.25643834 0.23591496 0.07051954 111 154 13
-0.20181097 0.25339845 0.06412800 186 210 26
-0.33769506 0.23905732 0.04240488 87 123 27
-0.30240607 0.27718931 0.08350325 132 147 20
-0.32565579 0.25635031 0.04596500 104 139 11
-0.25034973 0.24214992 0.06949025 157 187 3
-0.25767633 0.24170111 0.07057420 105 133 14
-0.29109046 0.25120702 0.06631456 149 169 0
-0.29055893 0.24980085 0.06576984 144 167 14
-0.26150995 0.24547412 0.06991068 182 199 0
-0.25931227 0.24623799 0.06959584 160 178 0
-0.28344834 0.27941898 0.09305764 187 222 120
-0.30778813 0.27974150 0.07813715 92 121 13
-0.29969010 0.26866636 0.07862638 110 152 6
-0.30040982 0.27108857 0.08297376 179 187 49
-0.32265428 0.25183877 0.05112160 108 134 1
-0.32347125 0.25179973 0.05004046 114 141 2
-0.29414865 0.28062442 0.09274557 65 101 0
-0.29480943 0.28147191 0.09685744 176 205 65
-0.26636142 0.24033722 0.07144661 97 134 28
-0.26744744 0.24089848 0.07136199 85 122 19
-0.30236393 0.26975948 0.07740405 123 163 14
-0.27512604 0.23868886 0.07130233 123 162 7
-0.26735470 0.25172666 0.06917980 200 210 0
-0.26941431 0.24745527 0.06936369 152 168 0
-0.29250640 0.24642743 0.06570190 196 201 59
-0.28813872 0.23923279 0.06812289 131 174 24
-0.28663024 0.23913790 0.06860394 127 167 16
-0.24628364 0.24719207 0.06905837 96 140 1
-0.25309798 0.24758360 0.06893837 125 153 17
-0.32200095 0.24521232 0.05514807 54 87 6
-0.31433195 0.24380505 0.06044003 68 104 14
-0.29968306 0.27001494 0.07976207 141 159 0
-0.29249588 0.27815819 0.08860431 156 167 36
-0.29366225 0.23949091 0.06577834 120 163 21
-0.29123688 0.23779418 0.06757765 177 212 24
-0.20284881 0.22247030 0.06893497 141 174 59
-0.20251803 0.22137414 0.06861321 197 227 93
-0.29772839 0.24778137 0.06518415 183 183 87
-0.29846564 0.24679293 0.06478339 107 117 31
-0.33069423 0.24144085 0.05084933 61 108 0
-0.29882392 0.27647844 0.08466440 222 229 51
-0.31356794 0.24641396 0.06047954 92 118 47
-0.29266986 0.26882493 0.07856637 50 90 0
-0.17760940 0.25573331 0.05890913 56 84 0
-0.27005073 0.24188635 0.07109653 123 161 58
-0.33072850 0.24737169 0.04302556 136 159 45
-0.32810611 0.25118840 0.04454130 76 103 0
-0.19028609 0.21377726 0.06979922 156 175 33
-0.19534329 0.21342337 0.07222553 159 168 25
-0.29549256 0.25492549 0.06738150 172 196 36
-0.29443532 0.26994956 0.07976415 135 180 25
-0.32772309 0.23867524 0.05607779 113 149 43
-0.33659005 0.24038102 0.04204725 47 82 0
-0.33338103 0.24626273 0.04022900 112 140 21
-0.33729142 0.23976007 0.04168605 54 91 0
-0.33149070 0.24220382 0.04760421 59 98 15
-0.30163932 0.28185403 0.08418892 98 128 0
-0.16359015 0.24569374 0.03533801 68 99 0
-0.35328123 0.24165240 0.03888731 100 142 14
-0.28554228 0.27494639 0.08242235 85 114 0
-0.27953061 0.27884793 0.08485669 106 143 30
-0.34404230 0.26463592 0.05814027 119 137 79
-0.28598648 0.28258511 0.08816543 80 119 13
-0.28774384 0.28363752 0.08904800 81 118 12
-0.27622825 0.24178582 0.07024921 68 110 8
-0.27741459 0.24299380 0.06930570 81 109 0
-0.34979472 0.24793449 0.03939489 50 80 0
-0.33260718 0.25599900 0.03694372 93 123 1
-0.34986231 0.23576917 0.04164876 109 155 7
-0.35476062 0.23760974 0.03937460 160 184 26
-0.15308303 0.22321773 0.04331388 43 71 0
-0.15956399 0.22796562 0.05388458 149 192 87
-0.15727325 0.22632946 0.05019177 111 149 64
-0.31924808 0.23688108 0.06108978 113 143 0
-0.29300082 0.27317205 0.08187585 200 213 20
-0.16543308 0.22249871 0.04075888 103 135 12
-0.25728437 0.24861316 0.06896695 134 149 4
-0.26372918 0.24926400 0.06963775 116 139 0
-0.34720489 0.24716480 0.03899453 82 111 19
-0.34591603 0.24786100 0.03858738 61 90 0
-0.31207088 0.26740891 0.07631814 165 182 16
-0.31053653 0.26616031 0.07725503 144 165 12
-0.23437922 0.25513560 0.06636592 182 208 21
-0.16633600 0.25378829 0.05175602 106 139 22
-0.16593851 0.25587034 0.05288756 86 123 9
-0.25623238 0.25335222 0.07130064 55 94 5
-0.25732896 0.25218037 0.07043757 76 106 10
-0.34626114 0.26702285 0.05455044 105 130 13
-0.34442765 0.26717544 0.05393040 118 140 29
-0.17412733 0.23586451 0.04919093 157 184 17
-0.17999783 0.25987825 0.06558721 106 135 25
-0.34474957 0.23506035 0.04501150 97 123 22
-0.34226140 0.23661324 0.04461625 130 162 53
-0.29753247 0.26232496 0.07083654 173 219 33
-0.17819527 0.24339709 0.05468385 106 143 14
-0.17927101 0.24642834 0.05688398 163 183 34
-0.33425790 0.26497445 0.05051712 80 110 0
-0.34116575 0.26680681 0.04846753 138 158 27
-0.19995713 0.22435285 0.06135103 145 184 13
-0.20128906 0.22612868 0.06146421 76 125 0
-0.29774982 0.27195260 0.08543896 227 241 92
-0.22441955 0.25678965 0.07316975 124 153 0
-0.17478217 0.22865248 0.06508049 85 126 22
-0.17801610 0.22864731 0.06712352 122 165 32
-0.17512378 0.22895972 0.06537168 91 132 26
-0.17669602 0.23363568 0.06751078 148 189 95
-0.17468315 0.23362295 0.06623524 131 178 82
-0.16783512 0.22971645 0.06094953 141 183 71
-0.17124163 0.23097339 0.04348085 132 161 33
-0.34391657 0.25973600 0.05967158 128 151 99
-0.28723961 0.28100482 0.09508307 167 197 109
-0.22710571 0.25590757 0.07501417 154 181 4
-0.22137353 0.25768882 0.07456798 185 199 0
-0.35305968 0.25113004 0.03637365 111 138 23
-0.28950033 0.27493575 0.08403001 141 157 0
-0.29736418 0.27897158 0.08565437 222 224 52
-0.16748647 0.25999150 0.05840541 115 159 24
-0.30411264 0.28420514 0.08462099 130 164 25
-0.18833682 0.22669376 0.07387245 136 167 29
-0.18960018 0.22450842 0.07412548 239 253 70
-0.18300852 0.22601542 0.06996478 156 192 8
-0.34218153 0.24653068 0.03802333 167 192 30
-0.34732953 0.24087892 0.04026753 74 114 0
-0.34595379 0.25704619 0.03490923 87 113 0
-0.34653747 0.25614417 0.03461267 162 185 42
-0.28597265 0.27781591 0.08406699 100 125 7
-0.18551350 0.25636259 0.06527245 103 135 50
-0.17504242 0.22573677 0.04815881 164 175 34
-0.17602412 0.22532763 0.04902193 192 197 68
-0.19475619 0.26360658 0.07625616 165 189 15
-0.32488662 0.25514174 0.07212521 134 162 62
-0.32199401 0.25737369 0.07259639 127 163 57
-0.31195745 0.27231801 0.06961971 116 142 15
-0.30988163 0.27330947 0.07278915 183 185 22
-0.32180548 0.26416260 0.07196581 156 174 100
-0.21989889 0.25516212 0.06154831 193 207 10
-0.22386201 0.25448567 0.06227064 159 180 17
-0.33777896 0.25821298 0.06433897 115 141 67
-0.31473011 0.27495584 0.06797849 177 195 25
-0.31616336 0.27294216 0.06321359 139 169 0
-0.19726117 0.25107890 0.06415042 185 223 24
-0.30284846 0.28276786 0.08386408 113 160 30
-0.14075652 0.22417055 0.03271045 56 88 3
-0.13845690 0.22444336 0.03271183 143 177 93
-0.19283797 0.22106396 0.05916524 132 178 9
-0.19320655 0.21832716 0.06079472 144 175 20
-0.28025624 0.24806175 0.06693254 133 168 6
-0.27871063 0.25081950 0.06639171 190 218 12
-0.33366945 0.23775256 0.04976863 72 109 4
-0.32889593 0.23924263 0.05521292 116 153 39
-0.32733497 0.23768029 0.05648629 54 86 1
-0.23949647 0.25300649 0.07209056 124 160 2
-0.18383354 0.25920841 0.07395064 82 123 17
-0.17520761 0.22872588 0.04952185 88 114 13
-0.17737922 0.22590324 0.05049601 188 194 72
-0.32865059 0.26120043 0.06774419 130 151 95
-0.19839065 0.21835405 0.06419650 180 200 67
-0.20503682 0.26579976 0.07604697 183 216 47
-0.35698780 0.25460425 0.03346495 163 175 17
-0.35805872 0.25743592 0.03203947 132 142 0
-0.19714719 0.26432106 0.07910100 194 219 4
-0.33918631 0.25137225 0.03664687 160 183 53
-0.33903560 0.25670785 0.03551454 99 131 32
-0.33494610 0.26530376 0.06319021 110 128 44
-0.33121687 0.26376989 0.06572422 144 159 92
-0.30357039 0.27864593 0.08362408 187 200 58
-0.32394752 0.26641604 0.05450268 109 128 21
-0.31307331 0.23745057 0.06295945 191 221 25
-0.31491035 0.24074993 0.06157041 107 144 0
-0.33560559 0.26401109 0.04605311 62 79 0
-0.34806800 0.26934254 0.04249384 100 128 17
-0.29849768 0.26667371 0.07711247 92 129 26
-0.33517680 0.26679555 0.06203789 96 118 18
-0.33874470 0.26667550 0.05525002 119 138 20
-0.17164867 0.24744509 0.05046825 86 104 4
-0.17109862 0.24845217 0.05035614 75 98 7
-0.17638320 0.23671322 0.05171346 163 192 12
-0.26747489 0.25988337 0.07084993 72 109 0
-0.26811281 0.25782490 0.06992484 161 196 16
-0.18294278 0.25618052 0.07941369 225 242 65
-0.32486674 0.26645952 0.06649109 90 107 0
-0.32302612 0.26570910 0.06938472 150 180 50
-0.33054167 0.26668864 0.06418022 80 103 0
-0.31892005 0.26865637 0.06409501 106 131 11
-0.20238002 0.26409283 0.07551876 191 217 46
-0.20431319 0.26145637 0.07440103 108 142 3
-0.22540396 0.26080313 0.06979705 130 159 51
-0.19999033 0.21595152 0.06763973 173 194 31
-0.29436845 0.27372378 0.08568417 202 207 42
-0.17981145 0.22683865 0.06790461 63 105 3
-0.17944396 0.23149140 0.06878993 142 183 55
-0.18009526 0.22875412 0.06858286 135 180 51
-0.20626788 0.22206996 0.06625156 200 224 74
-0.20554475 0.22316797 0.06752705 164 192 22
-0.34575444 0.26080257 0.03447544 47 71 0
-0.34467274 0.25719124 0.03510548 122 146 10
-0.34404507 0.25981972 0.03470750 59 85 0
-0.16690020 0.24922512 0.04422814 70 95 3
-0.16727968 0.24601001 0.04329833 131 173 11
-0.17676634 0.25592205 0.08068071 92 132 0
-0.17707887 0.25589275 0.08390298 110 148 0
-0.24060158 0.25395992 0.07488632 76 107 3
-0.24456823 0.25555167 0.07524973 90 129 12
-0.22137672 0.26589319 0.07294764 94 134 1
-0.18169965 0.24790512 0.05891686 122 146 0
-0.17901574 0.24856758 0.05779030 205 222 90
-0.27369297 0.27169663 0.07588228 46 80 6
-0.26631188 0.26764464 0.07620131 57 91 4
-0.26599142 0.26421708 0.07326923 23 51 0
-0.19134487 0.22806066 0.07358807 135 173 60
-0.19091088 0.22720246 0.07385790 144 169 39
-0.17188922 0.22818537 0.04535735 117 146 6
-0.16722952 0.22110946 0.04350395 50 79 0
-0.16975056 0.22319530 0.04390378 100 129 10
-0.19809498 0.23667249 0.05822143 178 210 2
-0.19234796 0.23611775 0.05788136 143 152 63
-0.23381659 0.25656167 0.06934786 79 115 15
-0.13408969 0.22137874 0.02445238 80 116 20
-0.13758136 0.22166742 0.02539485 37 65 7
-0.28313965 0.24091929 0.06873998 113 155 47
-0.30000818 0.24128665 0.06388845 86 124 23
-0.29611889 0.24014917 0.06479529 70 111 0
-0.20299754 0.22214374 0.06257794 121 157 0
-0.33087158 0.26371732 0.03941334 107 137 23
-0.16783164 0.24108614 0.03973453 126 150 12
-0.16662283 0.24318446 0.04038149 147 178 12
-0.33132628 0.26433650 0.04689732 131 156 26
-0.28636444 0.28296584 0.09243936 143 179 91
-0.17716110 0.25788873 0.06148672 106 140 46
-0.17743085 0.25617203 0.05919068 93 122 38
-0.31900850 0.27261183 0.05653242 51 82 0
-0.34495825 0.25301638 0.03632722 170 185 24
-0.34593850 0.24905789 0.03845273 168 195 38
-0.18305649 0.24484771 0.05835804 186 199 67
-0.18442859 0.23920971 0.05630365 82 100 52
-0.18074732 0.24240741 0.05571746 133 164 0
-0.26344994 0.26219350 0.07283886 39 69 0
-0.23785323 0.23942497 0.06492557 115 146 9
-0.24012229 0.23959689 0.06543868 106 137 0
-0.30884740 0.28062913 0.07501584 72 105 0
-0.18243109 0.25570470 0.06214029 39 69 0
-0.31648242 0.26961187 0.07019121 91 115 5
-0.19872047 0.23970176 0.05892064 107 145 0
-0.19724667 0.24407391 0.06119500 144 170 8
-0.26366729 0.26310927 0.07325693 75 104 11
-0.17400514 0.26121244 0.06901671 70 110 11
-0.20504904 0.23020186 0.06169815 73 111 0
-0.20615217 0.23136874 0.06149158 86 115 0
-0.32608116 0.24092335 0.05623889 73 113 0
-0.20866522 0.24961269 0.05964175 198 216 34
-0.20545430 0.22138250 0.06347557 129 167 20
-0.19130361 0.25238115 0.07722314 234 243 124
-0.19996031 0.21948294 0.06296216 142 171 19
-0.17348422 0.22319967 0.05510945 67 93 0
-0.26409277 0.26030511 0.07192439 60 85 2
-0.26023406 0.25641993 0.07154299 58 92 8
-0.25171024 0.26006287 0.07624019 68 100 1
-0.24997041 0.25877237 0.07606090 55 83 0
-0.20323925 0.26552883 0.07581449 180 212 17
-0.32663482 0.26667538 0.04601783 84 106 6
-0.28969994 0.26143709 0.07144187 138 188 11
-0.31812409 0.26954430 0.05760797 127 146 31
-0.18720390 0.25944680 0.07259712 147 168 27
-0.18444592 0.25875047 0.07198130 89 128 13
-0.30850106 0.27134290 0.07243714 134 159 15
-0.30881360 0.26672164 0.06915852 97 132 30
-0.24670887 0.25462925 0.07381053 49 83 0
-0.19237518 0.24948056 0.06359942 120 155 3
-0.22796011 0.25090531 0.06306837 192 207 26
-0.34107146 0.26379183 0.05994103 144 162 100
-0.24311747 0.25152159 0.07053848 137 167 21
-0.24467683 0.25175261 0.07037672 131 166 10
-0.19645461 0.21502146 0.07362020 196 219 49
-0.19229075 0.21466425 0.07161964 138 142 32
-0.36556536 0.26198444 0.02995126 189 208 54
-0.36148238 0.26501712 0.02954952 92 123 0
-0.24911389 0.23849168 0.06904353 102 132 2
-0.35652292 0.25023043 0.03365602 88 117 25
-0.35739568 0.24536124 0.03392383 30 71 0
-0.24458861 0.23571762 0.06644405 167 185 15
-0.17969516 0.22354762 0.06691270 158 190 19
-0.18587500 0.21710792 0.06915507 102 145 3
-0.18616347 0.22175196 0.07090746 135 165 19
-0.18704630 0.21786518 0.07023917 107 149 5
-0.35817757 0.24479970 0.03325499 56 98 0
-0.23251632 0.24871804 0.06396373 69 102 0
-0.21027380 0.26580292 0.07590820 192 221 19
-0.20720808 0.26529181 0.07385916 170 186 25
-0.31757739 0.26881778 0.07177342 168 186 6
-0.24651004 0.23537791 0.06697731 144 175 9
-0.23581572 0.23403035 0.06457207 175 198 20
-0.18325098 0.25874507 0.07852529 119 144 0
-0.18592757 0.26042670 0.07815392 126 154 7
-0.31380191 0.27760503 0.06602843 87 114 17
-0.36450735 0.24389404 0.02962499 28 60 0
-0.36025816 0.26202390 0.03065710 172 192 69
-0.24000145 0.23420458 0.06558124 110 127 0
-0.33347571 0.25064704 0.03842042 124 151 18
-0.33410203 0.25579292 0.03654885 122 157 29
-0.33252382 0.25251094 0.03806110 52 79 0
-0.36948591 0.25531122 0.03151040 40 66 1
-0.36769781 0.25721133 0.03117580 80 98 14
-0.22960505 0.23238115 0.06483770 161 187 51
-0.35729736 0.25191519 0.03345627 102 126 0
-0.19727406 0.22260316 0.06065678 143 188 0
-0.19418792 0.22154485 0.05958673 142 187 9
-0.36811984 0.26744395 0.02821314 135 155 4
-0.36962599 0.26582673 0.02879170 86 108 0
-0.35933122 0.23944625 0.03433873 40 75 0
-0.35652256 0.24148419 0.03650716 107 147 15
-0.19676226 0.22515292 0.07191487 162 178 28
-0.19769174 0.22717544 0.07137540 237 255 109
-0.18759502 0.21511656 0.06644029 81 118 2
-0.32711625 0.26618850 0.05586432 145 159 20
-0.32408509 0.26713035 0.05934730 67 92 1
-0.33041748 0.26705521 0.05910826 132 151 23
-0.32759917 0.26729867 0.06085158 81 103 0
-0.33656123 0.26594135 0.05343608 83 100 0
-0.31089610 0.27152780 0.07155703 85 102 0
-0.31178105 0.27067116 0.07193743 147 162 17
-0.19086486 0.26076895 0.06845151 97 139 11
-0.30120814 0.27070430 0.08188393 174 177 36
-0.30541235 0.27019128 0.07963221 153 157 8
-0.32049775 0.26889792 0.05280885 131 165 53
-0.23264217 0.25464979 0.07711146 132 165 12
-0.23653385 0.25345737 0.07507763 44 79 0
-0.29801428 0.25516066 0.06739026 186 210 34
-0.16980736 0.22354910 0.05466758 142 178 30
-0.16937916 0.22412944 0.05579585 67 101 7
-0.30722195 0.26756713 0.07899595 207 220 27
-0.21640413 0.26608333 0.07390175 158 197 6
-0.35996673 0.25373814 0.03234699 114 135 16
-0.36901730 0.25160161 0.03103584 50 90 4
-0.36730054 0.24881504 0.03036813 61 103 5
-0.31816581 0.27243733 0.05695888 65 97 0
-0.17935240 0.22389223 0.06252136 99 132 19
-0.30462494 0.26834187 0.07349605 82 120 21
-0.30785042 0.26465189 0.06877543 127 162 18
-0.15978703 0.22670209 0.03647218 67 93 6
-0.15904169 0.22626168 0.03736880 62 85 0
-0.15511513 0.22753610 0.03694922 114 140 30
-0.36472535 0.25298846 0.03144792 41 69 11
-0.17627978 0.25063619 0.07780871 212 236 76
-0.17838573 0.25148392 0.07612921 150 182 81
-0.28369990 0.27212462 0.07754391 104 135 16
-0.32115984 0.26930135 0.05313488 110 136 13
-0.35355893 0.25881237 0.03080031 151 165 26
-0.32710990 0.24437022 0.05204480 30 73 0
-0.32664835 0.24401294 0.05333026 27 70 0
-0.37187830 0.25766686 0.03094638 74 102 44
-0.36953464 0.26064706 0.03028437 96 115 0
-0.29659435 0.25613233 0.06804361 181 209 47
-0.18018980 0.25995517 0.06743581 144 167 50
-0.31991959 0.26900974 0.06867752 104 123 15
-0.31351808 0.27763158 0.06838874 87 110 4
-0.22956000 0.25516042 0.07436243 105 134 6
-0.18613929 0.22103173 0.05805781 112 145 14
-0.18491583 0.22131953 0.05860183 117 148 31
-0.30978057 0.28040484 0.07460704 99 130 1
-0.32401985 0.26789778 0.06372515 110 127 23
-0.18246987 0.22179927 0.05727506 118 151 18
-0.31592044 0.27461672 0.06148590 64 100 12
-0.31630325 0.27580968 0.06096109 80 117 1
-0.31999487 0.26826492 0.06155547 112 121 14
-0.33061159 0.26227480 0.03928822 105 136 9
-0.33022240 0.26157346 0.03970038 128 161 30
-0.23784649 0.25328785 0.07297536 129 163 4
-0.17581902 0.23023139 0.05045832 166 188 27
-0.17622536 0.23209612 0.05095075 158 185 28
-0.20704165 0.26491868 0.07315283 231 239 78
-0.19634444 0.26315695 0.06908774 138 173 21
-0.20078076 0.26340988 0.07022548 110 145 3
-0.18504958 0.21742409 0.06673177 124 163 12
-0.18472897 0.22054833 0.06286634 113 150 0
-0.18189688 0.25069913 0.07481484 179 206 109
-0.13153157 0.21908563 0.01969719 70 100 14
-0.13367116 0.22025418 0.02102469 49 77 2
-0.14168023 0.23155558 0.02345211 53 84 6
-0.14423282 0.23529586 0.02170991 58 95 17
-0.14502530 0.23127133 0.02729601 115 140 22
-0.14247140 0.23133296 0.02454488 96 125 19
-0.18645974 0.25210911 0.07632865 177 214 118
-0.16974559 0.22090095 0.04593506 74 101 0
-0.17018181 0.22204438 0.05125292 78 107 1
-0.31811956 0.27115288 0.05818027 145 165 14
-0.17472447 0.22451419 0.06120840 93 123 11
-0.16978768 0.23167761 0.04032394 116 135 7
-0.14424691 0.22386515 0.03166491 49 79 5
-0.15073177 0.23000871 0.03470195 107 134 27
-0.15087828 0.22551548 0.03898342 60 90 2
-0.14863360 0.22597398 0.03558107 65 99 12
-0.14905167 0.22404481 0.04109290 90 126 28
-0.14175217 0.22325183 0.03036067 38 68 6
-0.14521903 0.22379813 0.03592117 81 118 15
-0.32192510 0.27020890 0.05082219 126 152 16
-0.27285138 0.25309584 0.06795228 147 175 5
-0.27068216 0.25509995 0.06873488 146 181 16
-0.20203324 0.26415101 0.06670240 61 98 21
-0.18694788 0.23707131 0.05695503 145 158 50
-0.18447347 0.23825425 0.05605475 100 114 37
-0.18252468 0.23774149 0.05531606 111 133 33
-0.31242588 0.26320985 0.06390411 39 76 0
-0.31246227 0.26252210 0.06361273 69 108 0
-0.19905984 0.26324978 0.07372254 114 133 0
-0.22031224 0.26249558 0.06936461 189 206 40
-0.19377063 0.21763128 0.06148559 134 171 16
-0.19479416 0.25915205 0.06791564 91 136 31
-0.29546282 0.26635063 0.07674140 86 115 9
-0.32163978 0.26763913 0.05118601 105 139 42
-0.22112907 0.26180807 0.06857794 134 156 19
-0.20484443 0.25103900 0.06186332 225 227 20
-0.30545539 0.24134453 0.06318205 94 139 10
-0.30789068 0.23873104 0.06344279 139 169 0
-0.18770890 0.22648798 0.05553022 117 147 33
-0.18160853 0.22497524 0.05283505 86 113 20
-0.17385088 0.26131123 0.06500708 74 109 15
-0.17542522 0.26036602 0.06452290 137 176 25
-0.33558139 0.26124850 0.03536978 148 175 60
-0.33921355 0.26258641 0.03620031 52 71 0
-0.27864662 0.26428458 0.07086544 109 153 0
-0.20733376 0.26403135 0.06805658 123 154 61
-0.22251657 0.26561368 0.07255789 95 135 0
-0.20897160 0.22288880 0.06376230 123 156 5
-0.31189647 0.24387126 0.06120898 95 136 32
-0.30526760 0.24463198 0.06270701 69 89 38
-0.21553524 0.26224369 0.07245636 185 208 38
-0.21682703 0.26170218 0.07223931 152 174 4
-0.19011571 0.26079121 0.07155468 125 155 5
-0.22144571 0.26563212 0.07245255 120 153 12
-0.21964878 0.26363632 0.07039785 117 140 0
-0.21489960 0.26608297 0.07481016 96 127 0
-0.22760835 0.25333470 0.06358939 72 106 0
-0.19576336 0.26404431 0.07772680 163 200 8
-0.31120417 0.27654678 0.07444837 189 199 16
-0.30734411 0.27491784 0.07694453 162 167 21
-0.29008740 0.27813044 0.09534585 157 192 27
-0.24663205 -0.07363072 0.09582467 112 145 4
-0.23872240 -0.07116653 0.11481741 113 144 74
-0.23532306 -0.07820760 0.05210124 80 116 20
-0.23247898 -0.07944135 0.04114136 36 70 0
-0.24228808 -0.06435626 0.11616404 53 95 13
-0.23596917 -0.08007135 0.06260248 103 138 36
-0.23588985 -0.08055752 0.06149360 118 153 49
-0.24397370 -0.08090461 0.05525243 83 111 62
-0.24507080 -0.07833696 0.10125577 116 141 57
-0.24373929 -0.07051206 0.08373743 108 147 6
-0.24404213 -0.07893375 0.09973673 123 149 78
-0.24468093 -0.07685606 0.10689697 140 157 105
-0.24158359 -0.07541684 0.11038610 146 167 100
-0.24478611 -0.07249380 0.11318795 152 162 127
-0.24338473 -0.06806141 0.11834394 173 190 120
-0.23903309 -0.07960624 0.08828098 159 188 104
-0.24056022 -0.08071920 0.04928552 60 93 14
-0.23517603 -0.08132319 0.03853828 25 60 0
-0.24350578 -0.07459677 0.07298176 93 125 2
-0.24317926 -0.06953023 0.11849264 127 146 67
-0.24227412 -0.08087241 0.09640268 69 94 36
-0.24014281 -0.07760659 0.08218683 118 166 22
-0.23465092 -0.08125368 0.03584662 23 57 0
-0.24301685 -0.07161991 0.07859978 94 133 4
-0.24459592 -0.06685428 0.09183230 42 77 0
-0.24494323 -0.06567488 0.09598015 99 136 23
-0.24615024 -0.07118583 0.09421008 49 88 5
-0.24535270 -0.06966732 0.08965998 98 136 14
-0.24483611 -0.06597354 0.10279348 127 165 26
-0.24343143 -0.06403549 0.10351453 52 86 0
-0.24589752 -0.06897005 0.10517839 78 116 7
-0.24597068 -0.06884184 0.10345799 74 112 0
-0.24607447 -0.07000781 0.10493957 73 107 10
-0.24715757 -0.07372446 0.10707807 130 144 91
-0.24479064 -0.06541485 0.09821710 89 128 13
-0.24256651 -0.06274223 0.10096670 45 80 0
-0.24687839 -0.07433762 0.10945429 176 190 141
-0.24518907 -0.06908050 0.11166297 24 55 0
-0.24509478 -0.07028361 0.11355640 74 93 38
-0.24636884 -0.07478135 0.09653425 133 159 32
-0.23612434 -0.07221197 0.09917326 112 140 63
-0.23539072 -0.06980652 0.09858463 143 155 119
-0.24219331 -0.07959733 0.10083167 94 116 41
-0.24274467 -0.07353239 0.07629571 97 129 4
-0.24765201 -0.07072586 0.07215643 90 128 17
-0.24563999 -0.06597291 0.07896701 36 65 0
-0.24323979 -0.06958161 0.07582816 74 100 11
-0.24108677 -0.07284581 0.06895573 66 91 0
-0.23961276 -0.07104705 0.07376888 52 74 0
-0.23966965 -0.07120431 0.07335200 53 71 0
-0.24018663 -0.06482159 0.08941530 34 64 0
-0.24250574 -0.06387247 0.09053465 44 73 6
-0.23882350 -0.06257048 0.09762490 32 63 3
-0.23966901 -0.06313524 0.09464362 38 70 7
-0.24285363 -0.07208680 0.07041073 44 72 0
-0.24642518 -0.07126567 0.07154839 71 108 2
-0.24707830 -0.07105136 0.07191557 74 113 4
-0.23361078 -0.08350234 0.05404666 101 134 21
-0.23582672 -0.07862316 0.05572114 97 133 23
-0.24175037 -0.07497492 0.08122955 93 133 10
-0.24524610 -0.06639762 0.08718476 83 122 3
-0.24547593 -0.06844380 0.08803882 86 126 0
-0.24415147 -0.06959558 0.08337800 111 149 10
-0.24647470 -0.06965749 0.07525714 66 100 13
-0.24108627 -0.07621227 0.06105307 71 101 27
-0.24171816 -0.07730913 0.05941138 19 45 0
-0.23840305 -0.07959847 0.04670345 17 51 0
-0.24312714 -0.07728387 0.06037617 35 62 0
-0.23971280 -0.07881418 0.05334615 44 75 8
-0.24650355 -0.07596814 0.06462206 86 98 14
-0.24533907 -0.07378685 0.06697074 54 77 0
-0.23686893 -0.07802984 0.05405414 54 92 0
-0.23787290 -0.08114158 0.09063362 98 123 29
-0.23684885 -0.06468909 0.09430169 68 90 5
-0.23590171 -0.06825773 0.09370907 132 138 74
-0.23661815 -0.06813448 0.08995640 106 118 46
-0.23629984 -0.06229097 0.10002197 71 99 22
-0.23489600 -0.06092210 0.10630874 60 83 27
-0.24424797 -0.06404272 0.08612975 46 77 9
-0.24220870 -0.06499682 0.08685604 73 103 15
-0.23456168 -0.06496438 0.10112602 128 142 89
-0.23487084 -0.06367140 0.10107115 55 74 8
-0.23427178 -0.06633900 0.10365091 144 156 116
-0.23458174 -0.06754200 0.10175645 147 155 116
-0.23849852 -0.07777276 0.10140458 128 155 60
-0.23906781 -0.07697109 0.10410268 100 120 51
-0.23723413 -0.07185211 0.10835989 88 115 64
-0.23518170 -0.06875958 0.10905688 87 119 36
-0.23558241 -0.06775444 0.11334877 81 113 38
-0.23515803 -0.06907471 0.09958170 146 156 119
-0.23419815 -0.06685669 0.10817043 83 116 37
-0.23692484 -0.08058713 0.04275843 45 81 9
-0.24130023 -0.06168145 0.10720713 34 67 0
-0.24129732 -0.06165434 0.10713450 34 67 0
-0.24136418 -0.07119330 0.11823936 92 110 60
-0.24058861 -0.07681095 0.10670010 146 169 89
-0.23723501 -0.08049295 0.09106505 134 164 42
-0.23734292 -0.07651459 0.09690098 118 155 26
-0.23696029 -0.07481709 0.09931419 87 123 25
-0.23679978 -0.07523540 0.09619080 97 130 41
-0.23665106 -0.07648789 0.06384360 71 108 2
-0.23629689 -0.07818203 0.06856690 62 97 0
-0.23638591 -0.07771696 0.06504385 87 126 7
-0.23675334 -0.07600667 0.06295881 60 94 0
-0.24169080 -0.07855499 0.07400718 69 106 11
-0.24400827 -0.07419612 0.08837619 102 139 8
-0.24065024 -0.07834082 0.09050266 84 117 30
-0.23150545 -0.08023768 0.04043565 25 59 0
-0.23323832 -0.07941822 0.04630502 48 83 0
-0.23428431 -0.07865152 0.04936183 48 83 0
-0.24231297 -0.08030907 0.06495474 72 112 24
-0.24725436 -0.07300629 0.06925593 93 130 16
-0.24223350 -0.08201160 0.05801722 56 97 3
-0.24389486 -0.08040192 0.06119392 60 94 8
-0.24476673 -0.08101991 0.05596574 93 116 64
-0.23112929 -0.08589871 0.03444349 174 189 96
-0.23331881 -0.08595949 0.03773971 150 166 57
-0.23503102 -0.08433880 0.03251214 122 155 38
-0.23448358 -0.08461932 0.03266708 105 133 31
-0.23913451 -0.08231562 0.06496402 111 142 25
-0.23323897 -0.08631405 0.04639267 129 167 32
-0.23529580 -0.07713224 0.08534684 111 124 98
-0.23628059 -0.07950135 0.07924711 126 149 69
-0.24184218 -0.08269875 0.04960803 89 110 45
-0.23606972 -0.08675200 0.04781594 157 180 46
-0.23561628 -0.08585504 0.05193159 180 203 63
-0.23468934 -0.08587489 0.03857802 115 135 22
-0.23891808 -0.08284345 0.04237038 83 117 22
-0.23241206 -0.08223186 0.03217087 63 91 7
-0.23194097 -0.08024277 0.03658574 62 97 0
-0.23225725 -0.08263273 0.03137497 89 120 16
-0.23670712 -0.08057687 0.08834623 144 179 59
-0.23680665 -0.07902907 0.09075686 103 137 61
-0.22960810 -0.08337564 0.03429216 71 105 8
-0.23571798 -0.07766913 0.07727608 70 95 12
-0.23654246 -0.07691547 0.07500054 94 119 38
-0.23694021 -0.07184284 0.08066209 74 99 5
-0.23896992 -0.08281685 0.04068298 89 119 31
-0.23492582 -0.07389779 0.08616421 128 139 105
-0.23476738 -0.07246620 0.09041066 147 149 99
-0.23590241 -0.06960784 0.09097549 98 100 50
-0.22970709 -0.08382707 0.03917491 61 90 0
-0.23026463 -0.08256678 0.03930677 94 127 22
-0.24005212 -0.08121748 0.06995398 124 159 43
-0.23842986 -0.08430135 0.05656751 172 189 61
-0.24132131 -0.08293577 0.05360692 52 88 1
-0.24537653 -0.07455754 0.07077444 65 105 9
-0.24514905 -0.07801132 0.06685108 56 99 7
-0.23245770 -0.08560596 0.04522808 96 126 26
-0.23129365 -0.08597239 0.03796483 156 171 86
-0.23756023 -0.08311836 0.06082480 121 155 35
-0.23966976 -0.08380314 0.05416573 87 122 2
-0.23545858 -0.07100252 0.09620251 134 142 101
-0.23881446 -0.08220977 0.07326610 97 123 32
-0.23879915 -0.08318155 0.04396263 95 127 30
-0.23724706 -0.08237053 0.06469928 85 112 41
-0.23926163 -0.07950103 0.08146595 85 115 17
-0.23835772 -0.08151167 0.07654111 128 155 48
-0.24490310 -0.08056763 0.05840152 99 118 54
0.11424115 0.05003139 -0.11123132 95 100 42
0.10346445 0.01188572 -0.14486846 51 96 3
0.10081287 0.00968265 -0.13796473 55 98 26
0.10240151 0.01101221 -0.14219256 50 93 11
0.10563802 0.01095569 -0.11250449 78 121 41
0.10901199 0.01433508 -0.10586618 65 105 42
0.10185155 0.01752624 -0.17929852 43 77 27
0.10182149 0.01707229 -0.17452563 40 75 21
0.10358620 0.01497178 -0.17322272 36 71 13
0.10996488 0.00784299 -0.10227697 69 106 52
0.10892297 0.00556266 -0.10780758 82 123 47
0.10666261 0.01382476 -0.17517677 39 82 3
0.10662389 0.01385154 -0.17540950 39 82 3
0.10316748 0.00572981 -0.12316999 41 83 9
0.10342281 0.00652746 -0.12144379 67 109 33
0.11584888 0.01991299 -0.14006062 107 131 0
0.11425471 0.01835943 -0.13989653 161 190 46
0.10911761 0.02041855 -0.10882591 87 135 15
0.11015883 0.02391593 -0.10544454 67 113 4
0.10901530 0.01580317 -0.12365445 65 108 3
0.10867005 0.01614230 -0.11863075 86 130 17
0.10839867 0.01497961 -0.12550631 84 130 22
0.10693812 0.01332266 -0.12766826 52 97 14
0.09799515 0.01911698 -0.16401565 78 110 27
0.10002787 0.01968401 -0.16745248 64 96 13
0.10756382 0.01318312 -0.17204064 58 96 11
0.10534151 0.01252876 -0.16580747 65 104 21
0.10926750 0.01285523 -0.17265989 79 121 37
0.11143249 0.01249038 -0.17199059 55 96 56
0.10125505 0.01311317 -0.16086023 36 73 21
0.10320552 0.01137719 -0.15827331 35 70 37
0.09605318 0.01022039 -0.15488575 22 61 4
0.09729598 0.01219967 -0.15759519 26 67 0
0.09884273 0.01792901 -0.16640449 35 70 2
0.09855843 0.01743990 -0.16463090 40 76 4
0.09915458 0.01328347 -0.15104203 73 111 28
0.09980439 0.01291780 -0.15025827 80 120 34
0.09934016 0.01117752 -0.14908448 80 117 39
0.09599967 0.01717030 -0.15667608 93 123 37
0.09760842 0.01928625 -0.08690229 153 189 99
0.09851603 0.01807258 -0.08484519 96 128 52
0.10974127 0.01073069 -0.10109068 70 108 47
0.10743542 0.02007560 -0.09340948 44 87 7
0.10546629 0.01594475 -0.16505462 95 122 7
0.10489018 0.01957831 -0.15932693 99 128 10
0.10179742 0.01425158 -0.08958363 116 154 45
0.10110234 0.01819694 -0.09072534 52 100 1
0.10760897 0.02681361 -0.09546416 62 107 2
0.10978331 0.02574377 -0.10224497 72 118 10
0.11094676 0.02251079 -0.18997888 80 104 18
0.11669829 0.01273817 -0.18004131 143 158 29
0.11539923 0.01262362 -0.17692386 84 97 0
0.11543073 0.01289454 -0.18080731 93 109 0
0.12160600 0.01380729 -0.18428223 109 110 0
0.11151608 0.04147547 -0.11646084 53 88 0
0.11234785 0.03936598 -0.11727499 97 131 18
0.11404160 0.03802681 -0.10942640 154 172 36
0.11342743 0.03559280 -0.10716441 188 204 45
0.11350981 0.03547866 -0.10873411 169 190 27
0.11950801 0.01918460 -0.19326977 169 177 56
0.11916632 0.02091054 -0.19491479 164 168 45
0.10319342 0.01489925 -0.08709388 103 140 63
0.11181537 0.01622626 -0.18474019 85 105 20
0.11188719 0.01991786 -0.18845776 89 108 26
0.10958536 0.01826966 -0.18424301 77 98 5
0.10575372 0.02880201 -0.08875693 63 105 19
0.10481718 0.03079336 -0.08545227 57 96 13
0.12307261 0.02512856 -0.12063419 142 150 163
0.12129012 0.02158910 -0.12021393 89 114 75
0.11453494 0.02567731 -0.19932565 95 105 16
0.12142961 0.02626429 -0.10388393 145 166 63
0.12292475 0.02817720 -0.10126717 34 64 14
0.11470912 0.02076670 -0.19356187 162 176 55
0.11334558 0.02304542 -0.19447176 100 114 26
0.10817505 0.02012891 -0.08747389 76 108 33
0.11458854 0.02065989 -0.08971832 130 151 50
0.12055259 0.01306290 -0.18155356 178 180 44
0.12093887 0.01360606 -0.18387386 163 164 26
0.10980879 0.01089298 -0.15027007 77 116 37
0.11313952 0.01160638 -0.15727168 63 97 73
0.11169076 0.01130658 -0.15402529 41 77 33
0.12019664 0.01520758 -0.16460936 181 177 28
0.11811247 0.02206332 -0.15540718 173 177 22
0.11750687 0.01683753 -0.16236177 91 107 0
0.11469442 0.04266383 -0.12427866 119 120 50
0.10568710 0.02203260 -0.19507644 84 106 5
0.10719337 0.02222023 -0.19682358 84 105 12
0.11000431 0.02064795 -0.15282233 90 115 0
0.10871347 0.02113729 -0.14894412 93 118 0
0.11725233 0.01469427 -0.18764457 94 112 0
0.10644504 0.01830903 -0.24610917 123 128 105
0.10560545 0.01588736 -0.24411407 42 77 0
0.09986004 0.01541112 -0.24753729 108 139 69
0.10852263 0.01566615 -0.14347816 36 75 0
0.10526866 0.01562960 -0.14764611 73 108 4
0.10289952 0.02228311 -0.08869855 68 116 14
0.10219982 0.02312465 -0.08812554 68 119 14
0.11333327 0.04537284 -0.11928840 85 87 40
0.11974724 0.01286695 -0.17082950 157 163 15
0.12144826 0.01335471 -0.16952521 101 108 0
0.11875661 0.01764095 -0.11160166 111 126 41
0.11348274 0.01199552 -0.11576071 89 119 83
0.12086843 0.02287706 -0.19762655 138 151 61
0.11455590 0.01344524 -0.12552482 168 195 160
0.11369661 0.01321132 -0.11351969 68 95 76
0.09787271 0.02127057 -0.08972099 37 86 4
0.10410355 0.01800852 -0.09101538 44 92 6
0.11377463 0.00885343 -0.11151833 75 105 71
0.10762879 0.01462987 -0.16986716 88 108 0
0.11061879 0.01359163 -0.17045090 86 105 0
0.11565822 0.01253410 -0.11078027 37 64 47
0.11504336 0.01604366 -0.18867891 108 122 11
0.11247277 0.02030077 -0.18961692 88 105 25
0.10131533 0.02825586 -0.22763737 110 132 23
0.10109277 0.02860858 -0.23088235 122 145 29
0.10138144 0.02733138 -0.22807419 88 110 0
0.11396491 0.03690164 -0.11011899 112 135 5
0.11400225 0.03090971 -0.11337429 82 110 0
0.11446293 0.03094529 -0.11509935 88 115 0
0.11429958 0.02886344 -0.11556303 186 198 30
0.12278321 0.02436903 -0.12602797 216 232 232
0.12338571 0.02746414 -0.12386619 71 92 95
0.10144401 0.02716571 -0.22396341 84 107 3
0.10119504 0.02499837 -0.23092407 62 89 0
0.10131082 0.02595730 -0.22744992 74 99 0
0.11365481 0.01287578 -0.17590284 92 108 20
0.11404269 0.01316984 -0.18158653 99 113 28
0.10930759 0.01497650 -0.18036611 80 103 0
0.10392747 0.00977153 -0.15007086 36 72 34
0.10468508 0.00955736 -0.14707552 36 73 32
0.10008560 0.02200365 -0.24372581 81 117 30
0.10175360 0.02160916 -0.23945743 85 118 29
0.10424274 0.01245958 -0.23813576 114 131 53
0.10424384 0.01156062 -0.23779562 133 167 70
0.10196894 0.02016946 -0.23148474 63 89 15
0.10164870 0.02018528 -0.22903605 85 113 28
0.10229895 0.01294753 -0.24304253 131 166 72
0.10153462 0.01598342 -0.24390528 122 154 69
0.10346254 0.01706595 -0.23981912 121 144 72
0.10181458 0.01965063 -0.22915247 90 117 38
0.10122216 0.01855816 -0.22809023 80 110 12
0.10074186 0.01791236 -0.22685857 98 131 18
0.09827084 0.02535378 -0.24433914 56 90 0
0.11502914 0.03193245 -0.13068137 86 116 0
0.11745501 0.02372199 -0.13927516 134 158 10
0.11343762 0.03351652 -0.13059294 120 148 27
0.11099329 0.03562523 -0.13101083 86 117 23
0.11533730 0.00823516 -0.10662382 67 95 73
0.11547839 0.00833100 -0.10626734 62 86 70
0.11591821 0.02983086 -0.13676144 108 136 25
0.10002127 0.03039055 -0.23967837 121 143 35
0.11043058 0.02300886 -0.19330677 83 106 28
0.10851464 0.02336622 -0.19965507 76 95 29
0.10905878 0.02255094 -0.19512922 72 93 28
0.10233609 0.01909583 -0.20539489 95 127 44
0.10364494 0.02051223 -0.20430419 58 85 4
0.11857458 0.01892450 -0.11441395 110 133 61
0.10030449 0.01867659 -0.22308429 64 95 1
0.09885968 0.01435615 -0.22215749 80 117 3
0.11128514 0.00943696 -0.12004472 66 106 33
0.11867324 0.01594017 -0.10827549 120 133 61
0.11879567 0.01516614 -0.10583053 70 87 16
0.11852239 0.01234161 -0.10116762 171 184 96
0.11905737 0.01393143 -0.10173858 159 168 85
0.12262408 0.01926732 -0.19139647 113 125 13
0.09681884 0.00842825 -0.15092529 45 86 28
0.09973729 0.00946462 -0.15354325 43 81 32
0.10206855 0.00990845 -0.15400034 40 76 40
0.10410783 0.00669883 -0.13218512 37 78 22
0.10416435 0.00674957 -0.13163824 37 78 22
0.11451020 0.01380961 -0.13300508 32 62 38
0.11419744 0.01479134 -0.13944854 49 82 53
0.09859125 0.00798820 -0.14455885 49 89 37
0.10049938 0.00763717 -0.13837455 38 78 16
0.11313147 0.01767963 -0.08949790 229 245 94
0.11065762 0.01195585 -0.08998926 121 156 76
0.11470680 0.01637868 -0.09051248 58 93 61
0.11209133 0.01140237 -0.12447924 54 92 41
0.10585267 0.01481472 -0.08785801 116 150 73
0.11754513 0.01322503 -0.10749888 160 179 113
0.10906211 0.00950572 -0.09040829 129 164 64
0.10594016 0.01176960 -0.09031416 104 140 30
0.10451449 0.00857641 -0.14313808 33 73 23
0.10271263 0.00795473 -0.14352725 30 72 24
0.11516305 0.01692138 -0.16199601 107 119 0
0.11514881 0.01890263 -0.15913025 119 136 4
0.11446457 0.02105747 -0.15579778 84 104 0
0.11844182 0.01649851 -0.09724775 120 134 59
0.11752562 0.01017298 -0.09724252 99 123 71
0.11811163 0.01035224 -0.09929988 133 140 88
0.10826436 0.01323533 -0.19232595 66 107 15
0.10563628 0.01468143 -0.18676804 74 113 30
0.10566439 0.01405984 -0.19213822 56 97 21
0.10522601 0.00808934 -0.13543569 30 71 29
0.11253542 0.04160671 -0.12396825 138 153 58
0.11157314 0.04103384 -0.12427624 172 191 86
0.10850652 0.01657246 -0.16246939 123 148 20
0.11068929 0.01628029 -0.16214529 82 101 0
0.10208840 0.02220050 -0.18474162 63 102 21
0.10221528 0.02127078 -0.18016104 62 96 10
0.11703898 0.01416836 -0.12161217 90 120 70
0.10384981 0.02203146 -0.19382566 116 151 51
0.10475256 0.02208108 -0.19171920 100 127 34
0.10312065 0.03345484 -0.23664635 171 180 115
0.10321818 0.03352123 -0.23674341 171 180 115
0.12080646 0.03734195 -0.12935948 98 95 16
0.12044023 0.03349110 -0.13413708 81 91 5
0.12301952 0.03254661 -0.12530349 83 117 118
0.12150243 0.04203095 -0.12260479 150 144 46
0.10837046 0.00682572 -0.12172303 53 93 23
0.10971541 0.01104526 -0.12884814 39 76 9
0.12063229 0.02235165 -0.11126572 109 139 65
0.12156774 0.01913766 -0.14247765 164 172 99
0.12128758 0.01910065 -0.13806394 184 209 108
0.10273046 0.02108618 -0.16220303 75 101 10
0.10323007 0.02135104 -0.16504622 74 103 13
0.10249572 0.02391502 -0.21683036 121 144 74
0.10239030 0.02422739 -0.21749696 114 137 65
0.10310943 0.02391469 -0.21347092 107 132 64
0.10420412 0.02181898 -0.20687777 76 101 20
0.12005755 0.02020050 -0.12149660 160 169 168
0.10504102 0.03375507 -0.22950424 169 178 111
0.10186304 0.03029278 -0.22843844 93 111 1
0.12010736 0.02113837 -0.11786255 77 102 81
0.12063188 0.02166834 -0.11286180 19 54 0
0.11980964 0.01751503 -0.10361466 172 185 93
0.12113459 0.02254749 -0.10076276 77 103 30
