-0.20275754 0.10041254 -0.11146337 120 150 26
-0.19508050 0.06482551 -0.07835711 164 197 64
-0.21002777 0.07821108 -0.09604411 93 125 0
-0.20399250 0.10547257 -0.11057251 102 130 17
-0.20396321 0.10458156 -0.11138549 88 114 13
-0.20397535 0.10563827 -0.11007133 146 176 54
-0.20407355 0.10761230 -0.11166713 151 181 51
-0.20394948 0.11270943 -0.10833603 129 156 49
-0.20151719 0.11529969 -0.11443549 147 173 48
-0.29469657 0.05997208 -0.02703013 108 147 2
-0.20008837 0.05481696 -0.07771555 128 160 51
-0.19863935 0.05557212 -0.07988771 120 148 45
-0.18900815 0.06823394 -0.08313242 132 173 71
-0.19176486 0.06837718 -0.08070841 113 148 54
-0.20445883 0.11191809 -0.09920088 92 128 22
-0.20426093 0.10533275 -0.09012601 122 161 32
-0.24169411 0.05289266 -0.04345016 85 119 0
-0.23851985 0.05260587 -0.04855352 148 181 6
-0.25700286 0.05045906 -0.03445558 129 173 84
-0.24326952 0.04360655 -0.04818451 151 186 60
-0.20020559 0.07660829 -0.08881643 143 181 0
-0.18034962 0.12956519 -0.13639234 134 170 34
-0.31887040 0.02017611 -0.05329502 69 94 11
-0.22984388 0.07099525 -0.05441635 104 135 6
-0.20550694 0.08886156 -0.09871283 114 149 0
-0.22707319 0.08753646 -0.04538393 108 156 12
-0.22707659 0.08978001 -0.04719619 103 152 1
-0.22617757 0.09186320 -0.05021635 98 147 0
-0.28927207 0.06518243 -0.02974497 108 145 67
-0.29234743 0.06301820 -0.02878793 128 165 23
-0.20394093 0.09363865 -0.10812566 75 110 0
-0.31983855 0.01804064 -0.05519648 63 96 5
-0.34355971 -0.03225155 -0.06715783 124 161 55
-0.19440256 0.06497435 -0.08387395 126 170 15
-0.20690922 0.09818763 -0.10978157 97 124 21
-0.19350410 0.14814390 -0.12683757 97 126 42
-0.33866444 -0.01828121 -0.06384865 82 109 16
-0.21395725 0.09511036 -0.10410641 84 123 0
-0.21056344 0.09317749 -0.10280678 105 138 7
-0.23174754 0.06345781 -0.04844462 82 117 0
-0.24257098 0.04877538 -0.03625856 134 175 53
-0.34102663 -0.02540552 -0.07058647 88 120 23
-0.29776686 0.05612790 -0.02937541 140 177 11
-0.20132527 0.13412896 -0.11981381 108 139 35
-0.23430340 0.05867866 -0.04211379 76 113 0
-0.24049300 0.05118332 -0.03738635 156 193 62
-0.23789372 0.05456823 -0.03919228 121 158 19
-0.18636797 0.12992851 -0.13263248 107 138 1
-0.18797421 0.13014013 -0.13195379 109 131 5
-0.21553807 0.07985582 -0.09997316 92 127 11
-0.21026377 0.08413611 -0.09994466 76 109 0
-0.22026052 0.10064722 -0.10889886 125 150 6
-0.21447693 0.09906042 -0.10705119 59 93 0
-0.34225649 -0.02648264 -0.06317458 73 111 12
-0.33982623 -0.02626974 -0.06449842 126 166 69
-0.29366398 0.05421022 -0.02455628 168 206 93
-0.18786745 0.12274313 -0.13100836 141 176 34
-0.18488628 0.12908405 -0.13313498 128 163 19
-0.18815841 0.13488571 -0.13136397 94 122 1
-0.19568770 0.13752325 -0.12750836 84 113 3
-0.19465362 0.13464886 -0.12799898 123 153 29
-0.34142634 -0.02683998 -0.06871700 88 120 23
-0.20477845 0.12000082 -0.10680324 97 128 35
-0.20501082 0.12654153 -0.11053123 94 130 20
-0.20475906 0.11852890 -0.10574257 98 126 39
-0.20518684 0.12432753 -0.10864885 104 135 31
-0.21338391 0.09116044 -0.10241286 53 86 0
-0.21368653 0.09271006 -0.10269859 78 113 9
-0.22598769 0.07401324 -0.09809521 80 114 1
-0.21812676 0.08549061 -0.10336126 75 105 0
-0.22078127 0.08351257 -0.10257284 66 98 0
-0.21862245 0.10034308 -0.10772993 69 96 1
-0.21975297 0.09343336 -0.10626177 64 90 3
-0.24399444 0.10367960 -0.04821665 155 192 76
-0.24162662 0.10267896 -0.04867196 127 167 68
-0.18493615 0.15367275 -0.12714924 102 129 16
-0.18603691 0.15361398 -0.12789483 118 145 28
-0.21962799 0.10768750 -0.09088178 102 123 30
-0.31573084 0.01913327 -0.04884607 157 189 106
-0.31917307 0.01552981 -0.05113657 151 180 100
-0.34727001 -0.03374003 -0.06672466 172 207 105
-0.22981979 0.07041588 -0.09475304 81 119 0
-0.22662017 0.11394897 -0.11394230 125 147 36
-0.28711718 0.05353279 -0.02986702 171 211 89
-0.20890100 0.15153684 -0.15068673 63 81 19
-0.21087916 0.14987831 -0.14370406 66 88 23
-0.21171261 0.15161411 -0.14202210 82 109 14
-0.19432366 0.08006921 -0.08953443 88 125 9
-0.27897009 0.08181514 -0.03902787 79 116 13
-0.28253347 0.07689629 -0.03836438 86 121 21
-0.20157380 0.08421735 -0.09279171 107 140 0
-0.18974242 0.17351541 -0.18299000 100 122 22
-0.18644135 0.17845918 -0.18626909 105 127 19
-0.18357433 0.08236361 -0.08507482 61 99 0
-0.29993325 0.04295446 -0.03280708 147 190 75
-0.29692557 0.04418489 -0.03076793 133 168 84
-0.17931008 0.15079759 -0.12106561 118 144 19
-0.18634431 0.14931208 -0.12466074 127 160 27
-0.18076909 0.14561808 -0.11877818 130 162 27
-0.19874100 0.11255693 -0.12484054 93 125 0
-0.24765418 0.07261302 -0.03719080 131 176 71
-0.23719154 0.05824955 -0.02976371 168 218 95
-0.28869131 0.05831680 -0.02598989 158 195 81
-0.19964291 0.12779729 -0.11910547 80 112 3
-0.19971907 0.11876246 -0.11917280 141 172 43
-0.19495851 0.14470804 -0.11897385 99 138 11
-0.19011599 0.14393145 -0.11704952 61 99 0
-0.34941649 -0.03160934 -0.07422767 140 178 43
-0.29114962 0.06367294 -0.03647797 136 178 32
-0.18488848 0.15873615 -0.14989844 87 114 0
-0.18517667 0.15112332 -0.14962256 95 119 5
-0.31047460 0.01338728 -0.04698260 150 193 122
-0.23706071 0.07687252 -0.03468618 111 157 23
-0.28693789 0.02849795 -0.04235589 122 169 88
-0.28625417 0.02765355 -0.04429916 97 141 66
-0.30286723 0.01590056 -0.04787066 109 150 84
-0.30850425 0.01235114 -0.04733641 119 165 100
-0.20204657 0.13418448 -0.11143778 91 117 30
-0.20181131 0.13422734 -0.11068261 104 133 40
-0.22429423 0.12004131 -0.11390259 58 84 0
-0.22893995 0.12502681 -0.11602650 119 142 8
-0.18226340 0.14337897 -0.11574057 111 149 2
-0.18283080 0.14332889 -0.11565674 118 157 6
-0.18755920 0.14675662 -0.12257126 113 149 15
-0.24461049 0.05782460 -0.03289964 153 204 86
-0.22888924 0.11834939 -0.11347341 127 157 35
-0.36184913 -0.06294575 -0.07204127 189 214 110
-0.35768273 -0.04451991 -0.06917609 80 116 26
-0.35663441 -0.04626885 -0.06723381 155 191 119
-0.35389072 -0.04853709 -0.06944785 100 137 21
-0.36492935 -0.06061817 -0.07610949 94 123 43
-0.36209920 -0.06119363 -0.07162862 163 189 90
-0.35910752 -0.05637754 -0.07025726 191 214 106
-0.35845542 -0.05940994 -0.07754648 61 94 0
-0.34981894 -0.04036730 -0.06840408 93 134 30
-0.35486275 -0.05453409 -0.07114153 96 129 16
-0.35744986 -0.05169636 -0.06796961 187 215 113
-0.35406440 -0.05070224 -0.06771623 208 229 102
-0.20014426 0.20168374 0.00058121 127 162 20
-0.18825209 0.18973395 -0.03405184 124 168 70
-0.18688945 0.18844990 -0.03696782 124 166 68
-0.19490694 0.20109832 -0.01447029 111 142 62
-0.19887510 0.20356552 -0.00452040 97 131 44
-0.19743080 0.20409940 -0.01409749 86 119 4
-0.22147377 0.19062924 -0.01449984 121 155 0
-0.19070153 0.18647774 -0.04817664 92 128 2
-0.19183049 0.18847647 -0.04569590 97 135 0
-0.19283184 0.18738985 -0.04745015 109 149 1
-0.17965157 0.17671493 -0.06444114 89 130 0
-0.18062466 0.17556532 -0.06540725 98 140 6
-0.18339197 0.17780453 -0.06185701 70 107 1
-0.18219534 0.17846936 -0.05852849 71 109 0
-0.20521156 0.20031740 0.02368548 84 112 27
-0.20610368 0.20088437 0.02845365 78 103 37
-0.20534928 0.18663622 -0.04113632 116 144 8
-0.20183629 0.18779866 -0.04433410 92 124 0
-0.20325139 0.18122438 -0.04635832 92 123 0
-0.19163354 0.19744045 -0.01923305 111 151 62
-0.19398621 0.19856030 -0.01415304 131 168 55
-0.19685429 0.19665188 -0.00888309 117 157 25
-0.20304465 0.19486634 0.00598522 115 148 35
-0.20444363 0.19527125 0.01330469 118 153 37
-0.20311746 0.19478209 0.00587695 130 163 46
-0.20040835 0.19843616 -0.02810875 124 157 8
-0.20372041 0.19454315 -0.03247312 98 126 7
-0.20188451 0.19536969 -0.03243339 115 150 6
-0.20727497 0.19194804 -0.03432801 108 133 6
-0.21308824 0.19123290 -0.02837634 97 127 15
-0.21672530 0.19059294 -0.02340807 106 138 5
-0.21563408 0.18206124 -0.03578026 139 176 0
-0.20092337 0.18910043 -0.04426423 97 128 8
-0.21452756 0.18496534 -0.03477874 110 141 14
-0.21281365 0.18505201 -0.03702759 128 160 25
-0.22097878 0.19212247 -0.01441455 140 172 13
-0.17922029 0.18072304 -0.04822788 104 143 28
-0.18725653 0.18458903 -0.04314313 120 161 33
-0.18511926 0.18446353 -0.04154842 116 154 51
-0.18146759 0.18230763 -0.04516222 100 138 25
-0.18760711 0.19131516 -0.04227558 102 135 5
-0.18770245 0.18754716 -0.04631068 96 133 4
-0.19672874 0.19376634 -0.01371598 111 147 21
-0.19321451 0.19367257 -0.02204309 143 182 76
-0.19448006 0.19505218 -0.01625235 122 163 31
-0.19706558 0.19434726 -0.01173130 108 147 22
-0.21288496 0.18771638 -0.03312755 121 152 23
-0.21338011 0.18952729 -0.02915084 117 147 23
-0.19866224 0.20359306 -0.02150423 103 139 7
-0.19890942 0.19896834 -0.02855529 123 156 7
-0.18413116 0.16482769 -0.08447974 75 122 0
-0.21525866 0.19657585 -0.01610372 117 149 16
-0.20939283 0.19174856 -0.03237178 113 140 11
-0.21025681 0.19225290 -0.03051965 122 147 17
-0.18937549 0.19654392 -0.02498933 127 172 71
-0.18609388 0.19299859 -0.03323424 139 183 70
-0.20965248 0.19764358 -0.01842677 139 167 30
-0.20646930 0.19581394 -0.02765285 103 131 10
-0.20823450 0.19614202 -0.02407137 129 156 27
-0.21579729 0.17832835 -0.03865420 127 163 5
-0.21559963 0.18173833 -0.03614505 141 175 1
-0.20176491 0.20274857 -0.01957707 125 155 25
-0.20337319 0.20021835 -0.02271449 120 149 9
-0.19128270 0.18143073 -0.04818950 109 148 19
-0.19308311 0.18279417 -0.04274482 102 140 18
-0.18805213 0.18105032 -0.05277801 90 125 7
-0.18404026 0.18789124 -0.04686106 93 133 0
-0.18592413 0.19195476 -0.04191319 109 143 5
-0.19880854 0.18441984 -0.03095974 121 157 47
-0.19986169 0.18530719 -0.02692428 123 159 49
-0.20278633 0.18086420 -0.03377423 102 135 28
-0.20341249 0.18568553 -0.01910312 130 164 44
-0.20507893 0.18431446 -0.01988114 96 126 38
-0.20095672 0.18672535 -0.02091699 121 153 56
-0.18608135 0.16769791 -0.08720311 74 121 5
-0.19032037 0.17664655 -0.08478207 93 130 0
-0.18625015 0.17270012 -0.08235323 96 144 0
-0.19353987 0.18629217 -0.03302991 135 174 67
-0.19095543 0.18592300 -0.03721096 113 153 38
-0.19551960 0.18291160 -0.03963814 111 146 26
-0.18516812 0.19265433 -0.03908577 129 157 55
-0.20794223 0.20125256 -0.01368496 122 153 16
-0.20582072 0.20132457 -0.01688619 130 157 24
-0.18236126 0.17322296 -0.07474037 91 132 0
-0.21095861 0.19582343 0.06414512 99 135 47
-0.21104330 0.19703196 0.07419984 85 118 37
-0.21370859 0.19776572 0.07163329 73 108 16
-0.20737396 0.18526228 -0.01436458 112 148 38
-0.21257386 0.18426558 -0.01211946 142 176 66
-0.20932503 0.18381564 -0.01657957 112 148 40
-0.20794703 0.19426450 0.02292212 78 115 20
-0.20487310 0.19725612 0.02439142 125 156 63
-0.20708315 0.19596298 0.02754192 104 139 39
-0.21705052 0.17922458 -0.02805264 68 106 5
-0.18062724 0.17864315 -0.05872570 117 157 24
-0.18248865 0.17906024 -0.05821998 88 125 9
-0.17819284 0.17908116 -0.05475190 119 157 18
-0.18427186 0.16492447 -0.08555898 72 118 0
-0.19029781 0.19532113 -0.03656561 98 130 5
-0.19039381 0.19554339 -0.03498193 96 126 2
-0.21024889 0.19872123 0.07017356 118 148 78
-0.21249032 0.19468121 0.04927502 79 121 23
-0.21067227 0.19461328 0.04812657 85 124 31
-0.21432915 0.19608714 0.05646200 52 93 1
-0.21492870 0.19554479 0.05165602 48 92 0
-0.18320201 0.16821665 -0.07685237 100 148 2
-0.18296635 0.16720118 -0.07590922 99 148 0
-0.19293626 0.20123781 -0.02641087 113 145 10
-0.20410347 0.17936145 -0.04756884 102 135 5
-0.20823675 0.18567711 -0.04037126 98 128 4
-0.17883924 0.18135317 -0.04793486 113 151 38
-0.21915719 0.18582802 -0.02340893 88 134 0
-0.18616398 0.17545645 -0.07775059 96 139 0
-0.19332203 0.17788930 -0.08634352 117 150 11
-0.21432202 0.19608594 0.08299313 99 133 39
-0.19232808 0.19800268 -0.02770644 78 107 0
-0.18128674 0.18873867 -0.04279048 146 182 56
-0.18043965 0.18621595 -0.04433710 154 188 68
-0.19022906 0.18749242 -0.03456358 136 179 72
-0.19272779 0.18981144 -0.02792413 125 165 50
-0.19596548 0.18840066 -0.02498478 107 143 45
-0.20179740 0.19261852 -0.03912003 110 144 8
-0.20139484 0.19228959 -0.04075472 109 141 6
-0.21932180 0.18775637 -0.01238637 78 113 0
-0.22129560 0.18964088 -0.00538610 118 149 12
-0.22025622 0.18844144 -0.01263053 109 140 10
-0.20782004 0.19725035 0.04035192 95 131 35
-0.20536479 0.19778699 0.03066229 107 135 60
-0.20153542 0.19647624 0.00494404 104 136 27
-0.20251364 0.19932824 0.01239808 87 119 22
-0.20288971 0.20181043 0.01116761 100 133 18
-0.21560206 0.18147144 -0.01900087 112 143 40
-0.21590403 0.17926526 -0.02497546 116 149 45
-0.19554862 0.19565366 -0.03670187 95 131 0
-0.19791606 0.19066174 -0.04411557 90 122 0
-0.21037045 0.19876979 0.07761052 83 118 28
-0.21951488 0.18671368 -0.02093820 85 128 0
-0.21564709 0.18397284 -0.01368457 140 174 62
-0.21058595 0.19593979 0.06473219 96 128 43
-0.21391168 0.17602473 -0.02970524 113 145 36
-0.21204919 0.18099360 -0.02073309 107 139 40
-0.21047817 0.17898276 -0.02727734 139 171 64
-0.20526846 0.18872206 -0.00626148 133 166 49
-0.20510989 0.19005868 -0.00297491 114 150 28
-0.20510823 0.18777528 -0.00939414 119 154 38
-0.20049760 0.19318962 -0.00642473 91 123 24
-0.19931142 0.19059402 -0.01448766 96 131 15
-0.20013638 0.18952471 -0.01526203 129 165 39
-0.18425179 0.17676629 -0.06688803 94 134 1
-0.18368715 0.17505555 -0.07402712 95 136 0
-0.19078475 0.17716725 -0.07244938 88 124 0
-0.18655881 0.17624758 -0.07237473 96 137 0
-0.18707030 0.17848775 -0.06378751 91 131 0
-0.20866892 0.19720043 0.05240257 103 132 66
-0.19697979 0.17531763 -0.07539063 113 149 0
-0.19656181 0.17586958 -0.07936151 108 147 0
-0.19627614 0.17620035 -0.08139439 113 152 1
-0.20781951 0.19748884 0.04371439 94 128 44
-0.21023946 0.19485769 0.04661278 79 118 27
-0.18224393 0.18669730 -0.04106569 116 158 50
-0.18677036 0.18643644 -0.03886276 113 151 52
-0.20390983 0.19944705 0.01957697 83 111 26
-0.20012723 0.17340489 -0.07675043 103 144 6
-0.19335061 0.17755887 -0.07246469 104 141 1
-0.19509885 0.17701092 -0.07008819 120 155 9
-0.19263044 0.17802028 -0.06596845 89 124 4
-0.18858047 0.17908047 -0.06117596 95 132 1
-0.20888697 0.18928760 0.00211116 92 129 23
-0.20919618 0.18717562 -0.00596364 103 140 24
-0.20933582 0.18948692 0.00353659 91 129 18
-0.20725332 0.18802850 -0.00522546 85 116 22
-0.19314627 0.17988914 -0.05157137 91 131 9
-0.19203237 0.18066597 -0.04936966 96 135 10
-0.19531855 0.18059789 -0.04686119 109 145 23
-0.19138837 0.17968585 -0.05388386 93 131 9
-0.19977903 0.20433475 -0.00766907 92 128 6
-0.20364468 0.20536464 -0.00931536 140 169 43
-0.20635599 0.19999325 0.03652971 91 117 52
-0.20589603 0.19934788 0.03563301 109 136 65
0.09907921 0.23996514 -0.16221690 91 119 16
0.12000938 0.22318935 -0.16814844 107 142 50
0.10081337 0.23649475 -0.16273960 174 199 37
0.09963338 0.23226348 -0.16348262 76 109 0
0.08909030 0.22314948 -0.16201001 76 111 7
0.06773848 0.24407339 -0.14271627 53 74 9
0.13514969 0.20987122 -0.18393134 214 237 123
0.07680920 0.24982595 -0.14476743 46 69 15
0.15516616 0.22379734 -0.26117036 36 68 0
0.15429868 0.22370639 -0.26018879 67 104 0
0.12673046 0.21906835 -0.17473879 117 146 62
0.12953946 0.21379350 -0.18174058 185 211 88
0.14180352 0.20958936 -0.21049237 92 116 30
0.11734737 0.24504845 -0.17567921 94 124 38
0.07636814 0.23755878 -0.14741813 69 105 0
0.14880177 0.22948493 -0.26193660 50 90 0
0.14911322 0.22291560 -0.22530614 91 127 55
0.15013638 0.20427248 -0.23174784 57 90 0
0.15234692 0.20136499 -0.23544261 148 182 33
0.12849489 0.24189880 -0.17682360 123 152 86
0.13158281 0.24133937 -0.17981808 70 87 19
0.08654119 0.24247329 -0.14905195 51 86 0
0.10001258 0.22163880 -0.17470196 110 131 12
0.10424636 0.21895191 -0.17549239 93 110 6
0.07975722 0.25284007 -0.14200789 55 76 17
0.08721849 0.23717406 -0.14881046 174 193 24
0.13969791 0.22009528 -0.19431144 120 135 42
0.13955177 0.22209200 -0.19375424 137 152 9
0.08027756 0.24223079 -0.14804818 104 139 9
0.15129381 0.22093466 -0.28503841 52 76 0
0.15063290 0.21844208 -0.28750044 115 143 40
0.09898669 0.24258348 -0.16735367 39 80 0
0.15505114 0.21214618 -0.25504410 59 81 32
0.15418939 0.21428396 -0.24758059 31 57 0
0.10015476 0.22152708 -0.16116546 124 148 12
0.16605873 0.19763607 -0.24386133 134 147 68
0.15774721 0.22709805 -0.28015569 71 89 13
0.12658025 0.25054267 -0.18281819 129 122 34
0.12582931 0.25013617 -0.18370625 107 109 26
0.15572059 0.22204313 -0.25934696 108 143 25
0.15510456 0.21688238 -0.25593984 36 61 0
0.15494336 0.21958631 -0.25438893 152 182 26
0.15123951 0.21747547 -0.23980223 156 185 35
0.12882581 0.24799010 -0.18916377 65 78 58
0.15301518 0.21258920 -0.24032322 81 114 1
0.15588468 0.20580435 -0.24366410 38 72 0
0.12940167 0.20875393 -0.18848622 74 105 0
0.13353977 0.21093385 -0.19220847 58 99 0
0.13419284 0.22853561 -0.20032458 40 71 0
0.13129437 0.22215940 -0.19222182 54 89 0
0.15284792 0.22515237 -0.28353932 71 94 4
0.15756904 0.22324406 -0.28377271 69 83 0
0.14706104 0.21826977 -0.22858627 34 62 0
0.15148486 0.19804204 -0.23618229 198 224 27
0.15304989 0.20104787 -0.23639745 110 141 4
0.08922870 0.22368552 -0.16116424 76 111 7
0.11345407 0.22317620 -0.16448385 90 120 50
0.14804396 0.21607065 -0.23047335 85 113 36
0.15972468 0.20178050 -0.23836775 90 105 20
0.14567888 0.21261702 -0.21611883 109 135 62
0.13894366 0.21455753 -0.19217522 80 94 41
0.14644624 0.21436545 -0.21504337 77 98 41
0.14686219 0.21660848 -0.21446282 109 133 45
0.14473045 0.21937376 -0.20840338 76 99 31
0.14142294 0.21405557 -0.20342731 69 87 29
0.13905181 0.20542070 -0.19474444 113 124 46
0.15482102 0.20525572 -0.23730773 90 126 16
0.15367813 0.20697427 -0.23620833 54 92 0
0.13729942 0.20263146 -0.19010998 146 160 65
0.14664918 0.22095233 -0.21305300 84 101 56
0.13976392 0.22897580 -0.21302383 57 77 16
0.14531003 0.21007170 -0.21767846 93 122 66
0.14595316 0.21154763 -0.21725895 92 118 57
0.08165072 0.23733981 -0.14749154 85 120 0
0.15072852 0.20062356 -0.23022684 148 164 40
0.07764602 0.24835995 -0.13435455 108 135 82
0.15237004 0.21412802 -0.22700752 79 112 43
0.15091553 0.21505263 -0.22411783 85 95 35
0.13804194 0.20798737 -0.21413049 83 121 12
0.13732639 0.20700884 -0.21241756 120 151 31
0.14238591 0.22784422 -0.22047746 93 109 44
0.15083416 0.21107930 -0.23332150 49 85 0
0.15913677 0.20024255 -0.23675708 154 170 48
0.15839370 0.20374101 -0.25206646 36 70 0
0.14068931 0.22893147 -0.21038665 100 121 42
0.14833258 0.21122929 -0.22663631 99 145 13
0.14723328 0.21179138 -0.22427647 101 146 19
0.14388634 0.22086148 -0.22665833 52 80 0
0.14209059 0.22392525 -0.22974880 49 79 5
0.08606897 0.22355865 -0.15436652 59 98 15
0.13508168 0.23451427 -0.20296250 51 67 20
0.13706768 0.23341565 -0.19795957 84 98 23
0.10432893 0.24252173 -0.16457349 89 113 15
0.13086778 0.20152830 -0.18627468 194 221 66
0.12194247 0.24879433 -0.17729330 94 132 81
0.13799660 0.20573437 -0.21038309 64 86 11
0.11589101 0.21734077 -0.17275324 101 128 21
0.11268039 0.21717408 -0.17514114 131 155 33
0.07208826 0.23516966 -0.14657025 62 92 6
0.09087457 0.24906369 -0.15789016 142 170 23
0.09039276 0.22592002 -0.14418937 77 111 35
0.08271812 0.22715035 -0.13838279 102 137 57
0.08864594 0.24709851 -0.13831516 56 85 31
0.15865594 0.20094196 -0.25638372 67 101 14
0.14615367 0.21102789 -0.22328493 68 110 0
0.14470942 0.21264654 -0.21942455 122 169 15
0.14164887 0.22113137 -0.21619260 75 108 17
0.14202899 0.21109425 -0.21849771 64 102 0
0.13962528 0.21197754 -0.21185452 108 147 28
0.08944426 0.23121867 -0.14434980 103 133 63
0.09898358 0.22933224 -0.15195355 110 138 77
0.12023531 0.23693988 -0.16824345 160 186 76
0.11022605 0.23300047 -0.15869159 96 130 10
0.11991161 0.23317702 -0.16789667 101 126 8
0.11602742 0.23460706 -0.16379727 91 117 16
0.11927872 0.22900203 -0.16615503 95 127 20
0.12371408 0.23070966 -0.17088449 138 171 40
0.12646921 0.23023584 -0.17353624 102 135 20
0.13634674 0.22643140 -0.22035986 78 107 14
0.13859497 0.22467716 -0.21944658 54 82 8
0.11753279 0.24605720 -0.17633978 85 116 46
0.13977526 0.21607192 -0.21047971 46 83 0
0.14070745 0.21495961 -0.21183641 104 142 31
0.09506639 0.23275772 -0.15639973 153 185 24
0.09935845 0.23724523 -0.16013275 115 139 19
0.15774092 0.19919427 -0.24395522 128 154 3
0.13100295 0.24255952 -0.19269612 51 65 30
0.13651824 0.21073748 -0.20127122 43 85 0
0.13691509 0.21010794 -0.20421018 88 124 24
0.13786900 0.21244301 -0.18846142 76 93 23
0.13790034 0.21108669 -0.18837374 132 146 48
0.08888554 0.23933296 -0.14981203 74 103 0
0.12430457 0.24520092 -0.17601946 87 123 53
0.09833706 0.22653526 -0.17140031 124 162 15
0.13661620 0.21667852 -0.18441553 80 101 34
0.14042805 0.22010891 -0.19737132 124 148 36
0.14173679 0.22430831 -0.19976565 82 93 37
0.09269770 0.22053225 -0.16852669 87 112 20
0.15650000 0.21607500 -0.23602563 61 109 61
0.08302083 0.24101463 -0.13411704 133 158 75
0.07876850 0.24581765 -0.13311526 74 106 33
0.13174193 0.24307133 -0.18692829 80 97 29
0.13599581 0.22719982 -0.21294366 73 102 18
0.13927922 0.22347781 -0.21430057 95 124 16
0.13426563 0.22891358 -0.21353604 97 128 11
0.10420439 0.22191365 -0.16487649 82 97 2
0.14483465 0.22331241 -0.20787193 83 106 54
0.13741396 0.21800929 -0.20201722 62 97 0
0.13634981 0.21573927 -0.19790854 52 81 0
0.14217430 0.20256118 -0.22167279 177 197 82
0.13486822 0.22934620 -0.20275487 61 94 3
0.13565336 0.22576419 -0.20110379 98 120 0
0.15314296 0.20612073 -0.22886071 112 134 36
0.15508668 0.20305714 -0.23168197 90 107 27
0.09209979 0.24340467 -0.15375486 60 96 0
0.15230413 0.19789064 -0.23307304 164 192 69
0.15085381 0.19727503 -0.23259790 124 156 57
0.11579095 0.24248010 -0.17158972 99 138 19
0.13343115 0.20780972 -0.19185427 110 143 0
0.10710929 0.23698460 -0.15795049 91 117 26
0.07656588 0.22629589 -0.13483374 114 149 67
0.13444661 0.20511937 -0.19493563 88 118 4
0.13392967 0.20389991 -0.19327131 118 145 32
0.08253288 0.22902633 -0.13872199 96 127 59
0.15753295 0.20321199 -0.27906469 69 101 36
0.08467576 0.23632914 -0.13809571 89 117 43
0.07940394 0.23652902 -0.13436058 125 155 81
0.13493791 0.22987689 -0.18590483 97 108 30
0.13497891 0.23179044 -0.18773551 159 167 29
0.14514068 0.19688115 -0.23296596 90 117 0
0.14161436 0.22627315 -0.19893822 135 149 62
0.13937426 0.22825176 -0.19477299 114 130 21
0.12861711 0.20308009 -0.18722379 189 220 38
0.06050717 0.23027888 -0.12653515 118 147 93
0.06739395 0.22621854 -0.12828280 126 160 66
0.12395160 0.23802829 -0.17226286 170 190 59
0.12396920 0.23594326 -0.17226918 142 162 11
0.06697673 0.23318596 -0.13031255 171 198 167
0.06911828 0.23681836 -0.13042833 128 160 97
0.06814823 0.23479322 -0.13047762 106 138 97
0.12583812 0.20480873 -0.18605265 187 212 66
0.10624591 0.23973384 -0.16000645 140 161 22
0.10256958 0.24154413 -0.16101959 103 129 20
0.15700920 0.20580785 -0.26258603 94 129 3
0.15709743 0.20610276 -0.26140419 96 130 9
0.14101134 0.20248319 -0.22455761 119 150 46
0.13285130 0.19838546 -0.18823661 120 140 17
0.13462532 0.21176532 -0.19327132 51 85 0
0.13362180 0.21312651 -0.19245376 110 150 38
0.12759107 0.21446864 -0.18808611 79 122 17
0.05590743 0.23449534 -0.12552196 124 162 105
0.06329271 0.23951349 -0.12844910 162 196 73
0.10491684 0.21828361 -0.17981450 101 120 4
0.13293062 0.23907892 -0.19467488 99 108 29
0.07099660 0.22564104 -0.13083327 124 160 54
0.15761921 0.20175757 -0.24387790 45 81 0
0.15780702 0.20043476 -0.24417777 158 189 26
0.15582018 0.23299599 -0.26328185 91 118 63
0.14015551 0.22148485 -0.21279034 85 117 20
0.14006670 0.22176704 -0.21244258 78 110 13
0.11396249 0.23936412 -0.16609000 158 177 25
0.13184595 0.21446478 -0.18076333 176 204 57
0.08967046 0.24477214 -0.14460258 45 68 12
0.09072496 0.22900467 -0.15481804 116 160 15
0.13805088 0.20326163 -0.19798815 90 116 25
0.12056668 0.21758077 -0.17362650 124 154 30
0.15813412 0.19520108 -0.24465877 166 190 14
0.15519097 0.19441777 -0.24164863 186 209 17
0.14268887 0.22207816 -0.20271279 92 112 49
0.09149469 0.23527017 -0.14507808 103 136 55
0.12415726 0.21658407 -0.17656511 135 165 41
0.05874810 0.24271631 -0.13256852 38 54 15
0.06007398 0.24320096 -0.13151482 64 80 18
0.06729566 0.24059084 -0.14503680 34 61 0
0.07183113 0.24619189 -0.13280921 65 90 33
0.13537730 0.20025730 -0.19003743 143 164 35
0.15269208 0.22125874 -0.28782496 95 114 25
0.08506847 0.25156811 -0.14954893 80 111 8
0.09898218 0.24547422 -0.16588280 83 110 13
0.06837003 0.23993161 -0.12956215 173 204 85
0.07303450 0.24539423 -0.13232295 87 114 47
0.15876882 0.21234490 -0.24044178 78 91 12
0.14546750 0.19984864 -0.23113488 160 178 32
0.14351033 0.20092118 -0.22958185 214 237 67
0.08314443 0.25288826 -0.13660467 85 112 19
0.07308050 0.23240888 -0.13361688 153 179 140
0.06970663 0.23728795 -0.13055992 105 136 68
0.12135015 0.25221577 -0.17896542 114 149 69
0.12855105 0.24675785 -0.19555502 57 76 44
0.11720510 0.24043226 -0.16948533 105 120 25
0.11467164 0.24097191 -0.16944112 72 96 8
0.15110596 0.20948125 -0.22511528 92 111 45
0.15031323 0.21173286 -0.22305876 77 101 39
0.10470113 0.22870347 -0.15629408 140 170 106
0.09229176 0.22479093 -0.16400176 111 144 3
0.12588628 0.20653147 -0.18841380 189 217 18
0.13324547 0.23997411 -0.18287894 122 137 32
0.11678375 0.21834959 -0.17086403 112 140 37
0.11832188 0.21814439 -0.17195250 113 144 27
0.06286712 0.24451707 -0.13807277 77 97 34
0.06452250 0.24262242 -0.14149478 67 90 8
0.10300769 0.24496911 -0.17166086 87 115 12
0.11294794 0.24496420 -0.17877832 128 163 17
0.09076797 0.21748988 -0.16202798 158 172 23
0.12995309 0.24196626 -0.19879468 66 86 35
0.08972608 0.21802714 -0.16521955 101 130 20
0.12084715 0.25177494 -0.17765237 122 154 81
0.09411047 0.21999495 -0.16333330 91 103 0
0.09643121 0.22018504 -0.17005385 97 118 0
0.09462722 0.22021282 -0.15981542 128 137 18
0.09708671 0.22094466 -0.16231312 112 126 13
0.11046764 0.24678840 -0.17509180 125 156 29
0.14360155 0.20415682 -0.22127958 124 140 52
0.08673602 0.21787588 -0.16159649 45 81 0
0.15426415 0.22018735 -0.23165958 64 113 48
0.15181673 0.21825056 -0.22671345 60 119 65
0.13721156 0.21618222 -0.18528423 95 116 39
0.15627271 0.20366845 -0.27196521 114 146 21
0.15745699 0.20250846 -0.26587039 57 88 0
0.12085790 0.21306252 -0.18089166 128 151 47
0.15523174 0.21591495 -0.28056204 46 71 0
0.09433194 0.23328464 -0.14805691 125 153 92
0.15522826 0.20963420 -0.28808913 65 91 0
0.15524520 0.21148111 -0.28524616 83 108 7
0.15521222 0.20833184 -0.28758109 95 128 15
0.15536596 0.20727122 -0.27321118 89 116 45
0.15518676 0.20580189 -0.27739102 56 84 10
0.15548323 0.21293500 -0.27256680 54 78 0
0.15434031 0.22745399 -0.27876961 66 92 21
0.11177852 0.23710401 -0.16133133 103 137 27
0.08253749 0.25459924 -0.14328392 54 72 24
0.08527800 0.25332907 -0.14735298 108 135 58
0.09077318 0.24787503 -0.15786341 157 183 30
0.08871834 0.25062495 -0.15464133 120 151 0
0.10690090 0.22176288 -0.16475260 137 159 51
0.15706590 0.19611178 -0.26290262 32 65 0
0.13371877 0.23427831 -0.20504823 97 112 31
0.14632544 0.19824152 -0.23257646 86 110 0
0.15695512 0.20105977 -0.26675037 90 127 21
0.09244133 0.24563764 -0.15913646 125 152 13
0.12690108 0.25071692 -0.17921810 110 144 60
0.14087752 0.20779774 -0.20527947 113 134 15
0.13665831 0.20541486 -0.20556293 116 143 30
0.08659419 0.22854289 -0.15102416 89 128 1
0.12457410 0.24030749 -0.17292653 98 123 40
0.12834002 0.23590620 -0.17696154 122 139 0
0.14991541 0.20386952 -0.22766161 158 176 76
0.08151506 0.23310709 -0.14743841 184 215 13
0.15596047 0.22288285 -0.26611549 136 172 36
0.15625909 0.22602861 -0.27180472 95 131 31
0.10736350 0.24353188 -0.17136274 71 100 16
0.14681762 0.22454774 -0.22215319 57 87 25
0.08896574 0.25368997 -0.13924916 112 137 54
0.08820361 0.25622222 -0.13901432 92 113 34
0.13127260 0.22902371 -0.17989841 80 114 27
0.11185531 0.22009030 -0.16940096 100 129 36
0.14721006 0.22283243 -0.21742378 73 93 58
0.13508853 0.20313510 -0.20070334 126 145 17
0.15587075 0.21813662 -0.26318130 30 59 0
0.15592027 0.22031190 -0.26239669 113 149 25
0.15547985 0.21668881 -0.27399796 11 40 0
0.15588221 0.21480842 -0.26187390 63 90 0
0.07972930 0.24598888 -0.14719592 73 106 0
0.10416695 0.23858349 -0.16877614 154 188 13
0.09641760 0.23514307 -0.14964887 92 122 32
0.15301637 0.23081169 -0.26789179 117 149 38
0.15860584 0.23318106 -0.26540723 116 136 83
0.10921074 0.24091241 -0.16499400 71 92 0
0.14068358 0.22814122 -0.21591172 87 106 40
0.14253697 0.19845140 -0.23080863 146 165 21
0.08140364 0.24021846 -0.13349967 180 205 111
0.15484037 0.20811331 -0.23171698 92 100 23
0.15534104 0.20788616 -0.23251909 93 99 25
0.08599546 0.22916013 -0.14989647 81 120 1
0.10115434 0.23180538 -0.16645998 66 93 0
0.08984660 0.24799037 -0.14878999 63 87 13
0.13248621 0.23091945 -0.20893547 115 142 25
0.13164374 0.23150045 -0.20837784 72 98 0
0.08866347 0.23405443 -0.14942451 90 130 0
0.07012742 0.24758312 -0.13454214 85 110 44
0.11255979 0.21477269 -0.17911880 154 180 47
0.11597560 0.21503085 -0.17677797 106 135 19
0.13117668 0.20200093 -0.18390580 149 168 42
0.06226213 0.24254656 -0.12975970 151 163 53
0.13803665 0.23181979 -0.19670214 90 108 46
0.09023769 0.23693131 -0.14288747 125 152 59
0.08598127 0.23723711 -0.13841011 131 156 54
0.10459092 0.21961683 -0.17261371 152 174 37
0.10669647 0.21769623 -0.17742817 147 164 49
0.08626507 0.24813357 -0.14954276 118 154 4
0.10196386 0.23676819 -0.15364562 92 115 24
0.14786221 0.19796039 -0.22993951 128 172 74
0.13546456 0.20455660 -0.20685838 74 97 0
0.14963068 0.20636803 -0.22553481 141 164 76
0.14218549 0.20827301 -0.21568438 156 161 59
0.09735245 0.22490744 -0.17214316 178 216 19
0.11720933 0.22688732 -0.16503796 120 147 40
0.13223776 0.23750815 -0.18115637 108 118 22
0.13432267 0.23555370 -0.18693180 105 124 34
0.07828423 0.23200805 -0.14695308 205 226 7
0.15122287 0.21715170 -0.28709945 53 81 0
0.14042199 0.21311490 -0.19819742 66 84 32
0.13970540 0.21225354 -0.19557643 106 125 44
0.13458993 0.22191161 -0.18373357 76 102 13
0.14388558 0.20669656 -0.22571960 49 88 0
0.14789759 0.20765151 -0.22834061 100 139 24
0.15462251 0.22252542 -0.27824786 36 65 0
0.15537259 0.22032012 -0.27778482 72 103 23
0.13414989 0.22739078 -0.18365206 55 93 20
0.13171043 0.23067762 -0.18069191 88 109 44
0.15720297 0.20568487 -0.25111628 80 114 20
0.13562554 0.20264931 -0.19917537 121 139 5
0.09285138 0.22740982 -0.15947019 157 199 14
0.13339457 0.21797197 -0.18046997 79 104 72
0.10399678 0.22935562 -0.17394015 91 117 0
0.09548692 0.24307752 -0.16089296 92 127 23
0.16408728 0.19598603 -0.24414697 180 188 85
0.15422551 0.19423689 -0.24073793 205 224 34
0.12147008 0.21198472 -0.18190332 130 152 52
0.15356852 0.22188792 -0.23268804 109 154 59
0.14965306 0.19749667 -0.23464490 95 122 5
0.11998027 0.24971671 -0.18370676 186 212 76
0.13059568 0.20786969 -0.18387608 197 226 107
0.10630901 0.24620622 -0.17562239 87 115 12
0.12413287 0.22415558 -0.17054936 92 121 57
0.09541595 0.22786079 -0.16309449 82 117 1
0.14001490 0.20960394 -0.19691922 82 93 15
0.14189541 0.22755888 -0.20379269 75 105 81
0.09652818 0.23715684 -0.14932743 96 119 39
0.08880714 0.25802478 -0.14147758 87 111 35
0.10268613 0.23184341 -0.16935544 72 104 0
0.08938257 0.25042012 -0.14307863 66 89 19
0.08952806 0.25064701 -0.14583629 79 102 14
0.13014890 0.24477501 -0.17929347 57 78 47
0.09778422 0.24294233 -0.15612330 90 118 18
0.09473643 0.24149403 -0.15124275 76 91 6
0.09277252 0.24058732 -0.14808448 109 126 34
0.09395456 0.24647072 -0.15615667 85 108 20
0.08941589 0.24451779 -0.14221463 62 83 26
0.09814861 0.22325122 -0.15460373 91 124 19
0.10120274 0.22604637 -0.15562092 100 131 51
0.07543473 0.25003448 -0.13710847 89 114 23
0.13207135 0.21740711 -0.19139954 98 139 7
0.13261442 0.21797112 -0.19242075 129 170 42
0.13477257 0.23594384 -0.19945723 88 100 24
0.12754868 0.22495624 -0.17402403 145 172 31
0.08538178 0.24876125 -0.13532804 121 155 60
0.09669556 0.22439358 -0.15205613 65 97 12
0.09694725 0.22186035 -0.15425685 86 116 4
0.08815274 0.24205025 -0.14018323 74 102 41
0.09981865 0.22901452 -0.15275513 107 135 76
0.10131554 0.22794478 -0.15451446 95 126 59
0.15803882 0.20429933 -0.28396770 98 128 66
0.15624644 0.20647500 -0.28822741 62 94 0
0.14387222 0.22302119 -0.23084752 27 56 0
0.15422839 0.22663696 -0.26523417 116 157 37
0.15445226 0.22629412 -0.26498631 113 152 33
0.15360987 0.21339467 -0.24336754 49 78 0
0.13265228 0.20801091 -0.18444857 215 241 116
0.06641810 0.24599525 -0.13419671 77 98 31
0.09816522 0.24484989 -0.16905445 80 108 0
-0.08258923 0.17094068 -0.01948573 108 140 0
-0.05651917 0.11540550 0.00409721 148 181 64
-0.05455459 0.11503067 0.00446555 143 173 61
-0.06035143 0.13680255 -0.00650372 197 234 121
-0.04203888 0.13646875 -0.01512354 115 143 22
-0.06585142 0.11156659 -0.00168526 87 132 0
-0.06435829 0.11194224 0.00016013 149 194 49
-0.07738137 0.15764529 -0.01030623 178 220 136
-0.04167227 0.12742424 -0.01971254 100 128 0
-0.05118801 0.14385259 -0.01900226 90 121 4
-0.05021894 0.14110097 -0.02024415 55 83 0
-0.06473359 0.12516834 -0.03143882 185 205 58
-0.06490204 0.12487008 -0.03123704 185 205 58
-0.03825929 0.09014837 0.02027247 138 171 6
-0.04924932 0.12175716 -0.00651840 90 136 1
-0.07612579 0.15766954 -0.02514865 159 193 21
-0.07774425 0.15783010 -0.02465696 145 182 16
-0.03090876 0.11973936 -0.00384086 154 178 64
-0.03346228 0.12342789 -0.00685688 122 152 66
-0.03144221 0.11971497 -0.00308169 103 138 48
-0.03911502 0.12639229 -0.00444446 182 217 89
-0.08263611 0.16732880 -0.02200352 110 137 0
-0.03522344 0.09868326 0.02186931 103 136 45
-0.04145532 0.09982152 0.01861611 97 128 35
-0.07417329 0.14693412 -0.01098394 205 233 120
-0.03555695 0.10074851 0.01775284 114 145 26
-0.03567380 0.10215183 0.01488253 135 166 49
-0.05128432 0.12149856 -0.00943806 141 176 0
-0.08111555 0.14630154 -0.03377365 125 152 0
-0.08295254 0.14618005 -0.03369970 168 191 0
-0.08547063 0.14918821 -0.02958627 186 211 6
-0.06440071 0.14929813 -0.02395944 191 218 15
-0.03604748 0.10748131 0.00853642 160 192 65
-0.04832648 0.11468110 0.00489573 177 216 89
-0.05626238 0.10825855 0.00734441 143 190 62
-0.05789423 0.10581755 0.00631943 161 205 58
-0.06145629 0.15631506 -0.02247363 155 181 12
-0.06268045 0.15828319 -0.02072080 90 125 0
-0.03290959 0.10432103 0.01127729 126 159 54
-0.03340025 0.10619036 0.00908056 146 181 53
-0.03218303 0.12491808 -0.01083509 137 165 3
-0.03428826 0.12755887 -0.01340911 167 187 4
-0.04467455 0.09205140 0.01503678 126 159 16
-0.06414014 0.15248558 -0.02526618 131 163 0
-0.06248637 0.14421003 -0.00801975 216 244 133
-0.05965510 0.12133428 -0.02085815 149 181 12
-0.06664095 0.13570029 -0.00835637 148 185 105
-0.05437775 0.12471734 -0.00252249 148 184 138
-0.05407249 0.12655151 -0.00292229 132 170 121
-0.04524814 0.11902986 0.00103550 168 199 157
-0.04245406 0.11836921 0.00108499 148 179 135
-0.04276280 0.12774237 -0.01696938 133 167 11
-0.04670836 0.11447040 0.00473274 172 210 101
-0.03545565 0.10781109 0.00800928 181 214 84
-0.04006220 0.09132688 0.01659234 101 139 0
-0.04333534 0.09560217 0.01093333 137 164 9
-0.06091560 0.14597395 -0.02353720 122 150 0
-0.07690447 0.17021945 -0.02024423 113 146 5
-0.07550377 0.17153335 -0.01817659 152 183 17
-0.07736158 0.12902743 -0.03934254 105 134 24
-0.03577090 0.12940371 -0.01840980 67 90 8
-0.04604048 0.13983823 -0.01514923 83 111 11
-0.03704096 0.13119681 -0.01719150 78 111 0
-0.04438671 0.12542328 -0.00558981 97 141 0
-0.04155435 0.10339089 0.01178759 162 186 4
-0.04261108 0.10876127 0.00917974 150 177 4
-0.06108284 0.13517249 -0.02699097 120 155 0
-0.06375265 0.12776420 -0.03258584 132 158 9
-0.06290591 0.13382892 -0.02868802 191 220 8
-0.07548592 0.14381208 -0.03515669 152 187 0
-0.07402111 0.13824150 -0.03573076 125 161 0
-0.06093376 0.15638138 -0.02061537 69 105 0
-0.05894939 0.15420990 -0.02002313 63 97 0
-0.05332605 0.12476663 -0.01989642 188 209 26
-0.05563113 0.11857191 -0.01234528 95 141 6
-0.04362715 0.09520651 0.02210041 194 216 107
-0.06774024 0.13189760 -0.03450771 72 104 0
-0.06825576 0.13577333 -0.03315071 173 205 8
-0.05467595 0.12382596 -0.02278622 182 199 23
-0.04719618 0.09727397 0.00798332 41 78 0
-0.07630883 0.13333313 -0.03640326 102 138 6
-0.06831392 0.12609924 -0.00590869 142 171 91
-0.06455682 0.12261968 -0.00253905 190 222 95
-0.05386632 0.12276103 -0.01449831 117 154 0
-0.03810219 0.13221939 -0.01154282 144 163 35
-0.04646569 0.13899583 -0.01152722 161 187 60
-0.04655234 0.09246521 0.01732977 160 185 57
-0.07491570 0.15802568 -0.01025669 155 193 118
-0.06970540 0.15941407 -0.01136365 149 186 81
-0.06675415 0.15392628 -0.01013292 150 189 96
-0.06063855 0.12707038 -0.03123536 153 169 11
-0.06137722 0.12552358 -0.02895945 143 167 7
-0.04721908 0.12658538 -0.01598432 144 171 6
-0.04198275 0.12780762 -0.00951593 101 139 0
-0.06586012 0.14381567 -0.00915591 205 229 119
-0.07531570 0.12322392 -0.03546479 122 149 20
-0.07685675 0.12289760 -0.03592185 113 139 12
-0.07019768 0.12076079 -0.03003909 115 146 9
-0.04758678 0.13765958 -0.00949198 126 154 69
-0.04830875 0.14155151 -0.01275051 92 112 15
-0.05338547 0.13874575 -0.00676511 194 221 116
-0.04841551 0.14111727 -0.01226525 148 160 52
-0.06813449 0.14409207 -0.02836801 169 195 2
-0.06933678 0.14495857 -0.02917870 186 208 12
-0.07143608 0.14759152 -0.03023346 165 185 10
-0.05089955 0.14318973 -0.01250341 105 128 37
-0.05796567 0.14808999 -0.01099868 141 172 92
-0.05717393 0.14965123 -0.01192739 136 172 84
-0.05969194 0.14954807 -0.01072506 135 166 73
-0.05293519 0.12263243 -0.00112335 166 200 150
-0.06312400 0.15671171 -0.02290178 157 187 1
-0.08009457 0.17509672 -0.01318437 145 175 25
-0.04175739 0.12646541 -0.00712164 182 200 2
-0.04361059 0.12618731 -0.00618087 141 177 5
-0.07489001 0.17071596 -0.01366055 150 178 76
-0.07358653 0.16338390 -0.02399035 132 161 0
-0.07305620 0.12578358 -0.03645120 88 114 27
-0.05245781 0.10990195 0.00897252 136 174 63
-0.05123420 0.11017844 0.00876556 127 163 57
-0.07687415 0.14914411 -0.03098757 169 196 19
-0.07738018 0.14781535 -0.03238694 181 203 14
-0.05825066 0.15321667 -0.01534790 115 149 26
-0.05476466 0.14959401 -0.01576319 97 130 15
-0.05557609 0.14558324 -0.02203790 54 95 0
-0.05371875 0.13637961 -0.02463551 195 212 36
-0.05439841 0.12963344 -0.02711340 171 203 8
-0.05479502 0.13570267 -0.02513220 187 208 19
-0.04834544 0.13530156 -0.02242790 44 81 4
-0.05114485 0.13217682 -0.02488321 142 174 3
-0.05788155 0.12000038 0.00051802 155 192 78
-0.05731503 0.11991068 0.00062230 155 192 78
-0.07307015 0.15719785 -0.02536082 96 138 0
-0.05690720 0.14319898 -0.02352658 168 203 21
-0.05334676 0.14108963 -0.02319420 112 147 19
-0.07974331 0.17358986 -0.01751642 167 200 31
-0.06972765 0.13084573 -0.03561727 113 138 18
-0.06618503 0.14769858 -0.02522032 125 155 0
-0.06281115 0.13219854 -0.00606993 167 212 121
-0.06260622 0.13128723 -0.00572387 122 164 90
-0.06950185 0.15261814 -0.02620822 142 170 0
-0.07022453 0.15218425 -0.02682218 187 204 4
-0.06989692 0.15374860 -0.00977588 185 220 126
-0.05499066 0.10296845 -0.00155297 51 93 0
-0.05405797 0.09922823 0.00398608 99 137 15
-0.05053252 0.10208876 0.00128868 48 96 0
-0.04267383 0.12568319 -0.00259035 113 151 64
-0.04573264 0.12705378 -0.00324884 124 156 89
-0.05910718 0.14174227 -0.00697506 206 236 106
-0.06970082 0.16452232 -0.02050747 143 178 13
-0.07174024 0.16468631 -0.02177703 158 194 22
-0.08878975 0.14432386 -0.03412044 166 192 0
-0.05220545 0.09940750 0.01122131 158 205 47
-0.05608266 0.10299549 0.00761936 79 118 25
-0.05599791 0.09986752 0.00409038 76 101 9
-0.06167926 0.10757907 -0.00246645 71 104 15
-0.06045504 0.10623301 0.00020583 61 96 14
-0.06414384 0.10995492 -0.00094922 133 179 19
-0.06462913 0.11004352 -0.00493702 70 105 3
-0.08019657 0.12719361 -0.04160418 90 122 13
-0.07169389 0.13871016 -0.03506298 109 145 0
-0.07033783 0.13597466 -0.03543870 149 189 15
-0.05540472 0.15036829 -0.01970580 83 111 9
-0.04431581 0.10287941 0.00742236 135 173 8
-0.04487291 0.10650247 0.00645178 171 196 17
-0.06533544 0.11711794 -0.02273130 96 125 0
-0.06750207 0.16335595 -0.01319689 131 171 75
-0.07014520 0.16730011 -0.01472151 124 164 76
-0.03606110 0.12836562 -0.01216701 120 147 8
-0.03283441 0.12464564 -0.00697410 95 128 0
-0.06710877 0.12976635 -0.00671941 202 234 195
-0.07292962 0.12856460 -0.00819438 138 169 89
-0.06308787 0.11383842 0.00180003 138 180 80
-0.06236920 0.11269732 0.00232197 156 200 89
-0.07221796 0.12074013 -0.00639469 172 214 86
-0.07018667 0.11790578 -0.00505682 105 151 43
-0.06881861 0.16161908 -0.01167809 169 197 97
-0.07568899 0.16100854 -0.01077141 163 202 109
-0.08224744 0.16370104 -0.02261146 92 131 0
-0.08296099 0.16654927 -0.02203859 157 183 21
-0.08175351 0.14111578 -0.03600175 146 183 5
-0.07802080 0.14248507 -0.03549788 161 189 9
-0.07478889 0.14518316 -0.01126741 143 178 98
-0.07650565 0.14622355 -0.01163355 171 207 111
-0.04538146 0.10332622 0.01404217 126 160 24
-0.04311103 0.10208659 0.01589878 127 162 46
-0.03428971 0.12869622 -0.01275647 157 181 41
-0.06657930 0.16292220 -0.01415359 123 160 65
-0.06823269 0.16527620 -0.01623721 113 151 52
-0.03285855 0.12538822 -0.00972773 184 200 76
-0.03741789 0.12933977 -0.00943192 175 193 81
-0.02630746 0.11998109 -0.01038725 174 199 46
-0.03638958 0.12103265 -0.00180015 149 183 86
-0.03620274 0.11749848 0.00050398 92 129 62
-0.03605146 0.11907499 -0.00062384 116 149 70
-0.03887376 0.09402767 0.02506157 192 218 56
-0.03976967 0.09567595 0.02315862 117 147 25
-0.05149283 0.12672265 -0.02084999 125 153 0
-0.05092603 0.10492844 0.01201217 139 180 52
-0.04457543 0.10455655 0.01352616 162 198 64
-0.03918906 0.12911256 -0.01945505 86 113 6
-0.04387250 0.13380907 -0.02115923 74 103 11
-0.05033400 0.13101099 -0.00468245 153 191 92
-0.05391647 0.12858579 -0.00348166 143 187 98
-0.04949359 0.09811942 0.01451308 172 216 93
-0.04946676 0.12621407 -0.01667823 171 205 7
-0.05102165 0.09811061 0.00576500 75 115 0
-0.05038841 0.09719779 0.00734737 80 117 1
-0.05910382 0.11648592 0.00308022 155 195 72
-0.06954335 0.15693590 -0.02459396 102 150 2
-0.05451848 0.13553265 -0.00550691 198 233 133
-0.06509522 0.11768304 -0.00042283 187 222 80
-0.03023169 0.12332272 -0.01570755 118 143 13
-0.35668188 -0.05166310 -0.07762627 47 80 0
-0.36335674 -0.05593226 -0.07741546 36 66 16
-0.36075392 -0.04894127 -0.06968131 82 119 14
-0.35905096 -0.04771034 -0.07506008 22 57 1
-0.36262760 -0.06380764 -0.07973211 77 103 38
-0.35492012 -0.04408145 -0.07755606 76 104 46
-0.35840359 -0.04689439 -0.07619338 19 51 14
-0.35652491 -0.05477472 -0.07682218 51 85 0
-0.36218429 -0.05285701 -0.07270404 45 77 4
-0.35997495 -0.05147458 -0.07738983 87 106 86
-0.36318719 -0.06479733 -0.07667237 73 100 21
-0.35247460 -0.04463253 -0.07586587 60 98 0
-0.36289033 -0.06041315 -0.07920165 37 60 18
-0.36067298 -0.05164678 -0.07319566 48 80 33
-0.35840851 -0.04610604 -0.07159562 58 89 48
-0.09005629 0.21937411 -0.26976943 69 101 0
-0.09236424 0.21670361 -0.26950938 88 119 0
-0.08359562 0.21694180 -0.27229595 92 126 39
-0.08005933 0.21755080 -0.27296904 116 157 55
-0.07886763 0.23232363 -0.27785313 120 139 31
-0.07893614 0.22740446 -0.27993476 114 146 19
-0.16183691 0.22387417 -0.28438115 117 132 73
-0.16430025 0.22613086 -0.28065997 135 158 42
-0.06033421 0.23936428 -0.27821529 189 198 55
-0.06381176 0.24219209 -0.28048524 106 130 16
-0.11380940 0.23407181 -0.26746297 154 177 73
-0.15993354 0.22267541 -0.28480989 116 138 38
-0.15737301 0.22118719 -0.28403035 135 166 13
-0.09045667 0.21607016 -0.27024490 99 128 0
-0.07655384 0.21879137 -0.27317151 66 102 30
-0.08157205 0.21834125 -0.27205607 68 102 25
-0.17216936 0.21786495 -0.28643578 88 123 41
-0.10558818 0.21940283 -0.26714468 125 160 66
-0.04773214 0.24823245 -0.27680355 127 138 8
-0.04861571 0.24513559 -0.28130221 50 81 5
-0.16852421 0.22161111 -0.27939487 141 172 69
-0.17001840 0.22315273 -0.28179938 96 119 29
-0.11677864 0.21616784 -0.27356321 72 120 2
-0.12381969 0.21629351 -0.27580872 42 92 3
-0.11349674 0.21519159 -0.27301338 84 119 1
-0.11256104 0.22064440 -0.27022052 79 128 2
-0.10515077 0.22731256 -0.26917657 84 116 19
-0.14102347 0.21475504 -0.27686098 63 105 3
-0.17170478 0.22308661 -0.28372452 97 121 35
-0.15720557 0.21296987 -0.28458330 101 141 9
-0.06899966 0.22681326 -0.28064433 156 163 51
-0.06870093 0.22747660 -0.28088075 94 105 11
-0.14294966 0.21028177 -0.27991459 84 124 0
-0.18329534 0.21666515 -0.29515266 79 108 28
-0.13473475 0.21695726 -0.27779454 36 79 0
-0.13545297 0.21913791 -0.27631411 34 69 3
-0.13747776 0.22109123 -0.27514464 63 91 4
-0.08684390 0.22937347 -0.27386552 97 129 18
-0.09230543 0.22595115 -0.27233168 59 92 21
-0.05903438 0.23389854 -0.27868882 60 87 20
-0.05716120 0.23117325 -0.27994144 45 73 25
-0.09843720 0.21300103 -0.26753247 44 75 0
-0.09922041 0.21357340 -0.27008447 99 144 27
-0.02637266 0.23517050 -0.29612154 31 57 0
-0.01836445 0.23597814 -0.30193257 38 63 5
-0.02873801 0.23489065 -0.29440293 28 55 4
-0.09799709 0.21846627 -0.26693249 62 93 0
-0.07531372 0.23232159 -0.27911377 152 164 36
-0.07709274 0.23144045 -0.27908143 147 165 47
-0.09869975 0.21640651 -0.26944894 99 127 17
-0.09830012 0.21401842 -0.27086198 88 129 0
-0.07008075 0.22159208 -0.27699769 54 88 2
-0.05434807 0.24530774 -0.28043827 92 121 5
-0.06042145 0.24406545 -0.27602842 169 186 56
-0.13088574 0.22611901 -0.27236778 110 141 1
-0.05018233 0.24354200 -0.27566719 205 214 95
-0.05283245 0.24542500 -0.27561873 110 124 11
-0.06903280 0.23911932 -0.27933455 111 128 26
-0.06236989 0.23733060 -0.27730888 92 116 2
-0.06381192 0.22882368 -0.28071061 149 169 58
-0.09520420 0.22421248 -0.27040577 72 109 14
-0.09367421 0.22542776 -0.27162483 57 91 17
-0.17538173 0.21456628 -0.29479843 55 80 12
-0.17335160 0.21456128 -0.29328749 69 94 26
-0.14684498 0.21457639 -0.27815008 63 100 4
-0.04148157 0.24237573 -0.28316006 144 161 55
-0.04257859 0.24047580 -0.28349021 67 91 0
-0.04457873 0.23981342 -0.28260845 122 146 48
-0.15074192 0.20890303 -0.28284854 92 128 2
-0.16064470 0.21201779 -0.28780368 101 139 0
-0.04045984 0.23376086 -0.28681874 38 69 0
-0.04077892 0.23195291 -0.28670728 64 97 16
-0.16953532 0.21465155 -0.29102799 63 90 19
-0.12275861 0.21515396 -0.27522379 68 108 0
-0.12831496 0.21592955 -0.27654836 36 84 0
-0.10475924 0.21590555 -0.26621413 110 135 18
-0.09489836 0.22019932 -0.26927024 98 126 15
-0.08815747 0.21980186 -0.27306053 116 145 37
-0.11400320 0.21432257 -0.27215824 80 108 0
-0.11296199 0.21461649 -0.27157277 129 161 34
-0.10862522 0.21560350 -0.26922449 91 123 0
-0.08716161 0.22147362 -0.27388164 83 116 25
-0.10909870 0.22845806 -0.26940870 130 155 53
-0.11977835 0.22709036 -0.27033147 123 150 33
-0.04999331 0.23028401 -0.28207794 62 97 15
-0.11137947 0.22059897 -0.26889282 90 125 41
-0.10885128 0.21917684 -0.26750627 100 136 38
-0.10967527 0.22332984 -0.26966602 86 118 43
-0.08037932 0.22357695 -0.27834353 79 96 18
-0.12037608 0.21928582 -0.27296063 35 78 0
-0.12121937 0.21988647 -0.27275252 37 79 7
-0.05894693 0.24390860 -0.28044266 175 189 31
-0.05864431 0.24423710 -0.27854139 188 211 59
-0.10906027 0.22671093 -0.26975974 76 107 31
-0.12752016 0.22438535 -0.27176148 89 125 1
-0.04338943 0.23690183 -0.28484619 72 101 21
-0.05281049 0.23299980 -0.27996549 43 71 23
-0.05102775 0.23716718 -0.27999315 110 136 13
-0.06805073 0.23271294 -0.27962816 143 151 30
-0.06947356 0.23400441 -0.27869681 197 200 67
-0.08701608 0.22647077 -0.27555722 71 97 24
-0.11186115 0.21803875 -0.27110538 124 166 18
-0.11209586 0.21678331 -0.27174261 116 157 16
-0.11347407 0.21967740 -0.27071521 76 124 2
-0.15466326 0.21785185 -0.28263956 73 102 0
-0.02118527 0.24818335 -0.30358750 188 203 74
-0.02248552 0.24404629 -0.29918349 118 153 27
-0.17820741 0.21726646 -0.29451200 54 78 0
-0.17998141 0.21634471 -0.29661974 60 82 10
-0.01010328 0.24966678 -0.30382726 104 110 0
-0.15149711 0.21946116 -0.28137603 70 100 2
-0.15285376 0.21847959 -0.28185019 68 100 1
-0.02984419 0.23633835 -0.29373586 45 77 4
-0.03218053 0.23725940 -0.29224524 53 87 1
-0.11676899 0.23026305 -0.26854086 155 179 65
-0.16006057 0.21719696 -0.28625208 54 81 4
-0.16769157 0.21538053 -0.28994945 65 92 25
-0.16867208 0.21075626 -0.29497007 53 81 4
-0.07648979 0.21980470 -0.27583984 150 182 97
-0.07527976 0.22120415 -0.27895096 78 103 20
-0.17587402 0.21828890 -0.28799489 87 119 36
-0.17443310 0.22050689 -0.28747571 99 125 26
-0.10156847 0.22317863 -0.26850963 79 113 37
-0.09818184 0.22484395 -0.26982656 95 128 57
-0.16835921 0.22050998 -0.28069037 100 133 26
-0.17028192 0.21686578 -0.29038566 48 71 15
-0.02148867 0.24210066 -0.29947305 59 94 0
-0.01994341 0.24374725 -0.29988092 146 177 48
-0.01538250 0.23825525 -0.30390391 34 63 0
