0.41283509 0.44513738 -0.11786538 100 139 0
0.37813070 0.45947385 -0.15351647 56 92 0
0.39300624 0.46548235 -0.12597333 97 130 0
0.39055318 0.44815508 -0.14128527 107 143 21
0.38943624 0.46939331 -0.12242065 90 138 0
0.36046675 0.47167885 -0.17331077 83 117 41
0.39362225 0.44345510 -0.13568588 68 98 8
0.38976678 0.45254636 -0.13367580 106 149 7
0.38942301 0.45266464 -0.13493824 140 183 16
0.40297475 0.44774571 -0.11619007 113 150 37
0.40161958 0.45640087 -0.11767229 92 127 7
0.39945060 0.45415673 -0.11900515 117 146 64
0.39582628 0.45038405 -0.12638924 103 151 3
0.36839065 0.48046815 -0.17822777 55 91 17
0.37003237 0.46999663 -0.15704180 87 123 0
0.39513934 0.44479585 -0.12879959 114 161 7
0.39703152 0.44212395 -0.12397800 78 118 4
0.39434078 0.44440019 -0.12863268 84 125 5
0.39610752 0.43992886 -0.13395680 97 141 28
0.40078187 0.42963293 -0.11658058 70 109 18
0.38777947 0.45311812 -0.14609943 67 103 5
0.38851187 0.45187154 -0.14430095 69 106 10
0.39541194 0.45488796 -0.12620991 77 116 0
0.39797428 0.44240794 -0.12640736 69 107 0
0.38693306 0.45377001 -0.14025642 56 87 0
0.41029251 0.44079417 -0.11657289 72 122 1
0.38412511 0.46409896 -0.13774487 86 122 35
0.38766176 0.46346709 -0.13289781 110 150 17
0.39256477 0.46406591 -0.12570408 112 144 0
0.36485997 0.48301342 -0.18208146 25 55 0
0.40181050 0.42965782 -0.12457817 50 87 17
0.69529098 0.56160104 -0.40215951 32 27 33
0.69679224 0.54747194 -0.40540975 51 39 39
0.68800151 0.59607095 -0.40242755 3 2 7
0.69567424 0.54954749 -0.40581053 57 49 47
0.69350266 0.57156348 -0.40127632 34 32 37
0.69016689 0.59590328 -0.40500346 52 46 50
0.69149083 0.57995605 -0.40151852 0 0 0
0.68901801 0.58967906 -0.40165815 58 53 50
0.57217944 0.27605519 -0.30007142 65 98 11
0.57257044 0.27867219 -0.29979080 109 136 57
0.57475227 0.28336129 -0.29832456 77 99 35
0.57460755 0.26679903 -0.29498106 115 145 33
0.55646718 0.26707441 -0.31618589 128 160 25
0.56047046 0.26951522 -0.30893120 127 161 41
0.56822819 0.26636049 -0.30846694 76 124 6
0.56842446 0.26628980 -0.30825648 105 154 28
0.57365614 0.27732176 -0.29428110 110 146 38
0.57392687 0.27404624 -0.29478684 114 153 38
0.56686842 0.27730584 -0.30245233 52 88 1
0.56180239 0.27559057 -0.30110550 166 183 55
0.56346434 0.28771749 -0.30223313 100 135 7
0.56633562 0.27627122 -0.30265132 56 93 0
0.57554120 0.26224598 -0.30121416 109 126 90
0.57467991 0.26938593 -0.29492691 166 201 85
0.57879305 0.26769540 -0.29748580 147 177 107
0.57595289 0.26704514 -0.30139580 36 69 0
0.57438076 0.26490781 -0.30325872 64 96 21
0.56680673 0.26705316 -0.30979922 49 93 0
0.68550658 0.70611215 -0.14682794 90 126 28
0.68429399 0.71737021 -0.16452841 124 167 34
0.68973112 0.60424256 -0.09568876 66 96 32
0.69059098 0.61759293 -0.09720482 24 66 0
0.69388604 0.67112333 -0.12468871 77 109 12
0.68944943 0.65251338 -0.11954967 64 104 16
0.68844551 0.66971141 -0.11611392 88 121 32
0.68170297 0.73118842 -0.17654598 77 112 28
0.68186396 0.70137197 -0.14288768 77 107 33
0.68389505 0.72678345 -0.17270097 69 105 5
0.68582600 0.68052268 -0.12665215 79 107 22
0.68780857 0.67346007 -0.12859309 39 88 0
0.68590659 0.68423182 -0.13526052 61 113 12
0.69305193 0.64163053 -0.11418589 49 83 0
0.68627882 0.62224740 -0.10559723 33 67 17
0.68392527 0.62194997 -0.10328716 10 45 0
0.68006152 0.68547255 -0.13428386 24 65 0
0.67922556 0.69406521 -0.13760452 96 124 47
0.69407129 0.64532268 -0.10736345 93 132 15
0.68754470 0.66059309 -0.12214448 42 81 14
0.68755889 0.66001362 -0.12186619 47 86 23
0.69323957 0.66645539 -0.11892314 65 95 9
0.68936896 0.66174144 -0.10904888 99 139 17
0.68586856 0.71218342 -0.15501364 76 123 0
0.67914999 0.73036492 -0.17616382 69 107 22
0.68763894 0.68745035 -0.13698268 47 95 0
0.69325137 0.67722088 -0.12659943 112 137 72
0.69233537 0.65399563 -0.10620544 110 150 28
0.69378537 0.65135145 -0.10809789 83 123 11
0.68554658 0.67023253 -0.12616740 32 73 0
0.69034243 0.67993432 -0.12577270 100 129 45
0.69446909 0.66114128 -0.11986876 96 124 21
0.69227344 0.65821940 -0.11069667 81 119 10
0.69071561 0.67236590 -0.12740831 51 96 0
0.69308394 0.66994911 -0.12530853 71 108 2
0.68364078 0.70958406 -0.15032414 117 154 59
0.68453157 0.66309118 -0.12184199 39 75 3
0.68711942 0.69443566 -0.13870035 80 113 26
0.68345475 0.68377459 -0.13409640 17 63 0
0.68249017 0.68302518 -0.13312769 35 84 3
0.68185681 0.62936920 -0.10193764 44 81 4
0.68399197 0.71613514 -0.15612482 107 141 47
0.67994726 0.68966073 -0.13223408 93 123 35
0.68541229 0.62573516 -0.10615554 17 54 2
0.68438798 0.63385642 -0.10831666 15 51 0
0.68878424 0.61265361 -0.09842841 57 95 18
0.69349235 0.65188009 -0.11282447 64 102 3
0.68439960 0.64855945 -0.10048695 131 177 45
0.68576771 0.64765203 -0.09970140 104 146 20
0.68776929 0.64339072 -0.09763085 121 155 45
0.69063175 0.64625102 -0.09769639 152 186 73
0.69072914 0.65329456 -0.10272783 117 144 31
0.69198585 0.64861500 -0.10165706 84 122 1
0.68054098 0.67094249 -0.12343816 30 63 0
0.69020081 0.62819004 -0.09315524 95 139 60
0.69191033 0.64290029 -0.11575880 49 83 7
0.68707323 0.62486309 -0.10706046 16 51 0
0.68798631 0.61980683 -0.10113720 49 81 18
0.68863398 0.69529915 -0.14079124 78 124 15
0.68593884 0.71759880 -0.15878448 104 141 35
0.69301558 0.66364938 -0.12208930 59 89 0
0.69068664 0.63809681 -0.09610999 121 161 73
0.68024594 0.67683780 -0.12676471 44 79 13
0.68199134 0.65626502 -0.10719381 76 115 9
0.68154472 0.65401632 -0.10846918 69 107 6
0.68180662 0.64813900 -0.10628870 54 99 8
0.68347424 0.63628012 -0.10083968 87 125 24
0.68322694 0.63505363 -0.10034572 85 122 27
0.68237424 0.63199550 -0.10260449 39 73 0
0.69422454 0.67131293 -0.12247463 64 90 25
0.69043815 0.60364872 -0.09287928 32 67 3
0.69153291 0.60890645 -0.09067158 61 101 39
0.69188315 0.61587858 -0.09340107 48 89 31
0.68635607 0.66659677 -0.11181551 100 138 37
0.69549179 0.65264571 -0.11720026 80 104 8
0.69336456 0.64791936 -0.11070874 52 88 0
0.69344705 0.65552074 -0.12094791 129 158 52
0.69365126 0.64240360 -0.10262639 128 171 19
0.69144326 0.61562359 -0.09159373 50 95 26
0.69171995 0.60937661 -0.08961736 67 105 46
0.69257414 0.63169938 -0.09860338 57 101 16
0.68427682 0.70826530 -0.15309530 88 140 6
0.69410753 0.64180797 -0.10386093 60 99 0
0.69373679 0.63579130 -0.10264836 65 106 4
0.68177402 0.70154107 -0.14674672 71 119 17
0.68417740 0.69868559 -0.14485301 29 79 0
0.69705158 0.65436071 -0.11935262 110 137 6
0.68732077 0.69327545 -0.14013682 37 84 0
0.68991584 0.68958962 -0.13710858 57 100 0
0.68000597 0.70840788 -0.15249503 55 102 6
0.69059014 0.64087260 -0.09635499 122 156 80
0.69418174 0.66152972 -0.11935201 102 129 34
0.67953503 0.70975506 -0.15427305 54 103 0
0.68138885 0.62288201 -0.09617297 73 103 15
0.68146569 0.61768538 -0.09450591 99 128 35
0.68037444 0.61894995 -0.09647449 70 102 17
0.68216759 0.62436807 -0.09548297 76 107 27
0.69395632 0.64947230 -0.11415754 64 94 22
0.69153482 0.62848163 -0.09983108 54 92 17
0.69090658 0.66234654 -0.11210529 80 115 23
0.69240284 0.66968793 -0.11793815 100 137 34
0.68895769 0.62400609 -0.09084804 111 141 71
0.68579447 0.61288154 -0.08743993 130 154 44
0.68008912 0.68542254 -0.13431852 20 62 0
0.68243676 0.68863237 -0.13723372 45 93 9
0.68503267 0.72416401 -0.16949354 89 133 9
0.68315637 0.64039767 -0.10360342 66 106 7
0.68326968 0.64047182 -0.10560076 47 82 2
0.68633109 0.71623755 -0.15893702 103 141 32
0.68160486 0.71460897 -0.15996997 73 123 2
0.68452531 0.62518162 -0.09234425 110 138 15
0.68752581 0.62422377 -0.09120277 139 160 57
0.67908132 0.71533406 -0.15860268 85 119 58
0.67991912 0.73020011 -0.17327951 99 130 63
0.68175387 0.69130468 -0.13345955 75 111 23
0.68037581 0.72452182 -0.16860425 94 127 70
0.67973804 0.70051581 -0.14342912 97 122 56
0.68206382 0.69637388 -0.13844524 52 88 18
0.68098444 0.72354341 -0.16812763 93 130 61
0.67804408 0.70793217 -0.15102799 88 113 45
0.68569374 0.68746805 -0.13342197 81 107 34
0.68991917 0.68616611 -0.13037987 94 121 50
0.68036622 0.71111298 -0.15404764 90 123 44
0.68385386 0.72240496 -0.16441204 110 137 86
0.68701559 0.72278982 -0.16388792 123 133 81
0.68445361 0.68413734 -0.12842403 67 93 22
0.68796700 0.68900585 -0.13341303 92 119 48
0.69005084 0.59284866 -0.09265693 50 89 24
0.69580847 0.57313973 -0.08451974 55 82 41
0.69292521 0.59063894 -0.08317784 77 111 35
0.69244587 0.59622186 -0.08559444 49 88 23
0.68050665 0.59949350 -0.09441876 28 65 13
0.69229567 0.59079665 -0.08957281 82 120 37
0.69366717 0.58461845 -0.08639000 51 83 8
0.69167531 0.59990525 -0.08779266 55 94 31
0.69168371 0.60210925 -0.08663411 55 93 34
0.69232786 0.59219700 -0.08895975 33 71 0
0.68624735 0.58892399 -0.09242340 15 54 1
0.68420702 0.60377795 -0.09629314 32 71 8
0.68878227 0.60154974 -0.09504646 70 105 39
0.33663654 0.72663611 -0.40420744 42 51 24
0.59901309 0.38533425 -0.13563165 189 207 1
0.57167697 0.40680748 -0.12663254 129 164 38
0.60267204 0.38676935 -0.15532489 111 134 2
0.60412735 0.38375953 -0.15510975 77 105 5
0.61942774 0.42468867 -0.14291719 140 151 91
0.62137675 0.42414543 -0.14338374 122 135 53
0.59173989 0.38250828 -0.12771867 181 203 16
0.58141190 0.39745644 -0.14549729 128 154 1
0.57524401 0.39719722 -0.14322823 94 126 0
0.58374566 0.36779842 -0.11930101 59 95 0
0.59148556 0.41993153 -0.14166214 107 136 30
0.62828004 0.42737240 -0.15457869 150 171 54
0.62651318 0.42372498 -0.14671089 123 136 31
0.62269342 0.42739734 -0.15227009 114 131 27
0.58200711 0.39961374 -0.13912432 91 123 0
0.57284313 0.39787254 -0.13809004 110 138 19
0.53516084 0.34307361 -0.08068669 64 96 11
0.58330619 0.40157568 -0.13605784 138 160 59
0.58383262 0.40091747 -0.13770714 129 153 39
0.61306745 0.43013367 -0.16454200 116 132 34
0.60885143 0.37914610 -0.13861932 151 169 5
0.58666521 0.38418838 -0.12480872 52 82 0
0.56220233 0.35396731 -0.09289718 127 160 27
0.59071994 0.37900376 -0.12664035 122 148 0
0.59819275 0.39730352 -0.12302200 147 176 34
0.60971546 0.42864004 -0.15759110 153 174 47
0.59318572 0.37033027 -0.12461653 52 88 1
0.60481632 0.37332752 -0.13188751 65 101 5
0.55189025 0.34647867 -0.09113658 73 104 10
0.55877984 0.35267365 -0.09535543 94 126 27
0.61441350 0.42726448 -0.14629006 161 182 91
0.59820884 0.42053613 -0.14388077 143 167 43
0.62925023 0.42731085 -0.15616108 150 171 52
0.59786737 0.42288163 -0.15509306 80 107 0
0.59663093 0.42231905 -0.15609030 93 120 25
0.61317515 0.42812860 -0.15207592 149 173 63
0.60244292 0.38176316 -0.13584206 130 154 0
0.62109369 0.42806318 -0.15981053 149 164 69
0.56181782 0.35522071 -0.09893726 71 105 10
0.57368702 0.37328520 -0.11260445 46 80 0
0.57797271 0.37790549 -0.11438890 65 92 0
0.55370378 0.35145751 -0.08559556 142 180 19
0.57534796 0.36073160 -0.10697484 47 78 0
0.57056904 0.35932079 -0.10611004 84 111 6
0.59251523 0.42093453 -0.14695902 114 141 36
0.57216573 0.39774290 -0.14890461 129 155 19
0.60364580 0.37703654 -0.13269070 144 163 19
0.61659443 0.37646288 -0.14284086 91 122 0
0.54406935 0.34540951 -0.07841181 146 187 31
0.54435271 0.34321782 -0.07875495 107 140 27
0.61831266 0.41688371 -0.12698416 127 144 38
0.61155373 0.42035630 -0.13774893 63 88 0
0.57067651 0.35845181 -0.10247137 57 86 2
0.59589612 0.38629359 -0.15095940 157 182 16
0.59279019 0.38998976 -0.14933860 185 209 35
0.60241765 0.41046208 -0.12831670 103 125 14
0.61595231 0.37610221 -0.14013287 73 111 2
0.59910280 0.38627261 -0.14039718 180 201 22
0.60225749 0.40447363 -0.12547648 116 147 10
0.57313538 0.39980608 -0.14752878 99 127 0
0.57982528 0.39388263 -0.15135786 123 147 11
0.61578143 0.41668481 -0.12633054 151 169 59
0.56829774 0.42604354 -0.13371490 151 177 52
0.56322259 0.36301181 -0.10590079 52 82 8
0.59805202 0.38569221 -0.14778577 144 168 8
0.55859619 0.36137730 -0.09857072 90 110 38
0.55906236 0.36175317 -0.09912357 74 95 18
0.60669869 0.42792240 -0.15706293 122 143 24
0.55560255 0.35904953 -0.09591893 98 118 47
0.54689503 0.35264575 -0.09226295 96 116 55
0.61184615 0.41730401 -0.13425459 79 105 18
0.56466150 0.40965977 -0.12240927 112 144 17
0.54288399 0.35014689 -0.08958759 80 102 38
0.53950119 0.34849653 -0.08626289 120 142 70
0.62041056 0.42575869 -0.17163450 88 119 0
0.57590210 0.37476933 -0.11651510 36 72 0
0.57450920 0.37365168 -0.11483741 57 94 1
0.57658839 0.37547860 -0.11684777 38 72 0
0.58392906 0.39108706 -0.15153505 155 184 56
0.57484859 0.41339394 -0.12884367 178 206 34
0.61452246 0.42947945 -0.15755433 85 109 23
0.59601492 0.42143753 -0.14557247 93 119 22
0.55816454 0.40579760 -0.12024041 145 168 88
0.60965985 0.42325202 -0.14063537 101 126 24
0.58687580 0.38525122 -0.11593426 180 205 59
0.58607680 0.38478616 -0.11559288 169 192 50
0.58016813 0.37672496 -0.10830423 119 157 36
0.60184234 0.39237124 -0.11841261 213 227 82
0.60911173 0.39677587 -0.12111268 154 178 18
0.61501873 0.40101445 -0.12361924 193 214 21
0.61987787 0.38133812 -0.15413052 85 118 3
0.62041491 0.37876207 -0.14975363 94 120 0
0.59520638 0.38921493 -0.13030727 193 202 11
0.61426324 0.37566662 -0.14491634 159 176 12
0.61833900 0.42935607 -0.16154715 103 125 40
0.59895283 0.39575902 -0.12979028 184 206 17
0.59866661 0.38231099 -0.14625154 111 135 0
0.59876996 0.40697798 -0.13228363 121 150 22
0.59478366 0.38894087 -0.15133786 106 139 0
0.59608740 0.39771995 -0.12619863 91 122 2
0.60415047 0.42057046 -0.13910308 145 173 50
0.58130068 0.37026808 -0.12022464 108 142 0
0.57592273 0.39342219 -0.15118045 163 200 43
0.59974176 0.41192225 -0.13127111 161 187 34
0.59083068 0.39152199 -0.12232064 97 125 15
0.58981436 0.39044881 -0.12123375 96 125 17
0.60768557 0.38121083 -0.15602197 116 139 5
0.62123364 0.42545232 -0.14647274 127 145 43
0.59547210 0.41659483 -0.13898851 94 120 29
0.59796834 0.39827281 -0.13625129 104 130 0
0.59759742 0.39759752 -0.13819440 127 156 4
0.60547495 0.37740967 -0.14684117 130 153 21
0.60720414 0.37680820 -0.14610150 151 171 24
0.55088872 0.34803155 -0.08407575 160 197 32
0.58794767 0.41380584 -0.13670948 110 132 21
0.57195574 0.37098277 -0.10390071 172 199 70
0.59899265 0.39635220 -0.13234194 176 195 18
0.58750993 0.39077422 -0.15085313 216 228 80
0.59178877 0.39292786 -0.14698352 119 153 17
0.59215009 0.39945954 -0.13923152 129 153 43
0.59524029 0.40033036 -0.13693322 111 133 22
0.56311011 0.42026633 -0.12583357 137 169 34
0.59851068 0.40022755 -0.13221331 133 156 16
0.56840098 0.36874500 -0.10525414 102 126 14
0.57279897 0.37188411 -0.10634596 111 139 20
0.59848839 0.38855648 -0.14058444 160 184 2
0.58736300 0.39907739 -0.14097895 140 175 13
0.58500820 0.39768216 -0.14276744 124 155 17
0.60907280 0.42481717 -0.16594701 168 197 53
0.60854828 0.42808113 -0.16273159 100 121 16
0.61570609 0.41880628 -0.13575090 73 99 2
0.54825425 0.34312168 -0.08371156 115 155 20
0.61305058 0.42292979 -0.14018565 132 152 37
0.59896201 0.40989447 -0.13152100 117 141 5
0.56645530 0.42401448 -0.13453636 129 163 50
0.60995185 0.41744882 -0.13473035 71 98 1
0.58664739 0.38557714 -0.12228380 81 119 16
0.56299293 0.41792727 -0.13150793 103 144 16
0.57437062 0.41804042 -0.13373420 154 192 19
0.60886079 0.42779812 -0.14986481 109 136 33
0.58974230 0.41320786 -0.13804124 115 139 27
0.56425071 0.41395783 -0.12492682 144 173 23
0.55659109 0.41205791 -0.11906797 110 141 14
0.55761135 0.35252279 -0.09676415 82 114 17
0.59704888 0.39256728 -0.14940375 82 118 0
0.59635192 0.39404169 -0.14777361 63 98 0
0.58414602 0.41787210 -0.13076705 186 206 111
0.59778124 0.38036671 -0.15208295 81 105 7
0.59692544 0.38057852 -0.15181322 81 105 7
0.58180469 0.42217129 -0.13602933 111 155 0
0.58167547 0.41899741 -0.13142155 163 187 99
0.59889734 0.37884337 -0.14356010 158 179 40
0.59268308 0.38104469 -0.14713320 156 179 36
0.57360160 0.42493445 -0.13412298 184 217 66
0.61796159 0.40464404 -0.12490761 172 190 18
0.61712062 0.40837237 -0.12517066 210 225 80
0.60876143 0.42712438 -0.14484335 101 125 27
0.59542483 0.38393152 -0.14987893 132 156 16
0.57418275 0.42431572 -0.13158284 133 166 85
0.60333836 0.38765439 -0.15543760 113 149 13
0.57582563 0.36572465 -0.11384886 48 77 0
0.56870151 0.36528432 -0.10970391 50 88 15
0.58520591 0.41714659 -0.13204534 209 225 101
0.55137694 0.35544229 -0.09750659 62 83 24
0.58862334 0.40180507 -0.13851652 116 141 23
0.58549887 0.42195979 -0.13656397 57 90 3
0.60680956 0.37722406 -0.13483389 172 192 58
0.62428826 0.41782796 -0.13210742 128 161 30
0.57679611 0.40486360 -0.12976699 122 153 36
0.55106801 0.35425854 -0.09738725 55 78 6
0.57881856 0.39657053 -0.14915980 158 179 40
0.58870119 0.37675855 -0.12554835 142 181 2
0.58375949 0.37192705 -0.12288224 92 131 0
0.59676653 0.41595533 -0.13763951 105 138 33
0.59865141 0.41683248 -0.13767141 112 142 30
0.58209008 0.36489186 -0.11425867 56 93 0
0.57553309 0.41049325 -0.13209327 140 168 0
0.61003625 0.37810633 -0.15082210 67 97 1
0.61554980 0.38037568 -0.15346204 93 128 8
0.60500145 0.37913823 -0.15378962 70 103 0
0.55723935 0.41538170 -0.12215069 171 195 45
0.56866777 0.41904202 -0.13336276 60 107 0
0.58189261 0.41195181 -0.13037629 189 215 82
0.57015008 0.41854915 -0.13161623 119 144 14
0.57276624 0.41696906 -0.13107079 188 212 36
0.60141629 0.42084762 -0.16340756 120 153 38
0.57540590 0.37144375 -0.11484110 39 77 0
0.57044327 0.39847082 -0.14707351 99 132 0
0.56639880 0.35845095 -0.10581378 43 74 0
0.59044546 0.39548403 -0.14482398 97 134 2
0.54786688 0.34727195 -0.09411584 53 84 6
0.56326723 0.41671333 -0.12717305 157 180 30
0.56656915 0.41506562 -0.12690812 139 160 29
0.57071459 0.40400144 -0.12694377 139 161 79
0.55970407 0.36111042 -0.10277029 56 85 1
0.57331437 0.42234483 -0.13207570 133 161 87
0.59483927 0.38684565 -0.15345255 116 141 11
0.59440422 0.38929364 -0.11757724 197 221 73
0.59886044 0.39570078 -0.12004887 171 203 57
0.54941136 0.34995538 -0.09541413 48 78 16
0.55274725 0.35094246 -0.09761349 65 98 19
0.61691844 0.38341683 -0.15753537 111 138 5
0.59829748 0.42228708 -0.15819217 104 134 34
0.59935367 0.42190504 -0.15985446 81 111 11
0.59658068 0.38363290 -0.14954363 117 140 0
0.59718806 0.41096678 -0.13383520 118 145 14
0.58465350 0.37099892 -0.12270174 121 159 22
0.59739214 0.38427925 -0.15360849 115 136 17
0.57625985 0.41481540 -0.13027397 137 158 1
0.58764750 0.38675773 -0.12221992 88 124 26
0.58153278 0.37679121 -0.12318347 119 146 15
0.61375880 0.42576024 -0.14282258 171 193 95
0.59124249 0.38947746 -0.15099502 180 196 48
0.58993435 0.38930207 -0.15239102 174 193 42
0.60425645 0.40934393 -0.12637375 111 132 15
0.57555795 0.36101213 -0.10744833 42 76 0
0.60769057 0.40122128 -0.12282419 194 217 103
0.60765332 0.40753174 -0.12450968 192 214 88
0.57427770 0.36844614 -0.11403745 55 91 1
0.59896761 0.38372019 -0.13407390 144 172 9
0.57826561 0.42397019 -0.13376495 134 171 16
0.60494417 0.42598051 -0.14848118 122 147 30
0.60571408 0.42632121 -0.14655849 108 134 25
0.60537267 0.37888017 -0.14040393 176 195 18
0.60733461 0.37772092 -0.14219326 161 181 4
0.60876054 0.41225025 -0.12670287 114 134 9
0.59444910 0.38475335 -0.12956639 204 222 14
0.56851399 0.42559713 -0.13301699 137 161 49
0.62584835 0.42102799 -0.14132674 133 164 11
0.59118664 0.40727374 -0.13811608 122 158 0
0.59232229 0.39218569 -0.12540576 83 117 20
0.58340079 0.42481583 -0.13166326 198 229 135
0.58033192 0.39556417 -0.14714561 172 194 5
0.57078469 0.36167154 -0.10933836 48 76 2
0.58381188 0.38566718 -0.14972918 92 120 1
0.57029438 0.39851439 -0.14209127 150 176 14
0.57449877 0.39721867 -0.14860322 144 179 25
0.58188117 0.40292248 -0.13426016 122 147 43
0.58187217 0.40622696 -0.13246907 125 158 15
0.58434510 0.38661680 -0.14970537 125 158 17
0.61369169 0.41433039 -0.12549028 142 167 40
0.60955232 0.41137445 -0.12504694 160 183 41
0.56103808 0.41933209 -0.12461913 113 138 11
0.57008636 0.40018159 -0.14574029 109 141 8
0.47245577 0.31740263 -0.05732335 98 139 33
0.48009291 0.31683561 -0.05618160 132 171 26
0.48842594 0.32122484 -0.06157799 77 114 8
0.45488912 0.30986062 -0.05835844 137 175 38
0.46904317 0.31482804 -0.05632784 94 133 42
0.44580492 0.31066734 -0.05671772 184 206 82
0.44930029 0.31071788 -0.05503410 161 197 45
0.48485219 0.31838807 -0.06026559 90 125 23
0.47360185 0.31577021 -0.05625919 92 138 29
0.48012292 0.31868812 -0.05789909 147 191 52
0.47886941 0.31636292 -0.05899165 93 124 20
0.48681539 0.32147688 -0.05869646 156 197 67
0.48448378 0.32213327 -0.05935223 89 124 24
0.46623984 0.31135908 -0.05571187 59 83 0
0.45658442 0.31035385 -0.05382296 117 154 61
0.45466039 0.31048301 -0.05385606 127 168 62
0.51924086 0.33655587 -0.07610767 105 131 40
0.51657081 0.32743639 -0.07623290 127 151 11
0.53152889 0.33215228 -0.08102572 153 185 39
0.52881044 0.34063953 -0.08234705 125 157 30
0.52774513 0.33738303 -0.08221888 110 138 19
0.52043140 0.33231860 -0.07837531 127 159 60
0.52021676 0.33110401 -0.07786585 157 192 74
0.52395374 0.32853180 -0.07978947 111 145 9
0.53369623 0.33406904 -0.08246728 156 188 42
0.51545089 0.33238629 -0.07462988 141 178 3
0.51465029 0.33426812 -0.07365159 103 135 52
0.52128989 0.32752132 -0.07868807 117 147 15
0.51681769 0.32824433 -0.07423728 152 192 60
0.51901984 0.33662242 -0.07588396 102 129 36
0.51500344 0.32579383 -0.07281937 145 180 18
0.53140807 0.33580938 -0.08434321 142 174 37
0.51395607 0.32765707 -0.07390589 130 159 15
0.67855918 0.41205019 -0.20446990 86 106 9
0.68787622 0.41815811 -0.17799985 124 142 20
0.69301832 0.42361692 -0.17207402 161 180 38
0.66942495 0.39810362 -0.17773351 160 190 14
0.65950519 0.40244266 -0.20109530 145 173 11
0.64420867 0.38364175 -0.14967138 165 193 0
0.66636181 0.39202017 -0.16237164 170 200 8
0.65573949 0.40423366 -0.20250383 118 151 0
0.64801323 0.38407698 -0.14729677 154 183 5
0.64823878 0.38919944 -0.15016893 188 213 33
0.63905513 0.38671803 -0.15156804 186 224 1
0.66311473 0.39740860 -0.23340386 130 148 26
0.65952069 0.40099078 -0.23480377 89 111 11
0.65081900 0.38338453 -0.21584240 131 145 57
0.64855760 0.38370225 -0.21510695 107 122 27
0.65685833 0.40272322 -0.19705105 141 173 14
0.64082545 0.37892872 -0.14660837 159 187 68
0.63644463 0.37708175 -0.14607170 144 174 42
0.57903469 0.36927563 -0.10437115 161 196 70
0.63409603 0.38505057 -0.15848613 154 167 35
0.63649291 0.39289403 -0.18602870 86 111 0
0.63071251 0.37611297 -0.14478502 131 161 39
0.63504809 0.37680596 -0.14622210 128 158 26
0.68650627 0.43584529 -0.15678115 163 188 34
0.68695188 0.43012011 -0.16403165 102 123 0
0.68963689 0.43736556 -0.15701786 129 150 0
0.65221411 0.40062684 -0.21832098 69 88 6
0.64247751 0.39081153 -0.21012995 110 121 17
0.62191552 0.37635049 -0.14336313 75 110 0
0.66092443 0.40403825 -0.21444632 146 164 16
0.66167533 0.40207288 -0.20904720 121 155 8
0.67974341 0.39906773 -0.17865643 192 203 73
0.68871117 0.43121216 -0.16343914 139 161 24
0.68930662 0.43516022 -0.15946794 132 158 0
0.69389284 0.43063641 -0.16461603 110 133 1
0.64085215 0.39933506 -0.17683446 101 123 48
0.66232651 0.38847297 -0.15399452 154 178 4
0.68440992 0.43794152 -0.15188606 105 131 0
0.68593079 0.43887505 -0.15181606 102 128 0
0.63477337 0.38530171 -0.15731303 115 131 7
0.63466704 0.38450262 -0.15656361 166 187 70
0.67813617 0.40184924 -0.19953100 170 182 74
0.67502952 0.40271214 -0.20506641 148 157 52
0.64157385 0.39409408 -0.15553218 171 190 39
0.67170030 0.39677373 -0.22868669 129 141 17
0.58121204 0.36855376 -0.10525095 131 162 35
0.66174471 0.38925570 -0.15548633 142 170 0
0.68072617 0.43010813 -0.16898523 116 145 3
0.68138605 0.42596444 -0.17416507 114 139 9
0.68102407 0.40714684 -0.20060281 101 119 0
0.68244356 0.40731910 -0.19628118 148 160 48
0.67285585 0.40236497 -0.21256769 156 164 65
0.67306602 0.40238124 -0.21072713 142 147 53
0.63368821 0.38808981 -0.17355081 104 124 0
0.64512867 0.39792812 -0.20692898 87 110 4
0.66034329 0.38740599 -0.15160944 155 182 5
0.64414299 0.39939666 -0.16977780 160 177 75
0.62935346 0.37794581 -0.14914656 171 195 9
0.68265086 0.42105016 -0.17937425 124 145 26
0.65122855 0.39300951 -0.15924402 158 175 17
0.67443621 0.40517494 -0.21993794 135 145 46
0.67553532 0.41054431 -0.22159234 109 126 24
0.58034605 0.36248660 -0.10878283 95 122 0
0.58418429 0.36472446 -0.11357370 78 103 2
0.58341193 0.36439031 -0.11309329 60 83 0
0.65359277 0.40127674 -0.21340506 80 101 10
0.65410084 0.40342748 -0.21176091 92 106 19
0.63798678 0.39351737 -0.18775654 87 102 0
0.63981020 0.39523977 -0.16411193 145 154 71
0.68308794 0.43830475 -0.15103105 141 166 20
0.65431130 0.39304841 -0.22019441 130 141 10
0.53814381 0.34727171 -0.07711934 129 160 20
0.64962071 0.40345374 -0.18560258 70 96 0
0.64914805 0.39542535 -0.16417429 152 169 11
0.64901513 0.40421504 -0.18881290 126 143 51
0.66445380 0.39925629 -0.18835293 206 225 74
0.67046148 0.39832908 -0.18658902 130 155 2
0.63487321 0.39196515 -0.16670570 123 125 78
0.63356072 0.38826689 -0.17042004 100 121 0
0.64578152 0.38510025 -0.21458764 119 135 36
0.63719308 0.39218706 -0.19931814 93 110 0
0.64310616 0.39678746 -0.16245365 141 161 66
0.63730341 0.39105061 -0.19226018 135 144 27
0.62295192 0.37731090 -0.14565678 116 145 1
0.63010305 0.38274780 -0.15663335 107 130 16
0.64106297 0.39783341 -0.17167692 153 168 73
0.64057517 0.39352682 -0.15393245 179 196 42
0.66359341 0.39966339 -0.19240728 198 217 48
0.66022331 0.39057118 -0.15842630 140 167 2
0.68299109 0.41307727 -0.19135554 155 171 64
0.67219627 0.41748363 -0.22552362 73 88 7
0.67315000 0.41436613 -0.22758393 81 98 6
0.63982785 0.39831838 -0.18754090 87 86 55
0.63579148 0.39016277 -0.19477227 89 106 0
0.64995795 0.40475425 -0.19356945 53 73 2
0.65000033 0.39228821 -0.15692839 158 175 9
0.65229887 0.39820033 -0.21780631 84 106 0
0.67281562 0.39820972 -0.18832244 147 168 31
0.61550391 0.37421072 -0.13398972 96 128 19
0.61882174 0.37480977 -0.13269253 106 134 34
0.66141951 0.38633394 -0.22109416 148 165 69
0.65808767 0.38351315 -0.21826601 109 125 36
0.67448783 0.39701054 -0.17065580 173 196 43
0.67066151 0.39794686 -0.17582366 172 201 25
0.67832607 0.42129362 -0.18963467 66 92 0
0.65378273 0.39540455 -0.21961488 122 141 23
0.65240914 0.39589280 -0.21750979 148 165 35
0.64781481 0.39553577 -0.21090211 105 124 8
0.68138772 0.41304505 -0.19461536 139 154 51
0.65904450 0.40294749 -0.20786990 113 141 5
0.63613993 0.39268690 -0.17257951 180 192 110
0.67245203 0.39799416 -0.18706834 157 178 37
0.65789086 0.40506577 -0.21427289 100 128 7
0.67413181 0.41541687 -0.21831012 86 102 29
0.67374247 0.41654187 -0.21757697 76 92 21
0.63076085 0.38420689 -0.16422093 131 155 17
0.64332575 0.39925474 -0.19745806 100 113 31
0.64164764 0.38920045 -0.20927392 99 116 10
0.64898425 0.40557417 -0.20000793 49 56 38
0.68131524 0.41536236 -0.19070815 109 125 16
0.63944089 0.39355865 -0.19741499 148 155 43
0.63906348 0.39572605 -0.19321346 81 107 0
0.63095546 0.38497335 -0.16790529 88 108 0
0.67659748 0.42381087 -0.19144058 75 95 24
0.67515862 0.42133209 -0.20199127 81 96 15
0.67890519 0.41489810 -0.20054892 109 128 36
0.68014944 0.41103697 -0.19968352 124 139 38
0.64615786 0.40449959 -0.19475512 60 76 39
0.65082389 0.40470666 -0.20581487 94 108 11
0.68222684 0.40160546 -0.19304657 161 171 75
0.67408693 0.39914146 -0.19096889 164 183 39
0.68054765 0.40056929 -0.18788017 148 162 41
0.65860629 0.39320824 -0.22073905 120 131 3
0.64478934 0.39759535 -0.20414163 117 135 27
0.68135142 0.42211664 -0.18094799 100 126 3
0.64159644 0.38986871 -0.20926724 112 124 22
0.65794611 0.40353224 -0.20746386 124 148 8
0.64242423 0.39626735 -0.20050985 109 124 23
0.63571942 0.38846827 -0.19336015 142 151 24
0.67380226 0.40008551 -0.20059408 179 189 64
0.67649484 0.40006927 -0.19343252 152 165 33
0.67335248 0.40031525 -0.20393428 166 174 37
0.64592016 0.39217922 -0.21163838 153 159 49
0.65433866 0.40503344 -0.20574553 116 136 21
0.63485050 0.38840228 -0.20012030 86 102 3
0.65127039 0.39824384 -0.21384878 133 154 25
0.63605309 0.38931549 -0.20483080 127 146 39
0.66291845 0.39241964 -0.16329724 154 182 2
0.67784572 0.42664772 -0.18205491 71 98 1
0.67752457 0.42453668 -0.18712723 76 101 7
0.68202442 0.43239510 -0.16345711 104 136 3
0.68539822 0.42949188 -0.16555575 129 150 19
0.66049695 0.39978999 -0.21891065 107 132 15
0.65976453 0.39789322 -0.22011743 115 138 4
0.66549283 0.40216854 -0.21228345 138 162 6
0.66732198 0.40025920 -0.20629036 178 192 47
0.65000796 0.38567761 -0.14827403 148 177 0
0.62996173 0.38208607 -0.15524650 101 127 0
0.69164920 0.41082200 -0.18116784 138 152 29
0.68784356 0.41327071 -0.18336838 151 168 40
0.64157993 0.37984851 -0.14264204 133 161 38
0.67455512 0.40370789 -0.22930951 106 119 1
0.65342402 0.39360660 -0.16190259 167 185 37
0.65235680 0.39496538 -0.16514473 197 212 67
0.63326514 0.38896030 -0.19537042 97 115 7
0.67544043 0.41466790 -0.21347955 81 100 10
0.66038913 0.38897094 -0.15415572 167 197 15
0.67521149 0.40300915 -0.23400246 139 150 32
0.61740434 0.37554726 -0.14029402 87 120 3
0.61834598 0.37445259 -0.13597497 80 112 15
0.63715702 0.38794261 -0.20634216 91 103 5
0.67533153 0.40940616 -0.24577546 98 112 1
0.67614973 0.40645757 -0.24174827 105 118 10
0.67384976 0.41539279 -0.23847638 72 86 0
0.67520618 0.40447637 -0.23171717 143 156 40
0.59972757 0.37182349 -0.12031574 175 192 38
0.60519171 0.37557098 -0.12194255 128 156 0
0.66545069 0.39146250 -0.23086472 88 104 6
0.66574121 0.39608160 -0.23531151 111 130 2
0.64031821 0.39606079 -0.19646381 94 118 8
0.63743639 0.39209881 -0.20194671 95 112 0
0.67510366 0.41129071 -0.23899232 112 123 19
0.67450386 0.41369784 -0.23892257 77 92 1
0.68537605 0.40490800 -0.18974219 134 149 30
0.65891242 0.39668095 -0.22654691 125 143 25
0.65883172 0.40138081 -0.23427284 91 113 13
0.65504950 0.38694435 -0.14955395 149 183 8
0.65365571 0.40476686 -0.23260741 64 80 15
0.53510809 0.34635675 -0.07720474 139 164 37
0.54171407 0.34870878 -0.08101944 128 154 27
0.54566002 0.35215649 -0.08596591 108 131 40
0.64774448 0.39227477 -0.21365023 98 111 5
0.63646346 0.37929687 -0.13969783 172 199 34
0.61081678 0.37381449 -0.12725551 162 182 25
0.61091942 0.37391582 -0.12877679 139 164 37
0.63552171 0.38962743 -0.17889887 132 145 14
0.63549626 0.38903403 -0.18401125 95 109 0
0.63549024 0.38978973 -0.17670439 141 158 28
0.56131506 0.36083359 -0.09434586 104 137 32
0.57979989 0.37375048 -0.10676957 164 198 85
0.57982147 0.37443069 -0.10719445 176 212 90
0.57265699 0.36592174 -0.10013679 147 179 68
0.57111812 0.36637342 -0.10007399 156 190 77
0.57349449 0.36832199 -0.10205600 140 176 52
0.57119900 0.36831588 -0.10152880 129 159 59
0.59619868 0.36998394 -0.12353284 42 72 0
0.64253777 0.38536900 -0.20985712 110 128 20
0.59213775 0.37935144 -0.11175232 165 202 45
0.59246069 0.38031411 -0.11211380 158 192 45
0.64502281 0.39841369 -0.16782866 138 157 68
0.64632100 0.39906093 -0.17011228 131 153 44
0.65152049 0.39712441 -0.17028907 164 184 24
0.63979578 0.38086024 -0.15074888 166 196 12
0.63606143 0.37971705 -0.15078290 187 213 20
0.69288212 0.41405672 -0.17834815 152 167 50
0.69272107 0.41705573 -0.17648777 99 118 0
0.68759185 0.42025876 -0.17564836 131 151 17
0.65177292 0.40520760 -0.22890332 51 72 3
0.65241545 0.40404177 -0.22725284 60 80 11
0.65125865 0.40410417 -0.22197203 58 77 11
0.64013010 0.38961864 -0.14596507 182 208 21
0.64663744 0.38592944 -0.14699295 152 178 9
0.64057666 0.38588437 -0.14277725 198 220 23
0.65624803 0.39290398 -0.16396376 155 184 8
0.66936797 0.39753979 -0.22452195 153 161 52
0.65278822 0.39295870 -0.16308324 184 206 20
0.63884044 0.39483854 -0.16858403 160 167 87
0.54950559 0.35178140 -0.08339432 133 168 22
0.55488789 0.35520861 -0.08747761 141 180 51
0.67101157 0.40134454 -0.22228564 115 138 0
0.68206519 0.43494073 -0.15822786 151 182 26
0.68194091 0.43640056 -0.15490384 139 167 20
0.64814645 0.39372209 -0.21317887 127 134 18
0.66714001 0.39203954 -0.22583552 144 157 39
0.66483521 0.39512715 -0.16935924 144 172 9
0.66792303 0.39587462 -0.17106853 158 187 11
0.67436451 0.40878943 -0.22627297 99 114 13
0.65906817 0.38825032 -0.15497625 144 175 0
0.64237630 0.39841008 -0.19868119 97 125 14
0.64374083 0.39719439 -0.20350246 86 113 0
0.66895741 0.40288618 -0.21840753 121 143 9
0.59335941 0.37994209 -0.11239395 166 202 52
0.59803295 0.37852180 -0.11564653 159 192 62
0.59783977 0.38474211 -0.11488818 141 173 38
0.68188852 0.43702200 -0.15364490 136 161 17
0.54017746 0.34672564 -0.07674848 168 207 18
0.63299841 0.38904181 -0.14028424 160 180 5
0.62897426 0.38430244 -0.13562453 174 204 8
0.66256458 0.39215228 -0.21957274 123 138 21
0.65718174 0.39319304 -0.22362061 93 109 0
0.66624582 0.39479363 -0.22171049 137 152 33
0.65232140 0.38780236 -0.15313029 156 184 14
0.64285284 0.39416385 -0.15497001 146 170 0
0.64625406 0.39312688 -0.15675060 192 211 23
0.66856843 0.39925179 -0.19565494 144 166 5
0.66592628 0.40007856 -0.20114106 157 182 18
0.63720822 0.39168125 -0.14643197 165 193 12
0.63880849 0.39363468 -0.15006074 173 197 13
0.67022878 0.39503115 -0.22854020 113 127 4
0.66754788 0.39177492 -0.22964773 112 125 33
0.64699495 0.38869962 -0.15030377 187 210 14
0.64703816 0.38938573 -0.15125112 187 210 18
0.61744314 0.37550163 -0.13098894 154 176 39
0.68453383 0.40290669 -0.18772039 140 152 44
0.68267041 0.40197507 -0.19281276 160 169 78
0.68332875 0.40249109 -0.19208255 154 165 73
0.63910085 0.39433241 -0.15904023 132 147 42
0.62916535 0.38179171 -0.13517798 166 188 0
0.62798560 0.38306406 -0.13449934 185 212 9
0.62745345 0.38800004 -0.13682292 172 205 4
0.62152988 0.38575262 -0.13086215 156 191 9
0.62766701 0.37822372 -0.13658388 157 175 37
0.62245196 0.38428563 -0.13115911 168 204 10
0.61496669 0.38036093 -0.12637697 175 205 11
0.61189759 0.38046780 -0.12456258 168 198 4
0.63211930 0.39011604 -0.19864318 109 124 19
0.61001581 0.37645084 -0.12484974 149 178 0
0.61288929 0.37792152 -0.12611863 136 170 0
0.56360745 0.35994589 -0.09385891 122 157 39
0.58960688 0.37452486 -0.11021782 173 208 64
0.59025323 0.37130541 -0.11047647 146 178 32
0.56245482 0.35848239 -0.09279788 130 166 42
0.64809346 0.39213279 -0.15522896 196 208 60
0.66206390 0.38975191 -0.22639668 103 118 27
0.66061556 0.39260519 -0.22574452 115 126 34
0.65635312 0.38238838 -0.21632592 115 130 39
0.57132173 0.36027807 -0.09764945 122 152 18
0.56951630 0.35854796 -0.09717123 127 156 28
0.58035290 0.36546770 -0.10384525 157 188 35
0.67842472 0.41731501 -0.19778571 85 106 5
0.67811215 0.41980359 -0.19391775 74 99 0
0.65995800 0.39456078 -0.16857395 155 178 10
0.65914953 0.39459321 -0.16883983 172 193 36
0.65110415 0.40223706 -0.18226717 127 155 19
0.65232003 0.40309277 -0.18614011 129 162 19
0.65681928 0.39973262 -0.18440993 181 200 30
0.66213185 0.39897493 -0.18479623 175 194 40
0.66114205 0.39904287 -0.18550722 204 220 72
0.65865415 0.39420801 -0.16702816 156 178 17
0.65690613 0.39701125 -0.17652561 217 224 92
0.66113532 0.38956204 -0.15785937 153 181 9
0.65301692 0.40343791 -0.19013000 136 170 21
0.58487093 0.36450872 -0.11145971 91 113 4
0.58938950 0.36676824 -0.11406761 121 140 25
0.59705502 0.37357852 -0.11572763 148 173 17
0.59467471 0.37142450 -0.11499540 122 143 26
0.66108686 0.38711536 -0.21784410 132 145 27
0.66258639 0.39578870 -0.23061520 92 109 0
0.66335893 0.39192212 -0.22899744 107 122 19
0.65563023 0.38566181 -0.21821520 135 148 34
0.66310966 0.39820999 -0.21981484 85 104 0
0.67699897 0.40610191 -0.21239294 128 141 36
0.67695796 0.40696341 -0.21284975 135 147 49
0.70447451 0.41858438 -0.10831341 140 174 17
0.69785720 0.41282552 -0.11663003 129 161 0
0.70294398 0.41943234 -0.11445738 111 144 3
0.69915056 0.41404077 -0.11295478 127 162 0
0.70131260 0.41625050 -0.11902677 136 175 0
0.68466777 0.41581190 -0.13200162 179 210 18
0.68616515 0.41628903 -0.12901264 168 200 13
0.68812478 0.41489702 -0.12608911 159 194 14
0.68250513 0.41428551 -0.13860574 165 197 8
0.68468195 0.41564813 -0.13344130 170 204 6
0.68382573 0.41866729 -0.13424772 152 188 0
0.68635893 0.41231889 -0.13225520 130 167 2
0.68731010 0.41226029 -0.13060036 129 168 0
0.69662362 0.41176054 -0.11934922 138 166 4
0.68784553 0.41545069 -0.12696357 173 205 0
0.68988210 0.41262475 -0.12844093 164 197 0
0.90835160 0.60820901 -0.34119207 71 79 40
0.91367710 0.60534257 -0.24737968 80 104 44
0.90683997 0.60927480 -0.30770338 105 122 67
0.91903085 0.61431086 -0.27540481 53 73 36
0.91120172 0.60965949 -0.33486736 151 152 120
0.90867358 0.60584384 -0.33495271 52 63 21
0.91324991 0.61453754 -0.27777803 68 96 22
0.91596860 0.60434645 -0.24839525 67 90 38
0.90346819 0.60464513 -0.30904222 17 36 6
0.91392529 0.60984200 -0.25737575 61 80 52
0.90596592 0.60529280 -0.32098597 115 125 72
0.91667509 0.61014438 -0.30458239 66 73 42
0.92138219 0.61220497 -0.28592432 102 105 88
0.90690035 0.60323411 -0.32200074 42 61 6
0.90850991 0.59898841 -0.31601837 45 67 3
0.90918428 0.61481243 -0.28764585 75 102 33
0.91153336 0.61452651 -0.28258008 74 105 29
0.91732979 0.61279565 -0.29693156 65 78 34
0.90606236 0.60689938 -0.31479183 45 66 25
0.91182774 0.60758561 -0.31881976 100 110 49
0.90465939 0.60528165 -0.31800419 126 137 94
0.90784323 0.60774887 -0.31630805 92 105 51
0.91035187 0.60824376 -0.33043686 128 132 97
0.91567469 0.60838604 -0.31154174 71 76 44
0.90988189 0.60443401 -0.33544070 67 88 19
0.91264296 0.60927624 -0.32892388 103 111 62
0.91476375 0.61403990 -0.29970261 79 94 37
0.90904009 0.61408579 -0.29898989 86 106 47
0.92356575 0.60992575 -0.28116107 146 138 136
0.92318720 0.60515988 -0.28067365 193 192 190
0.91582435 0.61692989 -0.28208706 76 101 35
0.91533893 0.60958010 -0.30936646 72 79 45
0.90992266 0.59950030 -0.32052445 49 70 14
0.91175973 0.61506379 -0.29979995 86 104 44
0.90559381 0.60033846 -0.30969542 29 63 3
0.90431595 0.60280430 -0.31291583 34 58 10
0.91207039 0.61379093 -0.26996723 134 140 106
0.91718346 0.60969716 -0.25972313 62 84 48
0.91478783 0.61120743 -0.26153100 61 82 51
0.92192423 0.61229986 -0.27959830 117 120 101
0.91306370 0.61254084 -0.26410255 65 92 57
0.91720992 0.60540366 -0.25198856 69 91 44
0.92066854 0.60384178 -0.25480393 76 92 53
0.92340946 0.60653973 -0.26431209 79 98 66
0.91487527 0.60957015 -0.25760189 64 83 55
0.92054075 0.61131543 -0.26937890 72 94 47
0.90978211 0.61375982 -0.28183016 76 107 29
0.92160517 0.59730846 -0.24767922 120 117 74
0.91809785 0.61181736 -0.26552036 63 82 52
0.92020977 0.60966778 -0.26410815 78 102 50
0.34440953 0.48657712 -0.20553118 81 112 18
0.34504226 0.47691664 -0.19764635 107 151 28
0.34403247 0.48011127 -0.18968484 115 141 80
0.34755942 0.47595370 -0.19579801 83 122 16
0.35310906 0.47610146 -0.19426461 58 92 0
0.34873077 0.47526368 -0.19318703 72 107 13
0.35161623 0.48204088 -0.20156898 16 57 0
0.34573802 0.47630581 -0.19191717 121 149 72
0.34723306 0.48619637 -0.20474833 70 103 24
0.35753483 0.48104858 -0.19809051 27 67 15
0.35073239 0.48429620 -0.20263755 9 48 0
0.33627069 0.48078865 -0.19847991 92 120 17
0.33760744 0.48168290 -0.19481654 124 145 80
0.34073299 0.47807053 -0.19486564 178 202 116
0.33776048 0.48355779 -0.19497000 124 152 91
0.51871425 0.22774528 -0.38719746 63 99 9
0.51528734 0.22292708 -0.39684972 92 113 57
0.51648688 0.22570190 -0.39239609 97 123 62
0.52814502 0.23761323 -0.37246853 118 148 76
0.52760941 0.23429212 -0.37816179 58 97 18
0.52058256 0.23025501 -0.38407302 105 140 40
0.51949281 0.22799967 -0.38664785 59 97 12
0.52130282 0.22845168 -0.38691467 104 130 65
0.51765865 0.22944939 -0.38877860 113 139 68
0.60461468 0.33241466 -0.28754526 69 93 19
0.62116027 0.34503737 -0.27901241 48 87 6
0.62296873 0.34915957 -0.28006089 35 71 0
0.58346850 0.31422040 -0.28884414 119 131 57
0.58446443 0.30761266 -0.29310271 77 84 30
0.58227569 0.30818751 -0.29236495 120 131 53
0.58123380 0.28958964 -0.29494134 71 102 22
0.58168626 0.31475663 -0.28822088 136 149 70
0.56725931 0.28875721 -0.29572710 100 122 11
0.59594387 0.33150721 -0.28333300 125 146 55
0.58887732 0.32726651 -0.27729288 143 159 50
0.58752292 0.32410437 -0.27990273 165 178 60
0.59249264 0.33116281 -0.27910727 120 144 58
0.60599244 0.33662727 -0.28737336 34 63 0
0.57719493 0.28989932 -0.29762354 76 97 18
0.58343571 0.28967774 -0.29430565 127 165 62
0.59303623 0.33006090 -0.28014228 120 143 61
0.58910668 0.32546878 -0.28127861 144 164 65
0.59106630 0.32397774 -0.28445899 113 134 41
0.58462393 0.29566714 -0.29213333 78 106 4
0.57710946 0.27677071 -0.29790661 117 153 57
0.58018416 0.27928329 -0.29696661 96 134 31
0.61086935 0.34086338 -0.28530753 35 68 0
0.57751316 0.29381701 -0.29690310 103 133 35
0.60824734 0.33032182 -0.28803027 82 110 26
0.60868210 0.33118868 -0.28810924 81 111 23
0.61592352 0.33070001 -0.28644308 57 83 18
0.60077351 0.33657578 -0.28214902 72 103 23
0.60254270 0.33707130 -0.28001216 97 123 16
0.59933358 0.32810196 -0.27599519 147 182 38
0.60765153 0.32141280 -0.28429127 59 84 18
0.57493228 0.28792700 -0.30004382 91 111 26
0.61033309 0.33710861 -0.28803161 81 107 20
0.61683089 0.33489940 -0.28762153 90 110 49
0.60987878 0.33575451 -0.28812659 70 95 11
0.56994236 0.29337779 -0.30114028 21 43 0
0.61626339 0.34749302 -0.28185213 84 121 15
0.61589205 0.34579012 -0.28123519 84 119 25
0.58083385 0.30358428 -0.28747791 75 109 0
0.57598656 0.30005801 -0.29689407 149 165 41
0.58225036 0.29956889 -0.29411170 76 104 0
0.59631610 0.33146575 -0.27655336 110 144 5
0.60259062 0.33525980 -0.27702931 103 135 26
0.58227760 0.31397408 -0.28672391 130 155 51
0.58808559 0.31572184 -0.28009894 152 178 42
0.58195049 0.30555180 -0.28560564 105 135 23
0.62083077 0.33961263 -0.28325155 36 84 0
0.61801916 0.34032103 -0.28237137 56 100 13
0.58740211 0.31714472 -0.28125063 169 205 47
0.58692408 0.31748781 -0.28191340 103 136 21
0.57241911 0.29302320 -0.29377267 87 111 13
0.60033041 0.33071730 -0.27618930 140 181 27
0.59948158 0.32906821 -0.27591810 155 195 34
0.60514629 0.32530153 -0.28716484 97 129 20
0.60203612 0.31817567 -0.28504485 102 134 11
0.57433134 0.29586023 -0.30004740 71 90 0
0.52614170 0.22987664 -0.38227746 45 82 30
0.51692146 0.22101529 -0.40076450 120 137 69
0.52284628 0.22588789 -0.38816285 107 135 58
0.52616280 0.23106803 -0.37992409 114 143 76
0.50965738 0.21814898 -0.40657285 90 111 42
0.51576722 0.21982396 -0.40078956 66 92 19
0.51447272 0.21980241 -0.39947566 47 77 15
0.51603752 0.22270519 -0.39379409 49 83 9
0.63968122 0.36721179 -0.28951544 64 105 11
0.64662606 0.37863034 -0.29830098 54 88 4
0.63173091 0.36137965 -0.28479064 39 74 8
0.63596207 0.36670625 -0.28732893 50 83 14
0.62988359 0.35719389 -0.28308862 21 60 0
0.64790219 0.38783234 -0.30360350 42 72 10
0.62561142 0.34408060 -0.28158605 55 111 2
0.62755007 0.35865766 -0.28290483 30 65 1
0.63178915 0.35670236 -0.28192067 35 80 0
0.63958287 0.37363353 -0.28969103 91 123 47
0.64318538 0.37917289 -0.29503849 63 96 27
0.65042102 0.39166027 -0.30624840 52 83 15
0.64400786 0.38277978 -0.29834843 59 92 13
0.64024961 0.36399311 -0.28652650 60 105 2
0.62537444 0.34846297 -0.27914196 47 92 9
0.64511937 0.37905046 -0.29732159 50 84 0
0.65304816 0.39064825 -0.30384246 75 102 35
0.62652272 0.34488478 -0.28120983 44 100 0
0.62422866 0.34454292 -0.28045636 52 105 1
0.65819961 0.38708970 -0.30426094 65 95 21
0.63127184 0.36442605 -0.28462034 87 122 40
0.65161407 0.38303599 -0.29911682 98 127 61
0.63237548 0.36268556 -0.28480068 37 69 2
0.63817483 0.37094221 -0.28842404 90 120 56
0.64020538 0.37724170 -0.29264459 47 83 0
0.64560074 0.38482571 -0.30098727 46 77 9
0.65331185 0.38205248 -0.29911086 84 113 47
0.90889293 0.59526694 -0.27640811 61 93 30
0.90802687 0.59379220 -0.27518442 76 118 46
0.90484494 0.58456862 -0.25989005 46 79 22
0.91694814 0.58860105 -0.24118064 129 130 112
0.90631509 0.58328718 -0.25742778 48 81 34
0.91087586 0.58785063 -0.25566241 85 103 79
0.90574962 0.59001797 -0.26960683 69 111 39
0.90337664 0.59010309 -0.26709676 61 102 24
0.86558378 0.58870888 -0.19901229 85 109 59
0.91730058 0.59504473 -0.26674962 172 164 153
0.91634870 0.59280020 -0.26160365 144 151 133
0.91105378 0.58295846 -0.20996511 50 80 18
0.91787833 0.58877540 -0.23666532 130 133 112
0.89057177 0.58404213 -0.20389956 78 118 32
0.86547959 0.58448279 -0.20212589 68 95 24
0.86604440 0.58425260 -0.20155834 49 80 4
0.88432294 0.57694209 -0.18970004 54 105 4
0.86473888 0.58732039 -0.20168541 88 111 55
0.88742208 0.57954663 -0.19128786 49 97 0
0.89186072 0.58496946 -0.19635941 27 63 0
0.84456247 0.54549605 -0.15918766 89 126 30
0.88322955 0.57286870 -0.18908063 25 78 0
0.90574306 0.59746420 -0.26180851 52 87 19
0.90349656 0.59099746 -0.25993866 83 123 35
0.90742046 0.58963412 -0.25060791 69 108 25
0.89287090 0.58472955 -0.21037290 57 94 0
0.91241044 0.58481503 -0.24549328 185 184 180
0.89480060 0.58775699 -0.22048357 62 102 6
0.90072536 0.58743376 -0.22044000 51 89 4
0.89797950 0.58739030 -0.21964630 47 85 0
0.88715321 0.58436477 -0.20604345 64 104 8
0.86135566 0.58513403 -0.19762972 74 105 29
0.88900948 0.58357698 -0.19747397 35 72 2
0.90131491 0.58470488 -0.20554993 71 103 40
0.90795618 0.58906668 -0.24579060 63 102 21
0.90516198 0.58916891 -0.23019721 52 91 12
0.90781152 0.58910900 -0.24509871 64 103 24
0.90547711 0.58459264 -0.21061677 44 78 17
0.90491557 0.59615481 -0.24290325 31 69 0
0.90747690 0.59022975 -0.24567105 61 100 19
0.90608692 0.59428173 -0.24585016 82 120 35
0.87772048 0.58319438 -0.20311390 55 95 9
0.87708640 0.58276886 -0.20186421 62 101 18
0.87498605 0.58367252 -0.20300433 60 100 11
0.91270334 0.58177787 -0.21504037 80 106 45
0.89376289 0.58556908 -0.21377802 35 70 0
0.86850274 0.58037668 -0.19516607 41 76 0
0.85803658 0.57650137 -0.18873075 53 89 0
0.86192548 0.57507104 -0.18977615 54 94 0
0.86839342 0.56632429 -0.19193834 46 88 2
0.84576398 0.55233991 -0.16266847 73 108 24
0.84925532 0.55644625 -0.16539073 25 58 0
0.86414349 0.58295047 -0.19676401 54 87 8
0.85107911 0.58300090 -0.16648804 92 115 37
0.85272801 0.58409196 -0.17116734 89 111 29
0.90399641 0.58818775 -0.22490095 26 66 0
0.91623867 0.58997959 -0.24941310 145 149 135
0.90058696 0.59004599 -0.22800407 59 97 10
0.90054739 0.59041655 -0.22855608 58 96 9
0.87040669 0.58219445 -0.19859524 33 71 0
0.87922853 0.57939982 -0.19530018 56 95 16
0.84875762 0.56610399 -0.16522323 53 87 0
0.92084873 0.60130429 -0.28063813 151 137 136
0.91740620 0.59943426 -0.28119618 118 99 103
0.91640013 0.59803480 -0.27601090 121 109 67
0.91972327 0.59676749 -0.26757795 121 121 109
0.92158496 0.59792507 -0.26782599 105 108 101
0.92341214 0.60140944 -0.26634765 166 166 158
0.92295378 0.60152376 -0.27624902 158 156 144
0.90596676 0.58796656 -0.22797418 25 66 0
0.90717566 0.58647788 -0.22718917 51 89 12
0.85128164 0.54512095 -0.16259909 60 93 2
0.85582590 0.57253444 -0.18729860 26 65 0
0.90909737 0.58412385 -0.21994714 37 71 11
0.85151601 0.54884124 -0.16427591 25 60 0
0.84919107 0.54913688 -0.16307817 73 109 22
0.84306794 0.54756862 -0.15957037 69 109 23
0.84244281 0.54400581 -0.15815216 38 76 0
0.86846101 0.58439857 -0.20834567 55 86 18
0.84929246 0.57821172 -0.16931653 97 133 25
0.84459060 0.55450058 -0.16098370 39 73 0
0.85742605 0.58408928 -0.18605319 64 92 34
0.85646373 0.58237433 -0.18577570 57 91 17
0.90436566 0.60011858 -0.26860803 60 99 8
0.90459317 0.60219586 -0.27096736 65 103 20
0.90522122 0.60130376 -0.26805890 74 113 20
0.86816007 0.58919704 -0.19309954 172 167 147
0.89040834 0.58610308 -0.21517891 45 79 2
0.89098012 0.58580506 -0.21466959 63 99 12
0.90116030 0.59204978 -0.26650444 49 91 5
0.90423280 0.59811485 -0.26631835 53 91 16
0.86273575 0.56890833 -0.19155969 29 70 0
0.91257024 0.58387697 -0.23979031 199 202 193
0.91378897 0.58472466 -0.24107236 136 135 130
0.91048908 0.58334655 -0.22099347 54 94 42
0.90524316 0.60331696 -0.27065858 65 103 20
0.90608364 0.60461211 -0.26775593 67 102 22
0.90412164 0.60750389 -0.27610219 111 139 65
0.90673780 0.61010557 -0.26291111 99 134 52
0.85456538 0.57758325 -0.17551990 57 96 3
0.85454565 0.57756311 -0.17976449 65 106 12
0.88212419 0.58166981 -0.20046024 37 73 0
0.88713795 0.58375114 -0.20391805 38 71 2
0.85594594 0.57075858 -0.17750183 29 68 3
0.85376042 0.56806743 -0.17477463 56 94 17
0.90642184 0.60756516 -0.26378411 58 92 15
0.91371113 0.58879596 -0.25442269 136 142 128
0.91422778 0.59298629 -0.26436222 101 116 85
0.90088987 0.59581429 -0.28303295 53 93 22
0.86206675 0.58759463 -0.18959874 75 92 60
0.86482364 0.58838421 -0.19224620 124 131 98
0.91524625 0.58205992 -0.22236773 135 135 123
0.92043877 0.59433132 -0.24512678 118 113 81
0.92071515 0.59460849 -0.25004777 112 112 86
0.85449535 0.55743647 -0.17081885 74 116 16
0.85141486 0.55968457 -0.16758780 40 73 18
0.87770748 0.57849354 -0.19422567 30 66 0
0.90895092 0.58398736 -0.21305048 43 80 26
0.85865903 0.58435613 -0.19042939 56 90 16
