-0.47722387 -0.03644438 -0.16787964 181 167 132
-0.46737295 -0.02216903 -0.15456139 237 226 118
-0.46915415 -0.02392156 -0.15641883 233 221 135
-0.46831104 -0.01035945 -0.13838801 104 113 46
0.00769830 -0.00206426 -0.07085241 101 131 9
0.00758930 -0.00250102 -0.07134538 98 129 12
-0.01500325 -0.00661572 0.01184556 218 251 46
-0.01695507 -0.00499032 0.01273645 173 217 58
-0.02388377 0.01074305 -0.00297733 132 151 0
-0.01723906 0.00122450 0.01509277 198 228 46
0.00585600 -0.01392115 -0.05826131 65 98 17
0.01799575 0.01002121 -0.08489663 86 105 15
0.02097426 0.00733670 -0.08026437 133 133 47
0.01985369 0.01147511 -0.07827367 106 114 39
0.01149812 0.00628839 -0.09646029 43 74 0
0.01151809 0.00510874 -0.09954248 52 80 5
0.00652122 0.00231568 0.00319637 131 152 47
-0.02259514 0.01816021 0.02083792 243 255 57
-0.01056298 -0.00272437 0.01363221 157 200 85
-0.00710558 -0.00550656 0.01233450 174 210 74
0.01357786 0.01188935 -0.01244240 182 189 73
0.01152473 0.01085997 -0.00847049 207 213 55
0.01069853 0.00967560 -0.00710517 168 184 52
0.02634126 -0.00638711 -0.10369596 164 182 64
0.02500255 -0.00899316 -0.10788282 117 151 12
0.02111953 0.00543528 -0.04692343 141 163 28
0.00791895 0.02424385 -0.00842923 121 146 42
-0.01955012 0.00939800 0.01904324 232 249 49
-0.01429229 0.01188256 0.01891824 241 253 67
0.01089020 0.00557945 -0.04370153 102 135 0
0.01144946 0.00595087 -0.04651257 103 134 5
-0.02728836 0.00400446 0.00308863 170 184 11
-0.02858171 0.00627249 0.00137879 209 213 5
-0.01852790 0.03531077 0.01702919 154 196 62
-0.02177166 0.03757591 -0.00052883 118 121 44
-0.02103128 0.03875259 -0.00064199 123 126 47
0.02402958 -0.00063717 -0.09331592 104 114 54
0.00919826 0.00031847 -0.00486677 159 178 50
0.01071015 0.00244876 -0.00844330 196 207 51
0.00421404 0.03222601 -0.00490335 162 167 21
0.02105956 0.00182295 -0.10408876 110 115 23
0.00902358 -0.00963425 -0.07338255 78 117 0
0.00260967 0.03472907 -0.00389848 131 156 52
0.01393888 0.01329381 -0.08470063 72 112 15
0.01823815 0.01722098 -0.05512741 102 131 3
-0.00138224 0.03522768 -0.00708550 85 105 16
0.01167314 -0.01070980 -0.05832336 130 153 10
-0.00727096 0.04363561 0.00120030 119 122 67
0.01546008 -0.00755107 -0.08409404 112 145 2
-0.03229143 0.04335467 0.01085926 136 140 43
0.00417330 -0.01286150 -0.05867016 53 83 0
0.01640181 0.01621851 -0.06814773 58 92 5
0.01571557 0.01219445 -0.06293499 80 112 3
0.01540391 0.01280859 -0.06726599 85 120 4
0.03289849 0.01739284 -0.04864840 87 117 17
0.01973589 0.01366464 -0.07596165 107 110 41
0.01797202 0.01670036 -0.05407283 96 122 0
0.01553275 0.01313073 -0.05314028 84 112 0
-0.00656522 0.02219695 0.01482955 198 218 59
-0.03757234 0.03571569 0.00660701 123 132 49
0.00405220 0.01142104 0.00647217 138 160 34
0.00285050 0.02748737 -0.00014324 156 175 34
-0.00107463 0.02524027 0.00425096 207 207 21
0.01550039 0.01661911 -0.08961732 84 95 19
0.01580105 0.01268957 -0.05562320 91 119 0
0.01245072 0.00539773 -0.05380281 136 155 3
0.01440798 0.01009697 -0.05398471 91 122 2
0.00563472 -0.01052548 -0.06938247 55 91 0
-0.01311418 0.04367287 -0.00293745 91 110 46
-0.00358072 0.03496224 -0.00934812 86 94 9
0.01678352 -0.00730514 -0.09921835 48 79 1
0.00526366 0.01775258 0.00050935 153 167 18
0.00557793 0.01567605 0.00171444 159 171 27
0.00937059 0.00185072 -0.04058103 121 155 0
0.00494622 0.02516978 -0.00241573 148 166 30
0.00574899 0.02637969 -0.00383291 127 148 29
0.02326692 0.02450891 -0.06382850 67 86 0
0.01706909 0.00248868 -0.11327079 56 67 7
0.01760991 0.00065496 -0.11910532 63 80 12
0.01990860 0.00086535 -0.11197263 93 102 9
0.00954978 0.02503052 -0.01563095 196 197 34
0.02396828 0.01514653 -0.06633380 90 111 44
-0.00823900 0.00002686 0.01418439 144 175 55
0.00163701 0.03526562 -0.00362798 116 139 35
0.02791362 0.01148442 -0.04659637 109 142 35
0.02885835 0.01299552 -0.05334538 85 112 33
-0.04288425 0.03389917 0.00736516 151 143 44
0.01810762 0.00539078 -0.09766246 70 84 0
0.01733923 0.00723112 -0.09368937 104 121 25
0.01594454 0.01240743 -0.07493886 58 98 1
0.01588984 0.01476622 -0.06889231 48 83 0
-0.00346970 0.01346665 0.01369597 138 153 24
-0.00533546 0.01202898 0.01620806 164 183 42
-0.00959209 0.03819863 -0.01184637 76 82 38
-0.01805971 0.02993027 -0.00732726 56 84 43
-0.01588207 0.03156965 -0.00984314 68 96 48
-0.01677694 0.02702190 -0.00916971 76 94 44
-0.01255833 0.03123228 -0.01394731 75 91 55
-0.01408145 0.03510185 -0.01152727 143 140 45
-0.01315380 0.03716008 -0.01233574 80 95 36
0.01403452 -0.00690455 -0.09037321 64 102 1
0.00941899 -0.00186422 -0.05371374 95 126 0
0.00909677 -0.00307219 -0.04663142 74 100 0
0.01026276 -0.00003816 -0.04914012 134 161 20
-0.03606761 0.00493848 0.00254542 157 174 0
-0.03107142 0.00535488 0.00223410 209 214 8
0.01268009 -0.00252037 -0.10652781 56 88 3
-0.00731561 0.03612467 -0.01739796 62 65 18
0.00607569 -0.00459448 -0.07479638 103 134 5
0.01035897 -0.00373691 -0.08984839 42 83 5
-0.02574424 0.01455486 -0.00342887 176 198 0
-0.02393831 0.01483818 -0.00482568 160 188 5
0.02210880 0.00182118 -0.07835584 90 105 72
-0.02623432 0.00224442 0.01581507 163 200 68
0.00822230 -0.01098734 -0.06811932 78 114 8
0.02342832 -0.01022772 -0.10938702 105 134 8
0.02237567 -0.00988499 -0.10794468 127 157 9
-0.00449062 0.03782209 -0.00480765 142 140 31
0.01279118 0.00857952 -0.10345251 64 81 10
-0.01268762 0.02699671 0.01887534 187 212 59
-0.01456060 0.02297313 0.02120580 187 212 56
-0.01677573 0.04340432 0.00299420 95 106 40
-0.00803195 0.03812844 -0.01002701 104 110 66
0.01960883 0.00856911 -0.03724635 125 159 73
-0.04302838 0.04102561 0.00948566 136 137 43
-0.02654014 0.04251353 0.01682848 140 165 45
-0.00946618 0.03760864 -0.01480555 124 118 42
-0.02388972 0.00768069 0.01862164 177 214 49
0.02634750 0.01514491 -0.03719388 175 221 122
-0.02511715 0.00832181 -0.00014783 168 190 3
-0.01553276 0.02849591 0.01933358 171 197 61
-0.01966386 0.03075056 0.02076188 149 176 45
0.02322147 -0.00091950 -0.10064824 103 101 53
-0.02380212 0.00980781 0.01969014 215 236 47
-0.02017274 0.00563774 0.01728125 180 214 39
0.01318853 -0.00868517 -0.07192022 119 148 0
0.00938859 0.00346061 -0.07363119 80 117 3
0.01191920 0.00568580 -0.06936411 94 126 3
0.01144050 0.00485564 -0.06904668 85 119 0
-0.02209729 0.02018566 -0.00490675 112 159 1
0.02005535 0.02138962 -0.07000922 106 123 31
-0.00498119 0.04187454 -0.00023100 90 92 42
0.01673750 -0.00653202 -0.07052857 168 175 9
-0.03385201 0.00660163 0.00175112 198 207 16
0.02355255 0.02764511 -0.03786366 117 128 10
-0.04096595 0.03872986 0.00842537 156 156 46
-0.03408701 0.03188649 0.00458539 95 102 60
-0.03469781 0.03334647 0.00516223 74 89 48
0.00964152 -0.00883644 -0.07596870 92 137 8
0.02412050 -0.00110206 -0.09696992 64 63 6
-0.03255508 0.01748058 0.00104631 145 166 0
-0.00036580 -0.00732158 0.00647329 143 176 1
0.01161128 -0.00997652 -0.06576548 104 127 0
-0.02878895 -0.00464833 0.01002003 164 185 0
0.00803843 -0.00521579 -0.08239765 48 93 0
0.00647559 -0.00508490 -0.08003390 74 119 0
0.00972982 -0.00186497 -0.09238459 55 89 3
0.00604454 -0.00916038 -0.07009905 96 131 29
0.02291113 0.00049777 -0.08958632 77 90 47
-0.00148631 -0.00542352 0.00464635 116 152 0
0.02456209 0.00762382 -0.05031416 77 102 37
0.00810255 0.00031343 -0.08345468 114 144 14
0.00836697 0.00080843 -0.08419044 119 150 21
0.01921375 0.00516059 -0.04300906 122 151 41
0.00701348 -0.01168740 -0.06715405 82 120 7
0.01227308 -0.00376144 -0.09605366 41 79 2
0.02634308 0.01758920 -0.03625967 168 214 126
-0.00892470 0.02486984 0.01647626 168 189 68
0.02672965 0.01655807 -0.05970195 72 96 36
0.02835141 0.01677477 -0.05685406 94 111 41
0.00652008 0.03059695 -0.01097711 136 147 29
-0.01470986 0.04005483 -0.00884617 142 138 49
-0.01504765 0.04083446 -0.00729653 102 105 24
0.02303400 0.02368901 -0.05919417 113 135 27
0.01170924 0.00839387 -0.09999423 39 61 0
0.01147127 0.00852123 -0.09790827 41 66 0
-0.03737289 0.01473170 0.00162733 121 141 0
0.01477042 -0.00558168 -0.10486174 36 66 0
0.01579964 -0.00698371 -0.11019684 54 89 0
-0.02464193 -0.00282835 0.00659366 194 193 5
-0.02518249 -0.00447245 0.00957331 171 185 2
-0.02829360 0.02126476 0.02384703 205 235 23
0.00719020 -0.00459824 -0.06348035 76 109 2
0.02628628 0.02339099 -0.05438042 178 182 95
0.01033624 0.00150117 -0.09514256 55 85 0
0.01039616 0.00011252 -0.09841718 55 80 0
0.00606871 -0.00542386 -0.07889334 79 116 3
-0.00994575 0.04384743 -0.00154807 116 124 41
-0.01458466 -0.00742971 0.00802432 141 174 0
0.00650454 -0.01540896 -0.03165639 87 120 3
0.01567514 0.01196824 -0.07667109 42 77 0
0.01395410 0.00881861 -0.07195166 64 95 1
0.01900172 0.00622865 -0.08871141 100 115 10
-0.01268014 0.00267778 0.01538600 175 198 66
0.02072359 0.01186075 -0.03369566 152 196 101
0.03210577 0.02105831 -0.04614570 153 147 49
0.01916435 0.01631926 -0.07658924 116 128 52
-0.00666230 0.03513206 0.00747341 135 172 77
0.01531988 0.01290659 -0.08061290 73 111 12
-0.04187234 0.04647237 0.01590552 149 145 46
0.03026275 0.01910560 -0.05402388 107 124 53
0.02908285 0.02209467 -0.03782970 209 201 116
-0.02986878 0.00003400 0.01385730 146 188 64
0.02878034 0.02460299 -0.04713867 7 41 0
0.02680258 0.01072057 -0.05441829 82 103 24
0.01882173 -0.00658620 -0.08027530 125 148 0
0.01027134 0.00188482 -0.06389026 55 88 0
0.01044930 0.00230149 -0.06558349 56 89 0
0.01003647 0.00158125 -0.06534465 52 85 0
0.01697404 0.00849057 -0.09064987 72 92 7
0.02276458 0.00791548 -0.07322072 129 135 37
-0.01416319 -0.00227900 0.00585882 207 211 0
-0.02885727 0.04362062 0.01628595 136 147 9
-0.02425669 0.02759614 0.02400349 159 193 11
0.03045820 0.01679836 -0.03999880 155 200 115
-0.01382763 0.00909874 0.01787299 155 185 53
0.02080485 0.01527957 -0.02869753 170 169 105
-0.01829138 0.01726439 0.01904958 193 228 63
-0.01738122 0.01595903 0.01914263 197 230 61
0.01072466 0.00151178 -0.05407370 89 121 0
0.00884045 -0.00140763 -0.06055773 116 152 20
-0.05046047 0.02009758 0.00644550 127 140 34
-0.04100658 0.02026442 0.00321178 154 166 38
-0.04357371 0.01655742 0.00343905 127 149 25
-0.03136950 0.04516628 0.02063366 84 106 21
0.02649855 -0.00159498 -0.10530643 118 112 64
-0.00984978 0.04414728 0.00457068 110 114 55
0.02186432 0.01029568 -0.03759578 167 206 97
0.02264675 0.01054509 -0.03818745 153 194 90
0.00742345 -0.00396962 -0.06947643 107 140 9
0.02496322 -0.00126396 -0.10373393 143 134 75
0.02410338 0.02106386 -0.03367360 168 178 115
-0.04552143 0.04234446 0.01041179 150 153 38
-0.02586288 0.02022577 -0.00179476 140 174 0
-0.02982485 0.04152609 0.02767582 189 211 64
-0.02871152 0.04020806 0.02625842 117 163 5
-0.00233197 0.01263989 0.01221681 151 168 28
-0.00154511 0.03075133 0.00278692 140 163 47
0.00058345 0.02897876 0.00160669 129 151 51
0.00612515 0.00746112 0.00310018 104 131 38
0.00291521 0.01066158 0.00793818 135 160 32
-0.02760146 0.03405970 0.02610729 141 182 52
0.03263215 0.02189112 -0.03993361 183 146 104
0.02358806 0.01824904 -0.06619264 83 97 46
0.02110951 0.01807150 -0.07237762 95 106 40
-0.04752395 0.03037143 0.00785285 192 182 35
-0.05211865 0.02914924 0.00911793 183 170 30
0.00364861 0.00789077 0.00730349 87 119 34
0.00475697 -0.01040357 -0.06099613 103 135 0
0.02433843 0.00895701 -0.06150774 101 121 36
-0.03085177 0.01702876 0.00049129 143 160 0
0.02316938 0.00749682 -0.06754734 111 123 39
-0.00607102 0.02537331 0.01144385 155 175 42
-0.00127665 0.02096310 0.00793772 157 166 21
-0.00076731 0.02258555 0.00587243 195 195 23
0.00170413 0.02231785 0.00268687 179 184 29
0.00224950 -0.00429576 0.00937086 129 162 58
0.00420392 0.01485617 0.00479536 159 173 28
0.00187332 0.01778593 0.00599899 183 189 27
-0.02725197 0.03797613 0.00302580 118 117 52
0.03043624 0.02306035 -0.04427681 37 63 2
0.02165853 0.01275348 -0.07229251 111 122 46
0.01093849 -0.00652259 -0.08579323 63 104 0
0.02191292 0.00271524 -0.06629214 118 137 48
0.02060303 0.00183199 -0.05784699 139 159 28
0.01040728 -0.00746734 -0.08022065 82 126 5
-0.00853822 0.00476462 0.01532040 142 178 54
-0.00589638 0.00533080 0.01479703 182 209 54
0.00808131 -0.01326738 -0.05193410 105 129 33
0.00813216 -0.01356982 -0.05162235 108 132 36
0.02629879 0.01295929 -0.06039774 87 107 35
0.02552844 0.01614650 -0.06190753 86 102 37
-0.02722122 0.02491573 0.02446984 196 229 16
0.01398273 0.00817797 -0.05817932 83 115 4
0.01208739 0.00444478 -0.05471320 114 135 8
0.01371186 0.00795975 -0.06587442 56 89 0
-0.01986939 0.03929891 0.01490881 120 164 67
0.00826557 0.02263897 -0.00740234 101 124 56
-0.01732328 0.03975439 0.01176881 138 177 68
0.02146100 0.00393576 -0.08565087 94 101 50
0.03341689 0.01793307 -0.04265503 166 190 96
-0.01358476 0.03513859 0.01343249 150 189 72
0.01706145 0.02503245 -0.03104912 173 196 82
-0.00009229 0.03693252 -0.00104689 141 161 36
0.01528671 0.02395426 -0.02594944 146 153 83
0.02466521 0.01150893 -0.06482670 105 123 41
0.01328589 -0.00230765 -0.11028384 46 84 1
0.01254867 0.00195991 -0.10695494 53 84 6
0.02180384 0.00198861 -0.09645003 119 128 45
0.01249766 0.00749748 -0.07602154 77 113 5
0.01214404 0.00695521 -0.07457158 83 115 8
-0.00741504 0.02192675 0.01596216 202 222 65
-0.00670042 0.01923577 0.01691902 172 191 65
-0.02168698 -0.00223365 0.01386461 163 202 75
0.00902040 0.01940028 -0.00782024 147 166 50
0.01376003 0.01548052 -0.01237590 192 198 66
0.00996793 0.01279708 -0.00560762 153 169 47
0.00508491 -0.00418729 0.00408539 169 190 73
0.01391391 0.01791193 -0.01419526 162 169 73
0.01571325 0.01591605 -0.09146739 89 103 16
0.01407003 0.00254927 -0.11120608 60 75 6
0.01494653 -0.00083512 -0.11428812 72 96 12
0.01512215 0.00186823 -0.11395969 91 106 23
0.01654834 0.00473210 -0.10555261 79 94 9
0.01536153 0.00579848 -0.10446384 74 90 19
-0.02163347 -0.00032803 0.00386434 209 201 2
-0.01683512 0.03824961 0.01291905 120 164 75
0.00852546 0.00278675 -0.00247602 156 174 54
0.00831320 0.00186203 -0.00214509 179 191 55
0.01986331 0.01749495 -0.02769057 205 204 86
-0.02368005 0.03921508 0.01945592 99 146 40
0.00852880 0.01130840 -0.00236090 201 206 41
0.00640159 0.01364193 0.00106532 175 184 39
0.01597252 0.00801248 -0.09914444 65 82 12
-0.00891780 0.03858847 0.00806209 201 225 87
-0.02930122 -0.00451920 0.01003485 175 198 4
0.00953458 0.01887952 -0.00824503 137 161 47
0.01096220 0.00972265 -0.09356016 38 72 0
-0.01213038 -0.00057436 0.00578426 201 203 0
0.01992415 0.02072839 -0.05564848 77 106 0
-0.02893307 0.04241361 0.00788548 147 143 43
-0.02391033 0.03105257 -0.00180129 103 106 39
-0.02529697 0.03187290 -0.00051100 102 113 17
0.00142912 0.03268408 -0.00070392 149 161 23
-0.03526646 0.04245823 0.00750401 160 151 50
0.01127418 0.00296105 -0.05217734 93 124 0
0.01063508 0.00228884 -0.04856370 97 123 0
0.00964146 0.00276225 -0.04108234 103 136 0
0.01475069 0.01754594 -0.01549961 162 167 83
0.01370191 0.02021962 -0.01693091 167 171 76
0.01253811 0.02220257 -0.01711740 161 166 82
0.00737145 -0.00293406 -0.03589932 144 169 5
0.00656724 -0.00846167 -0.03440616 109 141 4
0.00493945 -0.00559528 -0.02718737 144 165 0
-0.00701139 0.01139943 0.01672454 147 177 45
-0.02997039 -0.00243811 0.01218990 125 166 28
-0.03313291 -0.00045215 0.01276622 96 142 10
-0.01337928 0.01437198 0.01942327 215 246 82
-0.01964405 -0.00650278 0.00630854 181 187 3
-0.03166180 0.04513714 0.02521092 47 63 26
0.02547969 0.02692950 -0.04168080 32 59 0
0.01836467 0.01399255 -0.07995890 89 107 21
0.01815006 0.01285835 -0.08161777 80 100 5
0.01877914 0.02064684 -0.06496980 101 132 15
0.02038121 0.02350879 -0.06429235 101 130 20
-0.00492132 0.03092467 0.00650574 147 171 59
-0.02466704 0.04057713 0.01632766 104 152 34
-0.01164414 0.04418470 0.00492487 108 109 41
0.01605510 0.01290626 -0.09192207 82 95 13
-0.02436827 0.04294144 0.00932408 122 130 45
-0.02537230 0.04050317 0.02130368 84 132 32
0.02219842 0.00381574 -0.07295907 89 110 54
-0.01027774 0.03287335 0.01358733 154 189 63
-0.01283255 0.03259857 0.01530043 170 206 70
0.02333879 0.00075803 -0.08593626 79 93 58
-0.02181954 0.02182885 0.02144543 208 241 38
0.01066015 -0.01433601 -0.04233315 122 156 33
-0.02535160 0.04318553 0.01186823 158 149 82
-0.02012510 0.04217960 0.00169201 94 103 40
0.02995373 0.01311514 -0.04427314 100 135 33
-0.01015162 0.04427151 0.00050784 185 184 34
-0.00395961 -0.00207300 0.00426940 135 174 5
0.03275333 0.01968632 -0.04034033 209 202 121
-0.02908023 0.01193886 -0.00144472 160 176 0
-0.00872912 0.01680908 0.01911828 187 208 41
-0.01015476 0.01930619 0.02045763 191 207 48
0.02665331 0.02261313 -0.06034692 164 161 94
-0.00934767 -0.00724787 0.01142205 235 251 56
-0.01331938 -0.00931622 0.01012814 166 180 0
0.00618808 -0.00162889 -0.07925073 88 116 6
0.02319162 0.00584263 -0.05386426 132 154 19
0.02289744 0.00561063 -0.05572949 120 143 27
0.00738664 -0.01258727 -0.03994391 151 171 22
-0.00822945 -0.00655817 0.00786760 119 160 0
-0.04697960 0.04516886 0.01386248 163 155 46
-0.02401782 0.04251271 0.00650082 131 141 45
0.02083207 0.00283998 -0.05431941 120 147 18
-0.01637341 0.02290365 0.02153589 214 244 50
-0.01521032 0.02086471 0.02091325 188 218 62
0.02192889 0.02781140 -0.03352129 148 144 83
0.01702973 0.02082606 -0.07900456 73 102 9
-0.00276018 0.03645213 0.00286257 113 141 57
-0.00198383 0.03831273 0.00066231 107 129 47
-0.00527421 0.02773130 0.00834203 155 177 42
-0.00460724 0.02722861 0.00748717 152 174 48
-0.04565409 0.03361274 0.00790361 183 174 43
0.00442354 0.03335085 -0.01208877 150 171 30
0.00427100 0.00254559 0.00704795 118 146 46
0.01944379 0.00552287 -0.09154484 105 120 15
-0.01353289 0.04178618 0.00933150 150 141 100
0.00811380 -0.00804780 -0.04621720 87 115 2
-0.02699952 0.01830375 0.02254541 195 224 48
0.00763205 -0.01520887 -0.04256028 136 152 2
-0.00377258 0.00463473 0.01454108 169 193 57
-0.02340482 0.03130920 0.02337370 122 161 32
-0.03782391 0.04405901 0.01394202 155 154 48
-0.03321866 0.03404190 0.00478125 118 118 54
0.01865827 0.02201449 -0.02870403 176 186 97
-0.00177812 0.00640727 0.01304237 124 156 59
0.01392130 -0.00545930 -0.09645563 57 98 0
-0.00387939 0.02519144 0.00802514 194 196 24
-0.00282255 0.01946141 0.01154686 144 164 30
-0.02554401 0.03526490 0.02372418 123 165 31
-0.03644488 0.04339573 0.01750039 170 162 35
-0.01755992 -0.00385609 0.00529060 202 205 10
-0.02089367 0.00321896 0.00211036 207 201 5
-0.00392996 0.00062626 0.01312942 147 176 66
-0.03644829 0.02184208 0.00239971 109 137 0
-0.03394551 0.01911106 0.00150547 144 168 10
0.01106480 0.00624194 -0.08644211 47 87 0
0.01032612 0.00543441 -0.08079237 65 100 0
0.01066673 0.00578506 -0.08531944 58 92 5
-0.01793935 -0.00026357 0.00428898 192 197 7
0.01557808 0.01907864 -0.08271535 80 103 21
-0.01198752 0.04189500 0.00873503 127 113 76
0.00699110 -0.00453581 -0.00089944 165 178 38
-0.01655004 0.04376397 0.00898901 138 125 109
0.02154973 0.02208966 -0.06994506 110 111 45
0.02187539 0.02171063 -0.06909703 116 119 50
0.00124397 0.01228917 0.00952787 144 167 33
0.01667014 0.01681345 -0.07426707 62 105 15
0.01647774 0.01862865 -0.07683986 72 110 7
0.01814310 -0.00826843 -0.09995995 84 122 0
0.02221755 -0.01032001 -0.11079665 112 141 0
0.00901453 0.00436894 -0.00355514 141 161 66
0.00815264 0.00708119 -0.00086535 131 155 57
-0.01997172 0.02274123 -0.00640948 134 181 7
-0.01953074 0.02889962 -0.00570605 57 79 40
0.02904484 0.02494474 -0.04046670 79 100 0
-0.02431751 0.00062023 0.00439116 158 170 0
-0.03623117 0.04300306 0.01276877 129 123 35
-0.02790599 0.02647460 0.00051806 92 139 0
-0.02487930 0.02486662 -0.00178641 108 163 0
-0.02133155 0.03182673 -0.00355129 109 113 54
-0.01471201 0.03217283 0.01697115 152 191 66
0.02832215 0.02509581 -0.03904431 145 144 54
0.00775808 0.01595286 -0.00345356 155 172 40
0.01787800 0.01851957 -0.02310937 209 206 73
0.01486927 0.02270359 -0.02285029 177 180 77
0.01743135 0.01702414 -0.06313882 80 107 4
0.01892268 0.01959360 -0.06085975 122 148 12
0.01794467 -0.00776465 -0.09350073 80 112 5
-0.00907104 -0.00352749 0.00596637 116 153 0
0.01110703 0.02515366 -0.02368644 135 160 59
0.01296082 0.00869327 -0.08356700 36 69 0
-0.00187144 0.03624993 0.00197713 110 135 51
-0.04844571 0.02669230 0.00719665 201 187 38
-0.04495670 0.02657692 0.00602269 202 188 37
-0.05106491 0.02388857 0.00738163 192 181 40
-0.00464401 -0.00545953 0.00724725 106 151 0
0.00763656 -0.00949231 -0.04099299 97 121 0
0.02607174 0.01204733 -0.06065565 79 101 29
-0.03288701 0.04245689 0.00741440 127 126 46
0.02940761 0.01312943 -0.05047872 85 113 11
-0.04107197 0.04429010 0.01030357 148 141 37
0.02578252 0.02642912 -0.03655795 112 92 55
-0.02632056 0.01839122 -0.00192718 170 195 5
-0.01762481 -0.00493993 0.00571671 132 157 0
0.00610972 0.02854184 -0.00690145 182 185 20
0.00699018 0.02721295 -0.00843685 132 147 20
-0.02255479 0.00217009 0.01576176 199 231 68
-0.01426769 0.04360984 -0.00216921 84 99 42
-0.00547424 -0.00199133 0.01317072 152 179 62
0.00429374 0.00840357 0.00636165 90 121 41
-0.00456984 0.03576805 -0.00934521 132 138 28
-0.03758597 0.02300649 0.00296022 111 140 14
-0.04104683 0.02765573 0.00506511 175 170 42
-0.04034222 0.02530516 0.00425782 184 176 41
0.00602374 -0.01083981 -0.03105764 132 156 0
0.00623581 -0.00847470 -0.03293292 110 136 3
0.00672329 -0.01318991 -0.03463319 130 148 0
0.02254681 0.00407634 -0.06690258 103 118 37
-0.04500660 0.01230734 0.00330395 130 151 12
-0.03831875 0.00963560 0.00205039 184 190 20
0.01415929 0.01251399 -0.09564994 80 92 18
-0.02538025 0.03869428 0.00260792 142 136 50
0.00813694 -0.01713214 -0.04286022 127 148 21
0.00840663 -0.01712484 -0.04739397 121 151 39
0.03893991 -0.00335467 -0.16786219 64 68 9
0.02725700 -0.00168344 -0.18986212 114 129 12
0.03609506 -0.00107861 -0.17040490 91 86 31
0.03336902 0.00079440 -0.16590481 109 118 25
0.03048912 -0.00138354 -0.15675829 84 97 15
0.02796995 0.00044226 -0.16914898 77 95 13
0.02469220 -0.00329823 -0.16592741 80 97 17
0.02840701 0.00030241 -0.16702403 86 103 11
0.03639496 -0.00160747 -0.15957370 139 150 11
0.02387572 -0.00340895 -0.13063723 51 71 12
0.02187116 -0.01026531 -0.14242600 101 122 3
0.02286747 -0.00715542 -0.15766247 84 106 23
0.02298574 -0.00818912 -0.17367876 92 123 4
0.02279489 -0.00763741 -0.16505240 79 105 14
0.02339331 -0.00703298 -0.15300627 81 100 19
0.03515999 -0.00023267 -0.16295187 110 114 27
0.03304879 0.00100606 -0.16449276 102 117 16
0.03548099 -0.00550926 -0.17277049 175 181 59
0.02043400 -0.00094096 -0.12250819 63 77 2
0.02671466 -0.00481566 -0.14984399 61 82 13
0.02709210 -0.00459994 -0.15007339 62 82 10
0.02717947 -0.00819976 -0.16054015 81 108 31
0.02513106 -0.00123270 -0.19146377 106 121 4
0.02407019 -0.00485815 -0.16192743 63 84 15
0.02725458 -0.00245467 -0.16036706 64 84 13
0.03386662 -0.00606476 -0.15678017 129 148 4
0.02115907 -0.00363232 -0.18995184 88 110 1
0.02104304 -0.00952535 -0.13860227 65 89 3
0.03629855 -0.00564634 -0.15626307 95 121 0
0.02622526 -0.00099118 -0.18627572 65 87 2
0.02712871 -0.00447313 -0.15242580 64 85 20
0.03481971 -0.00213964 -0.17662859 129 113 80
0.01847508 -0.00583935 -0.13040216 88 106 24
0.03682249 -0.00641454 -0.16690539 104 127 0
0.03411764 -0.00620084 -0.16289923 136 162 3
0.03637096 -0.00644531 -0.16433696 100 131 4
0.02501136 -0.00950764 -0.16404024 103 130 23
0.02263149 -0.00906547 -0.15478149 89 112 24
0.02258756 -0.00734227 -0.14183903 91 112 19
0.01978687 -0.00109328 -0.19356392 105 127 0
0.03558718 -0.00087233 -0.17120454 113 102 56
0.03106921 0.00005578 -0.18066968 75 75 3
0.02938761 0.00128113 -0.17293623 110 122 12
0.02998819 0.00159762 -0.17193606 79 96 4
0.03212640 0.00150699 -0.17310110 70 85 4
0.02576154 -0.00068738 -0.17500302 104 117 3
0.02757447 0.00024331 -0.18003754 87 105 6
0.02514881 -0.00279412 -0.12458780 57 75 17
0.01853484 -0.00600665 -0.18872219 92 117 0
0.02054352 -0.00004744 -0.11587883 63 75 3
0.02402165 -0.00187762 -0.11986240 70 80 27
0.02414393 -0.00413786 -0.17198318 66 80 5
0.02426609 -0.00368499 -0.16655745 72 89 11
0.02411506 -0.00243173 -0.17599355 52 72 1
0.02070028 -0.00333670 -0.13052484 65 81 10
0.01771186 -0.00363407 -0.12618431 66 78 30
0.03311392 -0.00267029 -0.18455978 118 111 69
0.02689010 -0.00037769 -0.18323599 51 73 0
0.02470088 -0.00155949 -0.17901234 120 135 10
0.02961371 -0.00407824 -0.14209449 98 117 12
0.02632356 -0.00278062 -0.12025382 85 91 27
0.02829663 -0.00365927 -0.12838702 96 110 23
0.02180467 -0.00184566 -0.19598585 112 123 1
0.02382417 -0.00215105 -0.18755291 81 103 2
0.02356033 -0.00516171 -0.13956468 69 90 23
0.03466876 -0.00330490 -0.17833950 139 118 101
0.02811693 -0.00402486 -0.14205055 100 118 16
0.02531848 -0.00235396 -0.11773526 77 87 18
-0.36451367 0.01981447 -0.06324209 129 166 63
-0.36551422 0.02013620 -0.06315324 127 162 68
-0.36465225 0.01592853 -0.06252494 123 161 26
-0.39683166 0.02189850 -0.07234971 98 105 51
-0.37633330 0.01802058 -0.06440713 99 131 64
-0.37349424 0.02080151 -0.06369320 114 144 84
-0.36357602 0.01463737 -0.06291258 133 176 26
-0.35252434 0.02094421 -0.06632977 127 165 20
-0.38778943 0.01970806 -0.07081055 145 180 2
-0.33832058 0.03419655 -0.06585004 136 166 94
-0.33776534 0.03580010 -0.06596148 122 151 84
-0.35636440 0.02269895 -0.06397979 120 156 30
-0.37092614 0.00945887 -0.06403966 65 98 7
-0.37179309 0.00720687 -0.06525265 63 97 2
-0.37517941 0.00711596 -0.06655698 81 115 28
-0.34765050 0.02389302 -0.06838356 135 169 46
-0.35641524 0.01752611 -0.06606773 155 193 46
-0.33758742 0.02987460 -0.06668388 101 140 31
-0.33986148 0.03080723 -0.06570783 135 173 54
-0.36595276 0.00977951 -0.06441832 131 166 24
-0.36634091 0.01174944 -0.06283574 127 162 20
-0.35650891 0.03273109 -0.06854072 149 169 9
-0.36342260 0.00992571 -0.06621430 85 123 4
-0.34126368 0.02789389 -0.06955756 109 147 28
-0.34484470 0.02616096 -0.06738707 91 125 15
-0.36668167 0.02237382 -0.07077700 154 185 4
-0.33941838 0.02850366 -0.06796524 71 103 20
-0.37342814 0.02080428 -0.07001079 170 198 18
-0.38122597 0.01951006 -0.07056373 186 196 1
-0.35911798 0.01505491 -0.06560659 127 161 40
-0.36147428 0.01413114 -0.06454180 163 200 58
-0.33300284 0.03013282 -0.07203903 44 76 0
-0.37860981 0.00712894 -0.06865814 62 102 6
-0.36606115 0.02642727 -0.06950948 104 136 0
-0.38033009 0.01583176 -0.06998882 58 88 0
-0.35524580 0.02607895 -0.06396558 131 161 65
-0.35188666 0.02821879 -0.06419913 132 161 79
-0.36427706 0.02374476 -0.07173534 127 161 4
-0.35818550 0.02701025 -0.07122091 118 146 1
-0.37626356 0.01565507 -0.06441968 102 138 42
-0.39071518 0.02201078 -0.07066810 139 161 16
-0.39517951 0.02160468 -0.07194886 103 104 62
-0.36043221 0.01681569 -0.06861271 93 142 0
-0.36052942 0.01656384 -0.06852251 93 142 0
-0.35442239 0.01901459 -0.07157788 56 97 0
-0.35117331 0.02919009 -0.07205313 159 180 0
-0.35284531 0.03363257 -0.06896175 181 199 15
-0.36084720 0.02287910 -0.07279143 146 180 6
-0.35645416 0.01608615 -0.06867994 125 165 42
-0.36385903 0.01928687 -0.06854764 50 88 1
-0.35164756 0.02758818 -0.07251777 160 185 5
-0.36979637 0.01312139 -0.06698404 93 131 9
-0.37023684 0.01831128 -0.06872572 47 81 0
-0.37861711 0.00721027 -0.06815995 69 112 7
-0.35985410 0.03438592 -0.06753798 110 133 3
-0.36012316 0.03564271 -0.06732222 129 154 11
-0.35061994 0.02274958 -0.07256738 100 133 16
-0.34918612 0.02500339 -0.07293158 141 170 18
-0.37014189 0.02449131 -0.06948638 112 141 0
-0.38629356 0.01654217 -0.07215815 145 169 0
-0.35202312 0.02999720 -0.06425736 117 151 67
-0.34848630 0.03091183 -0.06428055 126 158 83
-0.37694335 0.00975729 -0.06804832 92 124 17
-0.34364668 0.02821885 -0.07231408 63 96 17
-0.38626003 0.00919836 -0.07683276 40 71 0
-0.38432491 0.00980130 -0.07410020 31 69 0
-0.38519180 0.01379850 -0.07234439 190 211 28
-0.36174661 0.01181359 -0.06687397 121 160 15
-0.36642396 0.02030070 -0.06979340 128 160 14
-0.37993997 0.02284640 -0.06849974 192 205 3
-0.34782451 0.02461617 -0.07211779 67 102 22
-0.36854866 0.01298853 -0.06295986 160 191 71
-0.33689588 0.02902465 -0.07007734 105 139 18
-0.25892961 0.07201675 -0.08345216 102 114 4
-0.25984904 0.06835101 -0.09293312 80 91 0
-0.24785207 0.06899619 -0.07045469 117 130 14
-0.24625815 0.06817756 -0.06907239 111 128 13
-0.23755699 0.07106797 -0.06559025 83 111 0
-0.23738673 0.07155876 -0.06021290 100 119 14
-0.23850435 0.06653729 -0.05078001 107 122 27
-0.24331321 0.06285378 -0.04762622 116 127 48
-0.24770603 0.06245398 -0.04661250 130 138 27
-0.24409373 0.06128617 -0.04577031 110 116 42
-0.24922386 0.06465296 -0.05346496 153 157 62
-0.24719338 0.06451949 -0.05229379 134 146 44
-0.23346755 0.07184941 -0.04682450 92 110 10
-0.23615061 0.06915838 -0.05181347 109 126 14
-0.26179755 0.06872930 -0.10437325 62 85 5
-0.26143765 0.06780905 -0.10155806 97 107 38
-0.25513369 0.07067403 -0.08746968 80 98 12
-0.25507349 0.07006671 -0.08991545 77 95 11
-0.25795791 0.06637388 -0.06041756 131 134 43
-0.24178913 0.05914668 -0.04415369 121 124 57
-0.24317706 0.06738816 -0.07675179 78 99 6
-0.24229021 0.06920283 -0.07409555 93 115 7
-0.24477516 0.06868209 -0.06852213 107 124 9
-0.24970965 0.07171986 -0.08158462 79 99 10
-0.23831084 0.06677713 -0.05171656 108 125 11
-0.24299021 0.06552451 -0.05308784 110 125 68
-0.23795563 0.06481870 -0.06987205 75 101 4
-0.23711954 0.06667450 -0.06727227 80 107 4
-0.24248934 0.06640007 -0.07627507 72 96 8
-0.24250038 0.06099138 -0.08254940 97 116 34
-0.24350910 0.06306040 -0.08180489 91 111 22
-0.25450879 0.06712411 -0.06966976 130 138 27
-0.25104681 0.07274444 -0.08066130 82 102 13
-0.25338602 0.07357328 -0.07962753 101 115 20
-0.23979495 0.06989600 -0.06265740 106 125 10
-0.23083365 0.06399999 -0.04317665 84 101 23
-0.23464310 0.06829996 -0.04799722 103 120 14
-0.24381581 0.07329111 -0.07158326 89 111 3
-0.24245146 0.07303035 -0.06630821 103 120 16
-0.25085884 0.07294435 -0.07497903 131 137 15
-0.24888410 0.07406002 -0.07300211 118 131 17
-0.25808075 0.06614318 -0.06323262 113 118 26
-0.25909254 0.06470150 -0.06670729 104 114 15
-0.23886092 0.06926955 -0.06014067 111 128 13
-0.24744008 0.06751990 -0.06692524 114 128 7
-0.24734849 0.06790011 -0.06924749 112 126 5
-0.23354550 0.06187705 -0.04418597 93 107 20
-0.23541266 0.06302722 -0.04618519 99 104 40
-0.23566195 0.07366434 -0.05827786 102 119 17
-0.26149157 0.06536140 -0.08250105 112 124 38
-0.26106492 0.06431714 -0.07879356 127 136 53
-0.25982457 0.06728570 -0.07619911 104 114 17
-0.25968033 0.06803381 -0.07644661 107 114 18
-0.25695509 0.06929847 -0.10064489 102 116 5
-0.26253700 0.06654998 -0.09792876 67 78 0
-0.25856388 0.06857481 -0.09796903 90 101 5
-0.25365597 0.06991455 -0.08942421 82 98 10
-0.25947353 0.07030948 -0.10782789 80 101 10
-0.25905588 0.07020607 -0.10726197 87 107 8
-0.24351686 0.06240229 -0.08570673 112 129 51
-0.24326040 0.06298029 -0.08970136 124 135 56
-0.25175151 0.06926405 -0.10028386 129 140 18
-0.24828550 0.06906409 -0.10065877 130 141 21
-0.24574494 0.06792203 -0.09957471 104 118 0
-0.24757786 0.06847386 -0.09881027 112 128 6
-0.24125578 0.07296737 -0.06708075 104 123 16
-0.24727830 0.06746936 -0.08571281 80 103 13
-0.24925506 0.06835524 -0.09069949 83 104 11
-0.24414317 0.06592483 -0.08822609 92 112 15
-0.24404167 0.06590512 -0.08979367 89 110 9
-0.25555551 0.06978317 -0.09562691 93 111 12
-0.25465780 0.07017906 -0.10270134 119 134 17
-0.25498578 0.06674796 -0.06725466 130 133 44
-0.25224230 0.06965956 -0.07314402 142 148 16
-0.25601542 0.06583430 -0.07179480 113 119 31
-0.25448096 0.06845880 -0.07358149 133 141 19
-0.23852217 0.06859695 -0.05776701 114 128 14
-0.24607918 0.06633581 -0.06089806 132 137 55
-0.24667622 0.06618261 -0.06039982 116 123 30
-0.26031342 0.06048356 -0.07314492 102 115 33
-0.26134592 0.06187288 -0.07781942 109 118 37
-0.26142183 0.06783881 -0.08648768 111 118 25
-0.26101968 0.06869168 -0.08524585 105 115 19
-0.26291537 0.06357893 -0.08844804 92 99 29
-0.24789681 0.07063910 -0.08039266 77 98 7
-0.24373242 0.06819506 -0.07709645 87 109 8
-0.00596687 0.00074869 0.00082520 177 184 6
-0.00626709 0.00034147 0.00331323 160 179 10
-0.00672961 0.00362577 -0.00344541 203 200 9
0.01173763 -0.01072995 -0.01817608 206 208 3
-0.00591975 0.03325244 -0.02056807 117 112 72
0.01546628 0.02712089 -0.03220887 130 150 79
0.01138464 -0.01037826 -0.03931979 174 197 65
0.01273241 -0.00926005 -0.03251510 146 157 53
0.01081591 -0.01508856 -0.03757714 94 128 42
0.00410788 0.00713470 -0.02945760 145 179 4
0.00352877 0.00725498 -0.02852260 143 177 5
0.01105333 -0.01247742 -0.04665761 124 158 12
0.01429387 -0.00270821 -0.04219230 126 152 78
0.01243822 -0.00672691 -0.03900165 196 210 71
-0.00166910 -0.00224561 0.00027853 144 171 0
-0.01935239 0.00981345 -0.00525092 133 162 0
-0.01937759 0.00804740 -0.00336503 157 184 11
0.00437658 -0.00898421 -0.01527927 89 124 0
0.00020107 -0.00324099 -0.00811816 135 155 0
0.00330390 -0.00720697 -0.01065419 108 140 0
0.00580771 -0.00939982 -0.01106177 94 129 25
0.01080104 -0.01453908 -0.04095306 100 134 22
-0.01683956 0.00473307 0.00217040 159 179 0
-0.00503884 0.00676860 -0.01146141 95 127 0
-0.00242448 0.00298256 -0.01403788 100 134 0
0.01410064 -0.00666918 -0.04962579 180 188 17
0.01374229 -0.00751916 -0.05355674 137 155 7
0.01425100 -0.00753762 -0.05822006 170 171 5
0.00590060 -0.01376405 -0.02924161 78 118 4
0.00471438 -0.01040647 -0.02346671 89 119 0
0.02180727 0.02565758 -0.04850334 45 75 0
0.00900805 -0.01598356 -0.05141919 72 110 0
0.01183060 -0.01058619 -0.05071004 146 173 8
0.01530528 0.00183818 -0.03817142 166 195 51
0.01511830 0.00097959 -0.03904273 126 153 46
0.01622968 -0.00669902 -0.06630965 164 179 16
0.01382569 -0.00821827 -0.05960281 127 142 0
0.01813188 -0.00559667 -0.07232983 100 126 0
0.01984138 -0.00171989 -0.06706969 94 123 65
0.00107265 -0.00378129 -0.00109491 97 135 0
0.02016297 -0.00649433 -0.08468880 110 136 0
0.02022303 -0.00685328 -0.08659799 117 144 5
0.01935575 -0.00369636 -0.07279052 169 181 9
0.02134470 -0.00188061 -0.07531414 115 130 39
0.02095176 -0.00153704 -0.07351544 110 129 50
-0.01238789 0.00748858 -0.00448948 114 144 0
0.00458388 -0.00114683 -0.02732458 102 134 1
0.00507569 -0.00162067 -0.02841202 100 131 1
0.01852775 0.00146493 -0.04938292 147 170 38
0.01723005 0.00029311 -0.04651850 97 121 37
0.02363505 -0.00277579 -0.08474145 113 116 37
-0.01042948 0.01979329 -0.01417264 70 114 3
-0.01840161 0.01897775 -0.00884233 111 157 0
-0.00474287 0.03501626 -0.01364752 101 120 39
0.02718802 -0.00296607 -0.10453189 75 99 63
0.01941982 0.02183367 -0.04637225 128 148 1
0.00251947 0.01550823 -0.02659239 127 166 0
0.00246256 0.01107400 -0.02657770 100 141 0
0.00703957 0.00687488 -0.03451345 114 152 4
0.00748473 0.01052585 -0.03477071 159 186 11
-0.01625515 0.01597774 -0.00937739 108 151 0
-0.02070719 0.00712839 0.00013742 101 126 8
-0.00302821 0.00114838 -0.00791037 208 217 2
-0.00222391 0.00055184 -0.00977997 213 223 12
0.00464029 0.02943481 -0.02368997 120 145 27
0.00264965 0.02973862 -0.02680089 79 89 36
0.01169049 -0.01105869 -0.04771296 133 161 0
0.00392189 0.02932547 -0.02210190 116 139 25
0.02054156 -0.00025438 -0.06629220 90 116 43
0.02063724 -0.00027046 -0.06719290 90 115 50
0.01759952 0.00706372 -0.03122751 124 167 78
0.01741300 0.00548571 -0.02353551 165 206 100
0.01743119 0.00539955 -0.02267058 163 199 91
0.01028196 0.02685259 -0.03508315 140 151 47
0.01275870 -0.00137193 -0.01704262 195 212 71
0.01559553 0.00254361 -0.02029059 154 182 82
0.01216973 -0.00772543 -0.01925329 180 196 27
0.01838015 0.00896418 -0.03128163 160 204 91
0.01804741 0.00676252 -0.02198524 172 198 99
0.00817007 -0.00612805 -0.00604943 185 201 94
0.00105253 0.02087668 -0.02342336 120 166 0
0.02256749 0.02788568 -0.04364340 96 117 14
0.01363207 -0.00298278 -0.02363081 152 178 53
0.01170853 -0.00955310 -0.01933436 208 209 7
0.01578166 0.00388291 -0.03570707 127 161 66
0.01539323 0.00223441 -0.03186655 123 158 68
0.01878873 0.02002607 -0.04799649 127 152 0
0.01173330 -0.01004776 -0.01811809 205 209 1
0.00554066 -0.00694078 -0.00137615 95 120 0
0.01203941 -0.00820543 -0.01353512 144 168 22
-0.00769300 0.00811723 -0.00839955 149 173 1
0.01088417 -0.01648719 -0.02613894 114 149 49
-0.00051834 0.03151881 -0.01510230 118 139 18
0.00239064 -0.00414497 -0.02036761 137 151 0
0.00116252 -0.00310210 -0.01733980 145 155 0
0.01402321 -0.00682359 -0.02761621 147 166 38
0.02000171 0.03107964 -0.03762417 88 115 2
-0.00573452 0.02812261 -0.01888423 124 145 78
-0.00292405 0.01916468 -0.02010286 106 150 3
-0.00583051 0.01934574 -0.01806837 67 112 0
0.00396945 0.00491641 -0.02837592 117 147 0
-0.00807692 0.00167347 0.00345042 184 196 8
0.01185975 -0.00724156 -0.01234736 158 182 22
0.01050528 -0.00507516 -0.00751608 121 144 53
-0.00261256 0.03247211 -0.02300391 67 72 18
-0.00431063 0.02936428 -0.02017779 146 159 77
0.01574452 -0.00058533 -0.04331733 90 121 54
0.01481670 -0.00302625 -0.04424391 128 155 78
0.00850908 -0.01367555 -0.01619843 181 197 62
0.02082016 0.02909582 -0.04154683 109 128 12
0.00326911 -0.00746293 -0.01769676 164 181 4
-0.00018634 -0.00165100 -0.01265592 211 223 1
0.00588158 -0.01361815 -0.01979282 92 128 30
0.00605887 -0.01409465 -0.02085782 90 127 24
0.01853549 0.02765123 -0.04276270 71 95 0
0.00792520 -0.01030884 -0.01163195 128 151 34
0.01350710 0.00301408 -0.01479748 199 209 60
-0.00000638 0.02506052 -0.02212212 60 114 0
-0.00485242 0.03344147 -0.01810665 98 94 20
-0.01148093 0.01340989 -0.00976351 76 111 0
0.01912830 -0.00014877 -0.05515195 91 117 46
0.01345620 -0.00583665 -0.03398633 141 153 41
0.01365366 -0.00759803 -0.03230374 130 148 38
0.01870018 0.00865567 -0.02297861 183 193 97
0.01736831 0.01217252 -0.01974318 157 162 96
0.01636319 0.00522892 -0.01860406 142 156 77
0.01821314 0.03019870 -0.03966659 79 104 0
0.01760344 0.00634936 -0.02030100 152 167 82
0.01614363 0.00791776 -0.01758100 143 158 67
0.01188934 -0.00067183 -0.01378022 164 190 67
0.01184071 -0.00147129 -0.01368933 170 195 68
0.01107131 -0.01609151 -0.02395915 117 153 47
0.01278959 -0.00997700 -0.02730640 193 204 22
0.00190535 -0.00393415 -0.00550084 116 145 1
0.00885636 -0.01630425 -0.03142801 122 151 43
0.01736223 0.03089528 -0.03857124 77 101 0
0.01087644 0.01666700 -0.03544897 94 135 0
0.01215737 0.01514476 -0.03981371 147 171 11
0.01884937 0.01980084 -0.04896426 130 155 2
0.00503168 0.02464995 -0.02790878 94 157 4
0.00114852 0.02997199 -0.02633687 199 207 121
0.00380085 -0.00241891 -0.02503970 127 153 0
-0.00093097 0.03363791 -0.01217559 111 129 19
0.00984783 0.02748456 -0.03473168 88 95 18
0.01800230 0.02305481 -0.04385354 116 140 4
0.01767752 0.02408846 -0.04316780 109 132 2
0.02539732 -0.00336403 -0.09423421 105 108 39
0.01161875 -0.01048663 -0.02477333 159 173 26
0.00806444 -0.01572534 -0.02538812 111 137 12
0.02367082 -0.00605729 -0.09466900 157 177 52
0.02273204 -0.00615477 -0.09226108 121 144 12
-0.00062206 0.03173363 -0.01779253 96 118 7
-0.00590216 0.01629855 -0.01714498 108 153 2
-0.00752553 0.01593324 -0.01522463 120 164 9
-0.00318368 0.01094590 -0.01730352 134 173 6
-0.00542443 0.00906567 -0.01356674 94 129 0
0.01917773 0.02387439 -0.04474620 118 136 0
0.01023268 -0.01379210 -0.03242676 139 170 51
0.01100685 0.01088267 -0.04117700 117 146 2
0.01008402 0.01001189 -0.03967374 97 138 0
0.01222985 0.01127590 -0.04333160 109 142 1
-0.01139732 0.01691488 -0.01228321 118 158 23
-0.00064119 0.00411021 -0.01822465 76 113 0
0.00049510 0.00115312 -0.01854919 113 146 3
-0.01163508 0.00587544 -0.00033894 131 157 4
0.00609591 0.02680260 -0.02979684 180 209 3
0.01408238 0.01574373 -0.04287194 145 168 2
0.01521245 0.01800227 -0.04226445 84 124 2
0.00524184 0.01444372 -0.03064316 131 168 3
-0.00936235 0.00826366 -0.00597785 113 136 0
0.00659698 0.02922674 -0.02018487 164 185 28
0.00430183 0.01407024 -0.02917444 119 156 0
0.01282887 -0.00696239 -0.04088787 196 209 67
0.01298342 -0.00793638 -0.04296448 141 156 29
-0.01154621 0.01051154 -0.00727921 124 153 9
0.00379823 -0.00770149 0.00172937 139 177 4
0.01135448 0.02555240 -0.03438301 187 210 44
0.00955582 -0.01700357 -0.03340926 111 142 38
-0.01093222 0.02284540 -0.01449691 114 154 5
-0.01323640 0.02196282 -0.01254241 84 136 12
0.00682990 0.02319650 -0.02969380 93 152 0
0.01309676 0.02335983 -0.03784993 143 172 6
0.01483048 0.02036272 -0.03972558 86 129 0
-0.01401644 0.00397059 0.00244671 211 213 6
0.01448029 -0.00064887 -0.02919230 136 169 64
0.01417519 -0.00529849 -0.03144952 206 204 41
-0.00236050 0.01350009 -0.01979161 129 170 6
0.01361247 0.00000677 -0.01746671 171 189 71
-0.00132782 0.00765674 -0.01897903 137 166 0
-0.00070779 0.00686785 -0.01971801 157 182 3
0.00239591 0.02729834 -0.02316229 76 127 6
0.00165137 0.02196802 -0.02391400 135 182 4
-0.01247171 0.00909687 -0.00461207 175 196 5
-0.00196027 0.02539598 -0.02116418 64 119 2
0.00382634 0.00275507 -0.02679813 104 137 0
0.00945351 0.00348494 -0.03972824 99 132 0
0.00715033 0.00310693 -0.03488547 96 129 0
0.00485246 0.01967969 -0.02858975 141 180 3
-0.05903887 0.11940008 -0.19877195 149 141 79
-0.06710181 0.11167118 -0.19090411 110 125 20
-0.06827895 0.11439940 -0.18876517 68 90 5
-0.07024339 0.11380640 -0.18056996 99 99 35
-0.07353735 0.11334353 -0.17768815 73 78 24
-0.06124776 0.11952896 -0.19553664 98 106 55
-0.06616796 0.11650786 -0.18571989 137 139 64
-0.06830609 0.11652504 -0.18403137 106 112 42
-0.07442348 0.11256984 -0.17752589 59 69 16
-0.06799553 0.10839640 -0.18780729 91 109 9
-0.06341553 0.11935855 -0.19795319 78 84 40
-0.06093815 0.12168209 -0.19918157 83 79 31
-0.06281769 0.11898090 -0.19997375 57 70 17
-0.09399147 0.10606429 -0.15572610 63 76 32
-0.09164966 0.10684720 -0.15743016 71 83 35
-0.06698067 0.11484896 -0.19116908 52 79 2
-0.09311380 0.10533011 -0.16014893 69 73 48
-0.08303848 0.10023823 -0.16744789 84 113 7
-0.09492838 0.09944363 -0.15971686 45 47 33
-0.06201033 0.11516201 -0.20326094 80 104 8
-0.06311007 0.11374196 -0.20071483 84 108 10
-0.06454571 0.11153543 -0.19692689 77 105 3
-0.06009012 0.11200341 -0.19964206 122 134 32
-0.09204241 0.09766217 -0.16162963 89 134 7
-0.08366662 0.10237343 -0.16742270 89 123 10
-0.06809571 0.11579336 -0.18304136 115 123 46
-0.07697609 0.11047053 -0.17494747 65 78 35
-0.07731093 0.11026231 -0.17464335 65 76 44
-0.09061494 0.10522297 -0.16217656 73 75 62
-0.08663210 0.09697105 -0.16384405 107 131 21
-0.07432339 0.10150772 -0.17106801 185 190 64
-0.09698140 0.09493599 -0.15665792 83 115 14
-0.09508911 0.10245603 -0.15927044 82 78 67
-0.07925382 0.10885998 -0.17286806 69 86 44
-0.07785454 0.10710236 -0.17371905 88 113 47
-0.09202224 0.10159203 -0.16147327 51 49 50
-0.09191724 0.10043459 -0.16157621 85 104 59
-0.07154849 0.10782041 -0.18029240 83 102 12
-0.25594068 0.05882544 0.04258117 159 183 11
-0.25480297 0.06106790 0.04226245 190 204 5
-0.25578570 0.05399067 0.04714114 182 202 16
-0.23634754 0.04742097 0.05153328 157 175 27
-0.21930481 0.06088139 0.05379761 188 202 21
-0.22225966 0.06357525 0.05148445 156 176 16
-0.19896664 0.06155121 0.07415567 219 230 30
-0.17340083 0.03712141 0.08563193 190 220 38
-0.16792856 0.03116461 0.08968547 184 212 65
-0.16769092 0.03344992 0.08733737 176 205 17
-0.25303012 0.06448721 0.04826990 158 183 3
-0.25746068 0.05481070 0.04519623 206 212 24
-0.25726640 0.05674555 0.04673657 180 195 14
-0.22698700 0.06923492 0.05439232 143 170 15
-0.19486549 0.05476630 0.07617941 179 216 14
-0.19695567 0.05562138 0.07505777 196 218 22
-0.22376151 0.06939771 0.05951773 142 169 14
-0.18025960 0.03454196 0.08518682 186 214 52
-0.17865950 0.03701901 0.08466557 198 221 17
-0.17313857 0.03481797 0.08745675 197 221 37
-0.23476388 0.06534991 0.04919163 125 159 10
-0.18592000 0.05447624 0.07481476 169 196 31
-0.24099022 0.07645371 0.06815516 134 154 7
-0.22265926 0.06979189 0.06157243 169 196 21
-0.22174791 0.06725062 0.05977079 171 196 17
-0.17064521 0.03808043 0.08402180 226 236 25
-0.21855380 0.06076645 0.05483651 183 197 26
-0.24348998 0.05054599 0.05006100 88 119 15
-0.24757077 0.04860592 0.04963271 147 173 20
-0.24342914 0.04900308 0.05065357 116 146 22
-0.25122041 0.06629239 0.04802109 147 179 10
-0.25365576 0.06408720 0.04745418 167 197 15
-0.17847779 0.04725885 0.07754937 125 158 7
-0.17698574 0.04427828 0.07510130 95 136 8
-0.24128039 0.05163812 0.04934521 132 154 20
-0.20064528 0.05222066 0.07216637 145 173 10
-0.19010878 0.05399054 0.07718099 217 229 43
-0.19029349 0.05568827 0.07615708 186 214 54
-0.23172119 0.06722315 0.05421173 160 183 13
-0.22413737 0.06145511 0.04978827 187 201 17
-0.25009763 0.04736845 0.04850417 165 188 18
-0.24942456 0.04652879 0.04860472 170 192 19
-0.20419045 0.05469471 0.06971629 179 200 17
-0.25776887 0.05673007 0.05193886 192 218 23
-0.25778916 0.05638724 0.05132399 156 185 7
-0.18188831 0.04199348 0.08250122 183 216 51
-0.24517530 0.07029526 0.05134877 170 198 15
-0.25524601 0.06515957 0.05727957 180 200 5
-0.24487793 0.04044706 0.04946216 186 204 4
-0.24152431 0.04081776 0.05215403 222 234 38
-0.21513470 0.05950098 0.05950259 160 181 16
-0.21561198 0.05975614 0.05891934 158 178 18
-0.19176963 0.05030767 0.07755486 206 226 17
-0.19030195 0.05145709 0.07773928 225 236 58
-0.23632361 0.05327687 0.04796730 133 151 13
-0.19763167 0.04572600 0.07367584 198 221 27
-0.22822984 0.06477913 0.04980646 160 187 22
-0.23969139 0.04224250 0.05425469 168 191 23
-0.24084955 0.04184861 0.05297067 181 200 30
-0.23403519 0.07181636 0.06188190 192 218 35
-0.18472368 0.04253460 0.08178850 172 204 19
-0.16845901 0.03727883 0.08370128 135 161 10
-0.24041644 0.05330448 0.04850099 118 140 13
-0.25575066 0.04839657 0.03796535 184 189 35
-0.25664875 0.04858062 0.04221529 191 194 41
-0.25739875 0.05145483 0.04384599 187 193 41
-0.17996156 0.04652181 0.08005869 207 227 31
-0.24172306 0.07449641 0.06296875 173 190 0
-0.21656956 0.07060779 0.06689523 146 179 28
-0.22691064 0.07659519 0.06511433 103 108 67
-0.25233147 0.04423385 0.04265802 235 230 84
-0.24906254 0.04046873 0.04654806 199 215 3
-0.24866202 0.03932256 0.04642925 191 206 3
-0.23442777 0.06036496 0.04716862 159 186 19
-0.23646595 0.06371917 0.04724764 113 154 16
-0.24317057 0.08073233 0.07656515 181 200 46
-0.20783526 0.05643312 0.06747451 175 198 22
-0.21094817 0.05849489 0.06535059 148 172 14
-0.21535727 0.06446120 0.06540031 158 179 26
-0.23157483 0.07222660 0.06166066 136 166 18
-0.23441468 0.06658797 0.05295117 145 178 9
-0.23606333 0.06887305 0.05582358 134 171 13
-0.22262233 0.04858039 0.05618548 175 199 25
-0.22555001 0.05095935 0.05333293 163 186 18
-0.19052115 0.04356505 0.07867432 186 213 22
-0.21140498 0.06320162 0.06740294 137 167 19
-0.19850734 0.04279612 0.07387961 171 200 32
-0.19855325 0.04421470 0.07342163 203 220 20
-0.25703284 0.05953095 0.05231699 151 172 5
-0.25658885 0.05917093 0.04922311 146 168 8
-0.17926998 0.04710140 0.07900958 143 174 19
-0.19419016 0.04475582 0.07588501 170 200 16
-0.22498468 0.07712880 0.06496170 115 125 54
-0.22086133 0.07412275 0.06601664 120 153 38
-0.21197946 0.06105363 0.06647866 161 186 20
-0.20735386 0.05923540 0.06917095 176 198 25
-0.20147988 0.04863254 0.07056495 159 188 20
-0.24134713 0.04449419 0.05288148 146 175 23
-0.24010858 0.04450776 0.05296955 145 174 24
-0.18772836 0.03797134 0.08109456 187 216 30
-0.24371198 0.07377701 0.05450562 192 211 8
-0.20286000 0.05897299 0.07204992 183 208 28
-0.23407529 0.05317841 0.04838500 171 178 13
-0.23239100 0.05085102 0.05042173 187 194 20
-0.19692905 0.05754625 0.07510392 200 221 22
-0.22756888 0.05075795 0.05273434 157 183 12
-0.22869411 0.04566906 0.05586094 182 197 16
-0.21648145 0.06086520 0.05868835 128 152 14
-0.21768948 0.06028853 0.05595649 188 195 19
-0.21420407 0.04865608 0.05979889 165 190 24
-0.20960031 0.04805126 0.06370501 194 210 25
-0.18829076 0.04206238 0.07995853 224 232 23
-0.20650326 0.05100017 0.06651272 196 211 22
-0.20572820 0.04958661 0.06729072 156 184 12
-0.20940371 0.07164588 0.07034472 158 190 65
-0.21588884 0.05776339 0.05694455 143 163 14
-0.21375787 0.05371505 0.05935339 197 206 17
-0.22252759 0.05158883 0.05383699 155 177 16
-0.22489950 0.05308781 0.05202162 146 171 15
-0.21037619 0.06523901 0.06837793 164 188 32
-0.24852622 0.05633583 0.04714109 118 152 16
-0.24898265 0.05494220 0.04737489 112 141 15
-0.21894547 0.05826286 0.05381255 155 169 12
-0.21934547 0.05812600 0.05337284 158 174 16
-0.22476900 0.05803306 0.04956042 174 188 17
-0.22893156 0.05896794 0.04935268 161 178 20
-0.24327366 0.06572452 0.04598310 83 119 9
-0.24466696 0.06527296 0.04572573 85 121 13
-0.24862383 0.06375112 0.04543750 69 105 5
-0.24530621 0.05707767 0.04745981 78 114 6
-0.24865490 0.05909632 0.04650605 94 131 15
-0.22843231 0.07681296 0.06487034 124 120 91
