0.67670900 0.30065441 -0.17566402 185 182 101
0.67431694 0.30128080 -0.17857315 204 216 48
0.67198491 0.29592746 -0.18278731 194 201 36
0.67950279 0.30558062 -0.16739821 137 150 0
0.67160207 0.30282640 -0.18154848 168 180 22
0.68052709 0.32054189 -0.20420831 156 170 25
0.67356700 0.31528726 -0.21344204 135 150 0
0.68178958 0.31931242 -0.20519388 197 198 70
0.69228691 0.32881534 -0.18948421 166 164 1
0.68145168 0.30693316 -0.20720045 204 205 67
0.67423034 0.29620007 -0.18064193 191 189 88
0.68842620 0.33174583 -0.18692629 190 196 24
0.67471093 0.33285543 -0.18729283 212 216 44
0.67944229 0.30562967 -0.17153038 190 203 28
0.67525136 0.31885263 -0.20648579 150 163 11
0.67863160 0.31986487 -0.20506336 114 134 19
0.67214245 0.31758171 -0.20962407 167 167 7
0.69647974 0.32607758 -0.19462568 170 174 35
0.69574594 0.32690084 -0.19274142 192 196 47
0.66804582 0.31125957 -0.19541334 178 180 47
0.66919875 0.30421266 -0.18283917 185 193 32
0.68097544 0.33918780 -0.17961855 180 193 15
0.67406404 0.30511791 -0.22282307 153 150 43
0.67448235 0.30884063 -0.21982051 180 181 64
0.67408830 0.30854100 -0.22597529 169 174 48
0.67143476 0.31300557 -0.19667748 173 174 54
0.67462540 0.30469093 -0.21920630 187 182 78
0.66376615 0.31027159 -0.19393165 191 188 55
0.66694784 0.31092712 -0.20482516 182 186 75
0.66634905 0.30460823 -0.18691705 214 220 60
0.66528928 0.30745444 -0.19082974 154 166 8
0.67453539 0.31016105 -0.22333919 142 149 37
0.67343217 0.30774963 -0.22868745 158 162 41
0.67608267 0.30940339 -0.21489328 201 197 97
0.67049688 0.29858753 -0.18576446 174 182 34
0.68731284 0.32589662 -0.19515829 201 200 56
0.67825097 0.30987480 -0.21116649 193 191 68
0.66621715 0.30800879 -0.19537026 194 193 53
0.67552984 0.30754632 -0.21600135 161 158 41
0.68380225 0.33268890 -0.18733333 151 170 28
0.68213707 0.33444434 -0.18455026 162 175 0
0.67162150 0.29942453 -0.21126486 179 186 56
0.69045734 0.32530132 -0.19404474 155 156 26
0.68695319 0.32402235 -0.19720282 177 179 54
0.68602324 0.31317720 -0.20679514 212 210 89
0.68749523 0.31752411 -0.20354821 198 197 71
0.68586254 0.32110569 -0.20094009 177 185 40
0.67501557 0.32965320 -0.19006760 164 174 0
0.67743188 0.30283812 -0.21275462 179 177 68
0.67773604 0.32798082 -0.19209096 160 168 0
0.68095690 0.32423177 -0.19623323 155 165 6
0.68235731 0.32793224 -0.19267277 149 165 7
0.66569912 0.30622387 -0.18760639 205 208 55
0.68321836 0.31391579 -0.20779964 218 216 103
0.67474401 0.29965714 -0.17606986 216 220 47
0.67768794 0.32277721 -0.20027179 158 164 6
0.66631508 0.30070430 -0.19393234 176 186 25
0.67295033 0.32225817 -0.19793828 141 149 4
0.68350589 0.33293971 -0.18510605 148 158 7
0.68598419 0.32425600 -0.19674204 187 192 38
0.68366182 0.31859940 -0.20117296 190 192 47
0.68873459 0.32104951 -0.20075464 201 198 59
0.68254524 0.30963704 -0.20530763 221 220 80
0.67199552 0.30235705 -0.20426586 161 178 22
0.67218739 0.30103528 -0.17968704 224 228 53
0.66344082 0.30157641 -0.20163798 165 177 15
0.67540210 0.32783514 -0.19050814 159 167 0
0.68227977 0.32861534 -0.19191593 148 163 22
0.66871190 0.30113587 -0.20163335 185 196 4
0.66789848 0.30039468 -0.19725226 181 183 11
0.69504350 0.32495850 -0.19767982 188 184 48
0.68938768 0.32904458 -0.19030274 182 186 39
0.68243963 0.33211169 -0.18597777 172 177 13
0.67556596 0.33307409 -0.18658920 177 181 6
0.66906899 0.29860795 -0.18558894 200 201 45
0.67141920 0.30023372 -0.18371971 193 204 48
0.67827863 0.33304954 -0.18530157 201 206 18
0.67725736 0.30054507 -0.21163005 194 189 59
0.66727293 0.31203499 -0.19823188 169 174 56
0.67687857 0.30319101 -0.20781365 204 199 56
0.66455984 0.30960953 -0.20106475 131 145 10
0.67135406 0.30134380 -0.18109140 194 199 34
0.67672318 0.29789031 -0.17767060 200 199 106
0.66594034 0.29926404 -0.20138270 179 186 28
0.53617954 0.30082068 -0.21608216 102 131 47
0.56000614 0.30358690 -0.21114202 136 170 76
0.54471129 0.30913699 -0.21348323 159 187 64
0.54064852 0.30226618 -0.21487673 114 147 58
0.49118853 0.30401146 -0.25418970 84 107 25
0.55116653 0.30219167 -0.21172890 127 162 68
0.48567751 0.30145267 -0.25933048 85 107 32
0.50235003 0.30011395 -0.23677658 83 112 30
0.57990664 0.30379316 -0.21070047 148 174 83
0.57122272 0.30636427 -0.20874494 148 180 37
0.54729652 0.29568017 -0.21166255 137 134 103
0.48676223 0.29680535 -0.25624052 69 92 24
0.53273648 0.30868104 -0.22344737 124 150 14
0.53036958 0.30872130 -0.22547688 104 131 14
0.52427793 0.29841700 -0.22228996 78 104 15
0.55530351 0.29807004 -0.20999171 160 182 109
0.52061021 0.30973169 -0.23125716 157 184 89
0.49988341 0.30307531 -0.24227108 104 131 50
0.55713910 0.29668811 -0.21077839 111 126 45
0.55497855 0.29886344 -0.21016696 95 129 17
0.55249369 0.30637643 -0.21289638 148 182 70
0.53849053 0.30029136 -0.21509799 104 137 50
0.49025410 0.29741251 -0.25569603 117 130 61
0.51363170 0.30866471 -0.23033075 136 170 60
0.51515788 0.30564794 -0.22877043 156 185 95
0.56056029 0.29636315 -0.21141516 85 131 0
0.53621280 0.30985448 -0.21510848 153 184 57
0.52529186 0.30029911 -0.21963827 117 141 57
0.54303914 0.29740298 -0.21242805 182 185 138
0.52518833 0.30594817 -0.22375232 158 188 92
0.52434951 0.30593330 -0.22424744 159 189 89
0.56600255 0.29886052 -0.21079321 117 158 36
0.58262664 0.30099297 -0.21219099 143 170 77
0.55472398 0.30568597 -0.21262844 145 177 76
0.53924191 0.30604950 -0.21588853 147 175 88
0.52136940 0.30366409 -0.22454967 127 157 59
0.53396451 0.30449167 -0.21843237 116 146 58
0.49632767 0.29848039 -0.24499282 95 123 49
0.54948664 0.29567781 -0.21062614 141 138 107
0.51209271 0.30227384 -0.23021670 127 156 63
0.48329341 0.30400985 -0.26573044 112 119 52
0.54708815 0.30468386 -0.21421209 149 177 93
0.50566608 0.30206770 -0.23466326 114 145 52
0.52998704 0.31119615 -0.22210717 136 178 50
0.52949393 0.30224812 -0.21891285 120 148 64
0.50665820 0.30718768 -0.23525165 132 161 17
0.50750726 0.30149356 -0.23286949 128 162 68
0.49919841 0.29975581 -0.24179007 77 105 30
0.53229982 0.31036529 -0.21885502 149 180 51
0.53059316 0.30708647 -0.22025566 140 172 73
0.53808391 0.30784118 -0.21714635 118 154 6
0.57975626 0.30321896 -0.21083650 150 175 91
0.49416214 0.30305853 -0.25003025 125 148 70
0.54208332 0.29714051 -0.21589407 125 127 90
0.54592484 0.29808164 -0.21028681 78 108 18
0.53388560 0.31121296 -0.22032468 125 151 2
0.53829396 0.31075540 -0.21647814 132 161 0
0.53971440 0.31103778 -0.21582539 143 174 11
0.56586277 0.30186781 -0.21102045 143 179 79
0.49927598 0.30293566 -0.24388021 96 124 37
0.51641095 0.30595490 -0.22832400 156 185 93
0.56878471 0.30533823 -0.21020687 149 180 63
0.75800675 0.33069846 -0.24007915 75 113 38
0.73469013 0.31889564 -0.24069270 107 147 50
0.75752693 0.33322585 -0.23993270 107 139 63
0.76338136 0.34062731 -0.24409378 96 119 37
0.75773561 0.33341977 -0.23873156 80 114 40
0.73468083 0.32341680 -0.23914410 109 151 51
0.74677843 0.32581437 -0.23898278 123 165 79
0.62222940 0.30161282 -0.22648446 80 106 7
0.62689638 0.30514115 -0.22891119 150 176 14
0.58552843 0.29868597 -0.21348526 122 154 55
0.60134453 0.30626419 -0.21518099 166 189 57
0.58895600 0.30292228 -0.21316996 85 121 11
0.61179382 0.29871434 -0.21999393 101 133 8
0.61185831 0.29415107 -0.21945485 106 135 25
0.59179950 0.29979080 -0.21453270 126 166 18
0.63519460 0.29664505 -0.23463412 138 170 35
0.62684405 0.29544985 -0.23002432 135 171 45
0.61000407 0.30356032 -0.21904521 131 162 24
0.58532387 0.30583259 -0.21141027 138 163 33
0.58620447 0.30347183 -0.21181740 152 176 88
0.60453081 0.29899418 -0.21544737 136 165 59
0.62961316 0.29833788 -0.23100832 147 180 27
0.60989040 0.29329520 -0.21913005 99 137 28
0.60418540 0.29976511 -0.21731804 107 140 7
0.60271019 0.30360261 -0.21655194 120 155 11
0.61607522 0.29433531 -0.22338121 107 135 25
0.59294128 0.30246270 -0.21440576 98 131 24
0.61069250 0.29870829 -0.21952887 102 133 6
0.61996478 0.29709467 -0.22476712 118 150 13
0.62018555 0.30625963 -0.22297873 163 185 24
0.61732221 0.30734426 -0.22008193 101 125 13
0.58986419 0.30002007 -0.21387970 144 176 75
0.61592567 0.29863286 -0.22229135 114 143 17
0.63132471 0.29809466 -0.23175518 125 160 42
0.61011910 0.30514067 -0.21817210 170 187 21
0.61571157 0.30762887 -0.21894240 103 126 9
0.59582603 0.30639336 -0.21568295 165 195 21
0.58694845 0.29951140 -0.21364051 131 164 60
0.62866372 0.29748034 -0.23061748 134 166 7
0.61968493 0.29525742 -0.22617526 104 135 6
0.63677812 0.29756221 -0.29222512 78 99 30
0.56077766 0.30244198 -0.21218745 102 144 8
0.51653326 0.30158111 -0.22875965 106 135 17
0.53029639 0.30563027 -0.22351100 80 103 15
0.56483012 0.30477810 -0.21206871 102 142 19
0.53598070 0.30347440 -0.21871556 109 140 23
0.56333631 0.30396712 -0.21237887 114 150 40
0.55165809 0.30447632 -0.21310897 96 134 15
0.57062727 0.30447802 -0.21133515 126 161 43
0.54151446 0.30520040 -0.21624313 79 112 0
0.54373330 0.31024507 -0.21461049 121 152 0
0.57085198 0.30570534 -0.21000864 139 172 19
0.56525117 0.29915330 -0.21113800 98 144 0
0.56928265 0.30212566 -0.21201184 111 156 14
0.51609296 0.30222949 -0.22905864 88 118 0
0.56726670 0.29717040 -0.21109925 115 165 8
0.51473945 0.30616301 -0.23156287 126 157 4
0.52592295 0.30219918 -0.22463371 74 100 1
0.52050370 0.29943720 -0.22648908 84 110 11
0.55223334 0.30254740 -0.21299334 88 134 2
0.51933235 0.29975465 -0.22751735 89 115 16
0.52025503 0.29912025 -0.22639568 75 101 4
0.51774544 0.29921487 -0.22783644 90 116 9
0.57791084 0.29782113 -0.21373740 146 186 37
0.51712340 0.30179876 -0.22622190 142 171 78
0.52995586 0.30211666 -0.22214296 83 112 4
0.58212352 0.29835710 -0.21410868 122 165 13
0.54952705 0.30675259 -0.21366455 123 166 14
0.51448035 0.29947701 -0.22953437 112 140 19
0.63228965 0.30024114 -0.28992698 80 102 37
0.50768942 0.30143562 -0.23502718 98 126 13
0.48679715 0.30316195 -0.26287442 99 116 38
0.49448502 0.30441210 -0.25098023 89 116 23
0.48743096 0.30116841 -0.26359108 93 112 33
0.49206194 0.30492714 -0.25463095 84 109 28
0.48864642 0.29886216 -0.26080999 87 103 32
0.50515360 0.29987073 -0.23686641 78 108 12
0.49236697 0.30465078 -0.25405890 69 93 15
0.48797914 0.30466220 -0.25784564 110 133 55
0.48453030 0.30419925 -0.26591486 141 151 80
0.73078859 0.31776002 -0.24114357 114 156 48
0.71432269 0.31281281 -0.24607429 111 147 49
0.72761804 0.31808621 -0.24106130 118 159 57
0.76744366 0.33602643 -0.24343204 92 123 47
0.74496061 0.32413968 -0.23949370 94 122 45
0.70424759 0.31199995 -0.25314888 130 151 56
0.76385272 0.33604878 -0.24230827 75 109 25
0.75431693 0.32818714 -0.23994516 86 123 46
0.75885963 0.33152118 -0.24075013 78 111 30
0.73991495 0.32702795 -0.23969762 109 144 42
0.72417831 0.32044503 -0.24230666 134 163 35
0.72954535 0.31822181 -0.24145177 81 117 19
0.73929995 0.32056540 -0.23931351 110 141 37
0.71723604 0.31627202 -0.24361375 119 157 54
0.74387854 0.32616532 -0.23791687 103 145 59
0.74662471 0.32710996 -0.23920445 98 132 37
0.70864564 0.31511790 -0.25128010 61 96 12
0.74266136 0.32852802 -0.23933795 113 140 47
0.72418320 0.32129148 -0.24016213 121 164 59
0.71880692 0.31855699 -0.24371657 159 193 83
0.76225001 0.33674368 -0.24212454 75 109 23
0.72419715 0.31248072 -0.24085039 153 192 73
0.72653168 0.31286857 -0.24121822 137 166 40
0.66454279 0.29745346 -0.23526797 180 185 65
0.66525078 0.29719132 -0.21967718 140 147 15
0.66359472 0.30337149 -0.23222148 110 129 3
0.68357944 0.31214386 -0.20390876 201 200 58
0.66099358 0.31000394 -0.22850806 145 151 3
0.66399485 0.30307198 -0.22747286 111 128 0
0.68058676 0.31299439 -0.20359224 162 173 34
0.66824287 0.31177634 -0.22655015 171 176 0
0.66363287 0.29980817 -0.23036771 149 161 23
0.66741276 0.31941926 -0.20836309 190 193 50
0.66885698 0.31381062 -0.19901481 181 184 67
0.66843122 0.29864621 -0.21216278 194 196 69
0.66439569 0.31638819 -0.20432781 159 157 34
0.66580909 0.30685014 -0.21703088 101 116 0
0.66021556 0.30548337 -0.23526786 171 183 45
0.66741508 0.31934702 -0.20417690 146 151 5
0.67176509 0.29941320 -0.22512823 161 159 38
0.66727382 0.31101045 -0.21869490 170 174 1
0.66382873 0.29798549 -0.22267736 140 146 0
0.66965753 0.30338213 -0.23805755 125 127 30
0.66629529 0.31200409 -0.21249197 168 169 6
0.67179662 0.29895234 -0.21577722 174 169 41
0.67270726 0.30437553 -0.22988841 147 145 36
0.67693853 0.30083346 -0.21473445 181 179 60
0.66981375 0.29866555 -0.21652517 153 153 19
0.67072171 0.32107112 -0.20185477 143 145 0
0.66209430 0.30442679 -0.23379593 109 122 4
0.66499352 0.30680624 -0.21283165 110 131 4
0.67667449 0.30805323 -0.20395932 174 180 28
0.67773247 0.31526911 -0.20045395 169 174 28
0.67870200 0.31462222 -0.20155220 143 154 15
0.66589016 0.31785408 -0.20029835 164 164 42
0.66708678 0.31637961 -0.19975175 152 154 31
0.66832930 0.29767966 -0.22812371 161 163 28
0.66679913 0.29853737 -0.23705989 164 166 69
0.66414726 0.30399624 -0.21095410 133 149 0
0.66400570 0.30571905 -0.20453857 138 148 0
0.66504574 0.29703757 -0.22537985 137 140 9
0.66486627 0.30502370 -0.21947607 113 128 3
0.67361009 0.31534836 -0.19722499 179 183 44
0.66417438 0.29755744 -0.23673281 142 152 17
0.66396540 0.30090135 -0.21455646 136 153 0
0.66630977 0.31204376 -0.21411183 177 180 11
0.66712260 0.31074753 -0.23169553 177 182 17
0.66266292 0.31181100 -0.22835539 204 206 47
0.66947526 0.31973219 -0.19550967 172 174 38
0.66567570 0.30612385 -0.22034003 92 105 0
0.67083097 0.30889446 -0.22996856 120 129 10
0.65930730 0.30652991 -0.23552969 143 152 0
0.66369945 0.29909328 -0.22193594 144 149 3
0.66523188 0.29931039 -0.20529297 171 179 41
0.66364962 0.29961708 -0.20682216 163 174 20
0.66485751 0.31616446 -0.21374629 149 159 2
0.61202329 0.29674655 -0.21882570 114 150 26
0.61265874 0.29859641 -0.21914305 114 150 42
0.61421311 0.29588425 -0.22118579 133 165 40
0.64367640 0.29893914 -0.24142508 98 121 13
0.61994833 0.29959571 -0.22455944 131 167 57
0.61076438 0.30564597 -0.21766318 179 209 75
0.60618907 0.30798277 -0.21707848 100 124 0
0.61297393 0.30102089 -0.22037598 131 166 64
0.60358971 0.30097321 -0.21609198 147 178 75
0.65129769 0.29841295 -0.25089431 125 148 32
0.64390194 0.30150899 -0.24185383 111 133 33
0.60955453 0.30265635 -0.21863218 142 172 84
0.63434702 0.30368438 -0.23327342 132 160 13
0.62562668 0.30100283 -0.22745587 110 142 45
0.63059384 0.30145657 -0.23064895 113 143 57
0.61673570 0.30293152 -0.22142735 144 174 84
0.61974353 0.30279872 -0.22333494 144 174 84
0.64001566 0.30098826 -0.23845088 102 129 16
0.62742978 0.30295852 -0.22809027 133 164 60
0.60719854 0.30780110 -0.21745716 189 205 34
0.63429880 0.30254036 -0.23284955 120 146 55
0.69697160 0.36430335 -0.13417815 133 131 70
0.68973058 0.34638855 -0.16355298 155 171 36
0.68576008 0.34165320 -0.17318957 166 181 4
0.69443065 0.34099257 -0.17286615 197 209 25
0.69426775 0.34326872 -0.16515394 144 148 51
0.70100433 0.34460601 -0.17970015 173 178 32
0.69342768 0.36277503 -0.13759443 114 125 0
0.69826239 0.34371766 -0.17826295 182 187 9
0.68543029 0.34843004 -0.16151634 146 163 7
0.69585478 0.34852418 -0.17236967 162 168 8
0.69517738 0.34616145 -0.17361668 146 161 0
0.69849938 0.34862924 -0.15877964 157 157 71
0.68605131 0.34813160 -0.15563957 121 141 8
0.69086850 0.35805914 -0.14525561 107 119 0
0.70271647 0.37920818 -0.13213283 186 205 35
0.70212954 0.34482789 -0.17854288 143 151 3
0.69749278 0.35971802 -0.13862468 123 130 53
0.68827993 0.35259271 -0.15177257 113 125 0
0.69126898 0.35729361 -0.14764579 142 150 2
0.69689173 0.33814001 -0.18052305 180 183 14
0.70096397 0.38462126 -0.13111231 137 164 21
0.68407887 0.34120682 -0.17625692 187 193 9
0.68541735 0.34591687 -0.17052190 174 184 10
0.70642751 0.37343967 -0.12884466 172 183 53
0.70007110 0.35669822 -0.16856691 121 135 0
0.70456481 0.39441994 -0.11056737 105 131 40
0.69985080 0.37240812 -0.14236356 140 172 29
0.69078767 0.35089540 -0.14886028 142 134 85
0.70284152 0.37346658 -0.13053720 112 132 7
0.70051402 0.36046353 -0.16096759 154 161 29
0.69880319 0.36898777 -0.14973375 118 137 11
0.69917333 0.38146430 -0.13591164 182 192 33
0.69784546 0.36919352 -0.13777287 120 139 13
0.70414031 0.38245633 -0.12924060 123 146 12
0.69985211 0.35936502 -0.15743458 116 138 12
0.70088106 0.37657207 -0.13338700 153 176 42
0.70290232 0.34779024 -0.16592915 173 174 46
0.69981205 0.36199251 -0.15567787 126 150 28
0.68589997 0.34620729 -0.16639529 148 167 0
0.69808650 0.34161752 -0.16626403 140 148 26
0.69199508 0.34829786 -0.15422641 136 128 107
0.70419574 0.37852535 -0.12995918 122 143 2
0.69602656 0.38507414 -0.13488413 108 131 15
0.69993991 0.36151537 -0.16208190 122 143 6
0.69043201 0.34690377 -0.16165216 137 153 2
0.70158684 0.36837840 -0.14353146 194 202 21
0.70790792 0.39433932 -0.10979135 121 147 37
0.69099307 0.35914505 -0.13932110 193 198 118
0.69927418 0.36898747 -0.13333400 126 148 14
0.69965094 0.35899499 -0.16617347 113 125 0
0.69989151 0.36509836 -0.13499349 154 163 48
0.68774408 0.34761775 -0.15881546 140 163 11
0.70355237 0.36764571 -0.13908991 162 183 30
0.70593798 0.37924057 -0.12676866 129 151 8
0.70074010 0.36678141 -0.14872800 120 148 3
0.70318919 0.35292071 -0.16938235 120 126 0
0.69933861 0.35108829 -0.15783927 180 187 83
0.69490486 0.34673992 -0.15538272 145 147 82
0.70690757 0.38921854 -0.12260151 144 173 31
0.69581103 0.36492568 -0.13894932 99 117 0
0.69936365 0.35824075 -0.15028562 152 164 26
0.70023674 0.36205661 -0.14882350 109 128 0
0.69609040 0.35191357 -0.14865430 127 132 66
0.70152962 0.34040719 -0.17268993 185 181 55
0.70070565 0.35562065 -0.15992139 135 147 11
0.70041943 0.35207412 -0.15984613 134 145 23
0.70055717 0.33976233 -0.17776501 152 160 15
0.70316708 0.39108250 -0.12292159 128 148 63
0.70180953 0.39079747 -0.12374746 122 141 59
0.68795854 0.34165603 -0.17360298 151 172 5
0.68711323 0.33910665 -0.17722192 132 150 6
0.68838412 0.33748245 -0.17950867 101 129 10
0.68965620 0.33247155 -0.18628636 163 171 0
0.69463217 0.33262914 -0.18348548 192 195 30
0.69898653 0.35856405 -0.14390413 148 157 50
0.69018412 0.33419052 -0.18306945 174 177 12
0.70414311 0.39437312 -0.11839054 131 156 64
0.70841175 0.39325699 -0.11409725 127 152 48
0.69836348 0.36211300 -0.16337821 165 174 21
0.70148641 0.35580161 -0.16297089 91 109 0
0.70436245 0.39738730 -0.11392852 141 164 73
0.69699460 0.35430461 -0.14460512 164 163 71
0.68632489 0.33509916 -0.18357064 148 169 16
0.70570725 0.38062915 -0.12829816 122 149 18
0.70252895 0.37853509 -0.13029487 135 160 33
0.70522451 0.37971839 -0.12636764 151 175 27
0.70035893 0.34007120 -0.17128739 148 152 41
0.69885933 0.34975424 -0.15814762 153 154 61
0.70954514 0.39900076 -0.10677002 115 134 44
0.70618099 0.38959944 -0.12123512 166 188 79
0.69062465 0.33725670 -0.17968073 163 175 7
0.68807858 0.33371878 -0.18543226 177 191 18
0.70102227 0.36598092 -0.14594677 199 208 29
0.70414311 0.37367916 -0.13455889 143 167 29
0.68646562 0.34035406 -0.17549084 163 181 1
0.70011032 0.37611982 -0.13842493 129 162 23
0.68323767 0.34080184 -0.17614932 172 181 4
0.70320338 0.36830840 -0.13285907 154 172 36
0.65271991 0.29941744 -0.25472048 102 127 33
0.65719259 0.30270594 -0.26269710 137 161 41
0.65261739 0.30066994 -0.25413176 93 118 27
0.65522820 0.29919341 -0.25786164 107 129 29
0.66684806 0.29823440 -0.26252711 197 201 107
0.66384554 0.29553801 -0.27880421 152 154 55
0.66897410 0.30353859 -0.24098980 124 124 28
0.67217773 0.30636811 -0.23410463 140 141 37
0.66632229 0.29716089 -0.26662719 115 126 24
0.66308510 0.29891607 -0.27462167 102 119 5
0.66271585 0.30815327 -0.24089178 176 177 21
0.66497111 0.29990250 -0.24525666 138 142 21
0.66329980 0.30181637 -0.26736894 71 90 0
0.66479820 0.29627645 -0.26888469 130 140 43
0.65258938 0.29680473 -0.25321662 132 156 34
0.65615588 0.30343112 -0.25793454 93 120 23
0.65864891 0.29706654 -0.25589418 128 136 33
0.66966599 0.30752093 -0.24194367 101 110 1
0.66085774 0.30246326 -0.24664536 155 159 22
0.66564274 0.30539614 -0.24795765 107 115 0
0.66701788 0.29939637 -0.25514147 129 131 30
0.66711068 0.30143398 -0.24382029 118 116 15
0.65918583 0.30487943 -0.23749503 139 147 0
0.66786844 0.30187392 -0.25367466 143 147 52
0.66847527 0.30243030 -0.24895075 124 128 33
0.66387963 0.29641405 -0.26312685 174 176 66
0.66449201 0.30126119 -0.26444989 128 139 34
0.66489720 0.30436492 -0.25127554 115 120 0
0.67204618 0.30782071 -0.23084073 142 145 38
0.66798145 0.30566433 -0.24789715 104 114 0
0.66073990 0.30227089 -0.25962484 116 136 13
0.65958768 0.30390656 -0.24026997 144 153 0
0.66359490 0.29571536 -0.28313702 147 154 48
0.66131395 0.30052772 -0.24709536 141 149 2
0.66328174 0.30840242 -0.24127001 176 177 21
0.66225761 0.29695290 -0.27218720 153 160 56
0.66055918 0.29887533 -0.26825315 121 137 15
0.66213906 0.29617149 -0.26767176 141 146 54
0.68752122 0.34885210 -0.16415505 128 143 0
0.68796843 0.34615108 -0.16783717 119 137 1
0.69542670 0.35272858 -0.16789798 93 109 0
0.69952863 0.39667580 -0.11244363 197 207 120
0.69494587 0.36936995 -0.14774437 73 89 1
0.69585592 0.36826125 -0.14444859 127 141 18
0.69602627 0.37196687 -0.14445640 106 128 28
0.70135236 0.35468191 -0.17329298 141 147 39
0.69289571 0.35220799 -0.16515134 86 105 0
0.69190174 0.34615240 -0.17093298 94 113 0
0.69456333 0.37823069 -0.14444020 104 117 0
0.69031113 0.35152280 -0.15806164 132 145 3
0.69157511 0.35078093 -0.16441935 88 107 0
0.69407666 0.36205894 -0.15549333 71 88 0
0.69400430 0.36315927 -0.15299986 103 128 24
0.69372213 0.36817953 -0.16355914 105 113 0
0.70122117 0.39240426 -0.11461394 120 147 52
0.69411111 0.37353832 -0.15172139 138 152 15
0.70149797 0.38955495 -0.12132326 114 144 44
0.69444537 0.36132813 -0.15928178 120 129 4
0.70092666 0.39907631 -0.11048368 152 163 67
0.70229703 0.34805518 -0.17746066 157 162 8
0.69901502 0.35776827 -0.17090435 155 153 76
0.69558364 0.37338594 -0.14950867 153 174 17
0.69508922 0.38474554 -0.13566653 163 174 36
0.69851428 0.37187505 -0.13830154 133 154 17
0.69539130 0.36998630 -0.15542965 187 197 22
0.69690108 0.35054651 -0.17234907 121 130 3
0.69765800 0.35020790 -0.17357226 123 129 0
0.69467676 0.36585012 -0.16031106 148 157 14
0.69388080 0.37151250 -0.15442085 138 155 15
0.69366288 0.36241689 -0.14516345 106 124 2
0.69353700 0.36091620 -0.15353976 100 115 0
0.69105184 0.35438719 -0.15563403 115 132 0
0.69182634 0.35807112 -0.14831276 102 116 5
0.70079339 0.38730770 -0.12549146 118 144 35
0.69557172 0.36314529 -0.16841364 75 84 1
0.69621658 0.36209843 -0.17058358 84 94 7
0.69633037 0.35400480 -0.16975436 146 151 7
0.69704938 0.38066119 -0.13738361 110 133 19
0.69736189 0.38176468 -0.13578109 105 127 16
0.70003068 0.35192037 -0.17760876 101 109 8
0.69952363 0.38010663 -0.13442929 137 160 56
0.70100653 0.39311180 -0.11586854 98 121 13
0.69753820 0.38544929 -0.13134587 147 160 29
0.69414043 0.38079548 -0.14391446 211 219 38
0.69597870 0.37783539 -0.14572622 199 215 21
0.69317698 0.37755483 -0.15161127 116 137 0
0.67146271 0.30181882 -0.28318340 105 121 46
0.66768533 0.29603463 -0.27333155 130 141 49
0.66270268 0.29504010 -0.29633006 133 153 32
0.69290650 0.30793291 -0.26204729 131 160 42
0.69315308 0.30645770 -0.26138052 118 137 71
0.66690946 0.29342139 -0.29505980 107 128 53
0.70123875 0.31025431 -0.25316459 113 145 60
0.68418676 0.30361533 -0.26742160 112 141 49
0.67403114 0.30026814 -0.28064206 116 130 53
0.66916651 0.29738605 -0.28468460 127 144 50
0.66872436 0.29390681 -0.29148194 129 140 82
0.66849011 0.29461908 -0.29383978 130 141 85
0.69547373 0.30751634 -0.25665352 87 116 23
0.70629257 0.31099313 -0.25093213 116 145 79
0.69450849 0.30338663 -0.25658676 79 110 6
0.67970210 0.30132839 -0.27278671 122 140 64
0.66589791 0.29907504 -0.29285067 112 120 63
0.68281317 0.30537257 -0.26833829 100 130 34
0.68984985 0.30503026 -0.26114583 88 116 16
0.68328053 0.30788091 -0.26720127 96 123 18
0.67819673 0.30435747 -0.27381471 118 145 42
0.67732638 0.30063784 -0.27651194 134 146 80
0.68374032 0.30226871 -0.26947695 82 106 30
0.69620347 0.30882934 -0.25691727 109 137 53
0.68648279 0.30058405 -0.26766303 96 127 24
0.70640856 0.30774319 -0.25034159 131 167 43
0.66352242 0.29392195 -0.28709930 143 148 46
0.66587168 0.29422772 -0.28424138 133 140 44
0.70430166 0.30795267 -0.25084701 119 161 51
0.66387987 0.29830554 -0.29432312 110 129 50
0.66435146 0.29770917 -0.29880762 117 131 54
0.70424449 0.31033051 -0.25120348 98 134 46
0.69768041 0.30700108 -0.25685167 101 123 74
0.67374396 0.29846820 -0.28187147 111 129 53
0.67193705 0.30167821 -0.28174576 111 121 50
0.67107964 0.29821229 -0.28117532 113 130 52
0.66694802 0.29798549 -0.28121132 77 95 0
0.66863769 0.29724041 -0.29668957 91 101 32
0.69642651 0.31010583 -0.25668985 94 123 17
0.69741970 0.31019238 -0.25628147 120 147 40
0.66803646 0.29666036 -0.27745092 88 101 11
0.66832900 0.29630619 -0.27663529 88 101 11
0.67798918 0.30187234 -0.27298450 120 148 64
0.67288566 0.29795653 -0.27838093 107 132 30
0.68692517 0.30807132 -0.26540884 184 205 128
