-0.14361943 0.16272785 -0.14346637 148 158 27
-0.18959051 0.15399525 -0.09980305 10 0 84
-0.17552876 0.13693616 -0.09024514 171 161 46
-0.17401172 0.13430721 -0.09154110 151 151 41
-0.16357253 0.11350325 -0.08839318 226 213 83
-0.13195735 0.14857383 -0.16240411 75 104 24
-0.13210255 0.14852105 -0.16222300 75 104 24
-0.20818450 0.14517924 -0.07901900 160 181 86
-0.21128204 0.14091574 -0.08336093 198 224 29
-0.22545728 0.11682529 -0.06557535 153 176 46
-0.14091684 0.16431114 -0.15940389 128 148 33
-0.14158328 0.16359349 -0.15313748 140 157 42
-0.13999893 0.16436020 -0.16400211 134 156 45
-0.14003226 0.16328952 -0.15924618 112 135 29
-0.13054118 0.16127133 -0.17260033 84 101 31
-0.13223153 0.16320765 -0.17625947 163 166 121
-0.13278539 0.16224453 -0.17302385 143 153 100
-0.12512732 0.16319518 -0.18343554 174 178 128
-0.12897597 0.15961920 -0.16960296 137 149 87
-0.17250164 0.14152293 -0.09626903 216 198 70
-0.17329732 0.13968657 -0.09421217 175 163 45
-0.18573841 0.14227512 -0.08909959 59 81 68
-0.16206145 0.12612034 -0.09135893 183 176 59
-0.15920845 0.11788145 -0.08725192 195 187 62
-0.17914528 0.14085338 -0.08810129 160 147 94
-0.23742275 0.11185650 -0.05404176 128 158 26
-0.16524848 0.14677405 -0.10438296 189 178 28
-0.15981886 0.15093942 -0.10822386 158 157 17
-0.14361382 0.16127439 -0.17030565 108 122 35
-0.14881554 0.15666741 -0.12165885 149 158 31
-0.14784889 0.15780352 -0.12319206 124 139 20
-0.17058788 0.14703715 -0.10193331 226 207 68
-0.15416740 0.15140983 -0.11364645 167 165 20
-0.15411997 0.15217470 -0.11386509 113 123 11
-0.17863154 0.15150359 -0.09669745 70 87 115
-0.15049903 0.16529441 -0.11738750 112 132 43
-0.15053932 0.16650471 -0.11822208 148 167 75
-0.16924214 0.14567220 -0.10213314 197 185 39
-0.16765679 0.14644906 -0.10306516 185 178 36
-0.14053075 0.15220445 -0.13849042 129 139 86
-0.13815941 0.15346977 -0.14386742 122 138 65
-0.21006869 0.14104392 -0.07822306 195 215 102
-0.19393054 0.11872339 -0.07959256 158 174 76
-0.19046335 0.12200364 -0.08203952 164 175 83
-0.19968221 0.11712727 -0.07626074 160 174 77
-0.24236977 0.11282393 -0.06128072 135 161 28
-0.22900821 0.12250067 -0.06709236 135 171 61
-0.15696101 0.16489853 -0.11623561 169 174 80
-0.20148882 0.14779472 -0.08260372 174 168 144
-0.17374580 0.15177694 -0.10088932 85 105 93
-0.14349739 0.15725458 -0.13567193 131 140 15
-0.14396659 0.15600455 -0.13420685 155 168 36
-0.15402134 0.13053486 -0.10189965 171 175 55
-0.16575143 0.13804981 -0.10023891 159 156 85
-0.16950418 0.13730225 -0.09705223 140 138 51
-0.16941895 0.14062062 -0.09938397 148 145 38
-0.15719968 0.11864895 -0.09015662 144 156 94
-0.13185872 0.15895538 -0.16227502 102 122 50
-0.13504167 0.15320358 -0.15187250 124 141 71
-0.13748670 0.15424421 -0.14616813 131 147 76
-0.13514802 0.15166265 -0.14941981 105 128 48
-0.13657355 0.15590060 -0.15211600 110 128 54
-0.21021698 0.13036671 -0.07808683 195 207 37
-0.14626403 0.16662608 -0.14388207 139 151 17
-0.14523302 0.16368441 -0.13822390 144 154 21
-0.20504622 0.12936367 -0.07632012 218 217 41
-0.20706990 0.12603742 -0.07684533 183 193 32
-0.20475355 0.12233723 -0.07451889 203 208 46
-0.21665271 0.12680228 -0.07745386 172 202 44
-0.15225872 0.15632585 -0.11455628 142 146 26
-0.18844686 0.14717674 -0.09142323 104 106 163
-0.14730535 0.16038199 -0.16375871 100 122 0
-0.14796235 0.15827434 -0.15994059 161 189 9
-0.14151491 0.15679668 -0.16819784 106 133 26
-0.14258826 0.15928450 -0.17123121 64 95 0
-0.15008253 0.15041654 -0.12096067 105 119 21
-0.15139325 0.15142286 -0.11808652 163 168 40
-0.13715258 0.16292442 -0.16984271 144 152 103
-0.13111669 0.16011654 -0.16810058 111 127 56
-0.13429341 0.15955557 -0.16033661 100 124 46
-0.20798960 0.12028938 -0.07354309 197 200 33
-0.21517645 0.11920019 -0.07280884 202 209 31
-0.21877582 0.12215422 -0.07506653 168 186 40
-0.13507979 0.14935461 -0.14915091 129 150 45
-0.14229943 0.14218384 -0.14276128 91 113 2
-0.14326048 0.14119954 -0.13930002 116 131 12
-0.21269928 0.12911241 -0.07880352 186 204 34
-0.21179424 0.14139266 -0.08107945 157 177 43
-0.16509777 0.12474821 -0.09040075 192 189 56
-0.16771735 0.11977673 -0.08850031 216 210 50
-0.16047619 0.13199018 -0.09774456 187 187 67
-0.15748428 0.13308407 -0.10015131 187 187 73
-0.16597369 0.13469765 -0.09712747 165 168 79
-0.15904251 0.13728431 -0.10376550 157 160 81
-0.16951241 0.13355963 -0.09391057 169 163 87
-0.16638419 0.13426910 -0.09647472 166 170 75
-0.21028410 0.14091755 -0.08552434 181 207 36
-0.17904066 0.14337178 -0.09028507 71 92 73
-0.15193431 0.12229113 -0.09389097 129 145 36
-0.23346329 0.11182416 -0.05719724 138 167 48
-0.22781746 0.11535676 -0.06258667 165 194 42
-0.18769398 0.14378168 -0.08968605 69 89 80
-0.15121809 0.15419628 -0.15343587 135 160 0
-0.15394810 0.11864802 -0.10299051 168 171 90
-0.15388794 0.11847188 -0.10092618 158 156 79
-0.14802313 0.16595164 -0.12912433 69 87 0
-0.14984222 0.15197742 -0.15444623 111 134 0
-0.14794834 0.15278606 -0.15736470 109 135 0
-0.19856894 0.12795162 -0.07617957 189 186 23
-0.19344458 0.13287950 -0.08191315 184 187 20
-0.14732082 0.16245809 -0.16266292 120 134 21
-0.15442713 0.12630247 -0.09525602 172 177 59
-0.15544383 0.13021469 -0.09823105 185 187 64
-0.11780726 0.15457468 -0.18315646 96 121 27
-0.12087688 0.15769933 -0.17926022 195 205 155
-0.11707911 0.15458478 -0.18454489 97 118 23
-0.11674913 0.15706921 -0.18670626 83 105 23
-0.15297194 0.12762041 -0.09908549 152 161 44
-0.14185879 0.14648294 -0.15894388 63 102 19
-0.24755597 0.10307670 -0.06415609 148 162 23
-0.33803871 0.03485027 -0.12185914 85 113 26
-0.22316328 0.09112632 -0.06597921 199 213 14
-0.22925855 0.09215914 -0.06624073 172 199 56
-0.33034244 0.03163537 -0.11053558 111 135 47
-0.33038789 0.03516567 -0.10877667 112 144 17
-0.29858324 0.06097671 -0.09611569 93 131 10
-0.24649386 0.10011484 -0.06653682 155 177 4
-0.27750972 0.07288685 -0.07492171 91 120 2
-0.27463749 0.07433051 -0.07305770 94 119 15
-0.23825993 0.09733614 -0.05945705 166 182 0
-0.23880485 0.09435704 -0.06008648 194 202 3
-0.34157389 0.02865992 -0.12053575 110 141 4
-0.29756016 0.06813406 -0.09112024 116 119 40
-0.25840694 0.09550616 -0.06721005 108 144 46
-0.25340497 0.07697036 -0.06666938 153 177 81
-0.26488778 0.09170966 -0.07504633 49 76 0
-0.29402974 0.06403118 -0.08291481 123 152 36
-0.25653327 0.09957194 -0.06645320 135 166 36
-0.26013929 0.09172788 -0.06744505 97 129 32
-0.32655087 0.05100819 -0.10798471 125 147 20
-0.26117089 0.09544501 -0.07213248 111 132 27
-0.25051376 0.09232300 -0.06075370 155 180 27
-0.26188776 0.08475244 -0.06599919 181 197 39
-0.25499582 0.08021093 -0.06535376 137 157 68
-0.25282174 0.08396259 -0.06373977 152 173 18
-0.25604782 0.09348396 -0.06439959 112 143 49
-0.22610162 0.10616698 -0.06453809 188 201 59
-0.26190674 0.08714467 -0.06637769 131 156 26
-0.26934430 0.08031090 -0.07093581 106 134 15
-0.24611136 0.10904969 -0.05854792 117 150 9
-0.29780909 0.06642365 -0.09287760 155 174 33
-0.23578711 0.08313725 -0.06530902 188 204 33
-0.23075038 0.08329953 -0.06688193 217 229 43
-0.29034474 0.06309614 -0.09527434 92 130 11
-0.29713485 0.05935975 -0.09769076 119 157 20
-0.32798165 0.04822115 -0.11050844 112 139 24
-0.32665682 0.05142134 -0.10738733 118 146 23
-0.25873402 0.09201157 -0.06574613 114 139 38
-0.31101859 0.06037033 -0.09176312 111 136 8
-0.24631679 0.08809644 -0.06203069 153 176 23
-0.24734463 0.08782329 -0.06186784 149 170 17
-0.24908824 0.07582156 -0.06511750 190 206 58
-0.30855697 0.05863504 -0.09719583 118 136 36
-0.30715156 0.06276478 -0.09080964 138 158 35
-0.30564100 0.06148115 -0.09389203 105 118 39
-0.31422278 0.05459987 -0.10100511 113 133 18
-0.24398360 0.07625353 -0.06440298 174 192 22
-0.23810214 0.10107969 -0.05717735 139 159 2
-0.24015075 0.09663399 -0.05791212 198 204 8
-0.31723371 0.05493568 -0.10108539 113 138 11
-0.31730059 0.05137939 -0.10522699 63 98 0
-0.24568683 0.09684339 -0.05746523 151 179 34
-0.24066898 0.10143442 -0.05461966 127 160 11
-0.24535145 0.11063835 -0.05694921 94 130 4
-0.25565466 0.06714170 -0.06946262 119 133 19
-0.25878087 0.06834857 -0.07028399 128 144 9
-0.25454056 0.06778514 -0.06879451 140 153 22
-0.32911876 0.04552335 -0.10716730 77 107 11
-0.33059147 0.04283788 -0.11231572 106 135 25
-0.33957416 0.03298201 -0.12011893 86 115 25
-0.33395341 0.03714260 -0.11369490 71 101 11
-0.24905296 0.10221472 -0.05756483 74 120 12
-0.27052897 0.08307856 -0.08019629 75 106 3
-0.24835068 0.06768984 -0.06779612 107 133 10
-0.24684030 0.06572945 -0.07124118 121 144 27
-0.26438940 0.08939374 -0.07181519 96 123 44
-0.24563222 0.09226397 -0.05831700 182 197 10
-0.32799071 0.03971141 -0.10479926 128 160 37
-0.28963381 0.06884270 -0.08722164 133 160 47
-0.32749704 0.04948252 -0.10625271 74 109 9
-0.27178165 0.08072633 -0.07791739 79 109 13
-0.27186951 0.07850780 -0.07435034 138 167 41
-0.22812803 0.10138924 -0.06525642 167 187 54
-0.24448897 0.10816853 -0.05420041 64 94 0
-0.24623592 0.10256319 -0.05655099 72 114 12
-0.29119146 0.06638283 -0.08540297 116 143 36
-0.28721884 0.06690089 -0.08246800 111 139 26
-0.23997706 0.08898932 -0.06571911 203 217 142
-0.24307302 0.08825131 -0.06404179 146 164 62
-0.24382134 0.08039782 -0.06488702 163 187 51
-0.28637335 0.07261918 -0.08988171 137 139 74
-0.21734154 0.08853751 -0.06591647 142 164 0
-0.27289364 0.07657341 -0.07249417 88 111 3
-0.27897558 0.07289621 -0.08178791 107 138 45
-0.23796965 0.08946255 -0.06609318 160 182 84
-0.24288541 0.08471736 -0.06584280 136 157 62
-0.32628334 0.03471413 -0.10590894 126 154 43
-0.26330575 0.09007990 -0.07702248 83 113 1
-0.29714364 0.06803883 -0.09219386 183 205 32
-0.27047956 0.07016200 -0.07106408 131 152 77
-0.26236069 0.07369981 -0.06891856 209 221 157
-0.25838080 0.07765790 -0.06655350 188 199 133
-0.25873145 0.07726230 -0.06686731 194 207 138
-0.25789812 0.07620253 -0.06703153 177 185 125
-0.26546359 0.08953167 -0.07720130 72 98 7
-0.30170763 0.06566861 -0.09060867 98 118 31
-0.26861650 0.08356767 -0.07394254 93 121 34
-0.24333663 0.11333638 -0.05714352 106 139 9
-0.27622837 0.07628939 -0.08162234 57 90 0
-0.32302019 0.04768605 -0.10970283 75 106 2
-0.21695140 0.10112884 -0.06798150 173 201 54
-0.21882088 0.09982377 -0.06764862 181 208 53
-0.22934401 0.09781793 -0.06585106 161 182 91
-0.22502542 0.09927273 -0.06679347 174 192 110
-0.22417545 0.10404261 -0.06576736 155 176 55
-0.23659691 0.10536117 -0.05586258 177 196 10
-0.22965235 0.11152644 -0.06216500 149 172 38
-0.32274535 0.05549229 -0.10044225 162 170 59
-0.28410161 0.07312330 -0.08757714 107 137 25
-0.25238088 0.10173593 -0.06572110 209 222 44
-0.33442530 0.03276165 -0.11325940 105 135 13
-0.29962069 0.06321715 -0.08592988 108 136 36
-0.29818794 0.06489806 -0.08812520 122 153 49
-0.20263278 -0.03245045 0.00470728 140 167 34
-0.19800100 -0.02798527 -0.00774207 105 153 5
-0.19787472 -0.02707630 -0.00741135 134 189 8
-0.21906108 -0.02865330 0.01379362 141 172 6
-0.25178525 -0.02107089 0.01222518 168 192 82
-0.24345739 -0.02544567 0.01570322 192 207 88
-0.12434173 -0.04483005 -0.05679009 151 185 36
-0.23861060 -0.01270983 0.00664441 138 184 0
-0.24324256 -0.01365981 0.00489632 122 177 0
-0.28820246 0.00618826 0.00538029 246 251 73
-0.28980672 0.00804090 0.00529754 216 220 35
-0.23342769 -0.01295667 0.00765194 145 183 0
-0.25568834 -0.01365213 -0.00300883 105 154 0
-0.25342909 -0.00966841 -0.00008620 150 191 3
-0.11937163 -0.05162467 -0.05750683 91 130 11
-0.23476477 -0.01694395 0.00787076 117 159 0
-0.24960034 -0.00645484 0.00342750 144 185 0
-0.25197381 -0.00583080 0.00207820 186 207 4
-0.18398194 -0.02806782 -0.00322872 155 181 54
-0.25938803 -0.02142767 -0.00531484 37 83 10
-0.20003913 -0.03587590 -0.00865148 85 133 0
-0.24638867 -0.01039925 0.00403001 176 211 3
-0.27679929 0.00674562 -0.00043183 189 205 10
-0.28111380 0.00694845 -0.00205169 176 187 0
-0.26112810 -0.02250647 0.00572074 142 166 42
-0.26715705 -0.02056966 0.00367648 134 160 37
-0.11247721 -0.05095810 -0.06269804 96 131 29
-0.11863833 -0.04821393 -0.06079946 143 183 35
-0.12478830 -0.04144524 -0.05498416 178 204 68
-0.31919703 -0.00358057 -0.02551280 164 188 90
-0.31393203 -0.00954770 -0.01893019 159 189 65
-0.31790712 -0.00748455 -0.02316989 166 185 78
-0.20120510 -0.03563948 -0.00458292 75 122 0
-0.14511383 -0.03538658 -0.04136477 158 178 107
-0.27483922 0.01277124 0.00208547 189 207 1
-0.24270944 -0.01909986 0.01240939 187 207 92
-0.23964867 -0.01975074 0.01303296 175 197 88
-0.24125233 -0.01508049 0.01099288 166 188 106
-0.23251906 -0.02147136 0.01456640 139 163 67
-0.23597997 -0.02626770 0.01649446 168 199 0
-0.24340190 -0.01294652 0.00985825 179 196 116
-0.23226565 -0.01365023 0.00907415 163 188 107
-0.23270260 -0.01831337 0.01241554 155 179 83
-0.28342676 0.01548187 0.00689685 178 185 20
-0.28228015 0.01468929 0.00440203 179 195 10
-0.11708288 -0.04939522 -0.06190619 128 167 40
-0.30351150 0.01352282 -0.03389357 130 153 1
-0.28046870 0.01207686 0.00089547 156 174 0
-0.29802260 0.00629265 -0.00157678 170 177 0
-0.29838115 0.01102726 -0.00039419 187 199 3
-0.30321866 0.01055204 -0.00804401 204 207 14
-0.23511119 -0.02667658 0.01788890 178 197 89
-0.23615663 -0.02685807 0.01762177 181 201 90
-0.16721392 -0.03812138 -0.02673629 89 132 14
-0.16668829 -0.03871744 -0.02345498 47 88 0
-0.30606383 0.01571237 -0.02288397 93 122 38
-0.29914591 0.01580530 -0.01195563 136 153 25
-0.20222171 -0.02232132 0.00089379 135 177 31
-0.21461087 -0.02485535 0.00931863 99 145 0
-0.21826541 -0.02736097 0.01058233 143 185 0
-0.22837983 -0.02379438 0.01618963 162 186 74
-0.27552974 0.00904209 0.00837790 246 245 43
-0.28030580 0.01478158 0.00974384 240 244 43
-0.27846336 0.01295147 0.00925388 233 245 23
-0.29874656 0.00279427 -0.00318814 178 189 9
-0.30384842 0.00502544 -0.00845374 219 219 25
-0.30178636 0.00955460 -0.02075251 143 156 0
-0.25363547 -0.01403193 -0.00173249 101 147 0
-0.30430257 0.01855302 -0.02958054 90 115 49
-0.23744370 -0.01796428 0.00809209 131 180 1
-0.24369393 -0.02411079 0.00898005 142 184 0
-0.22451980 -0.01748072 0.00989186 140 187 9
-0.21503548 -0.02053618 0.00883163 114 163 0
-0.28937149 0.00967773 -0.00370095 174 184 9
-0.24998303 -0.02296467 -0.00008564 131 175 0
-0.30057189 0.01652633 -0.01824213 176 197 104
-0.21627717 -0.02231749 0.01115179 128 158 60
-0.22599536 -0.01618786 0.00975034 164 187 105
-0.18880981 -0.03439311 -0.00357130 120 152 29
-0.18951266 -0.03346083 -0.00248374 127 156 38
-0.29584968 0.01552796 -0.00507628 177 192 11
-0.29676512 0.01392632 -0.00109140 173 184 0
-0.24339327 -0.02766967 0.01595758 160 180 95
-0.29174826 -0.00637956 -0.00375185 158 177 52
-0.28994194 -0.00368550 -0.00031501 173 196 43
-0.24708010 -0.02216838 0.00235095 131 175 0
-0.24404682 -0.02846896 0.01200774 159 196 4
-0.25535703 -0.01840964 0.01040991 176 193 61
-0.25421241 -0.01881451 0.01079922 165 183 61
-0.30492222 0.01814369 -0.02450951 86 127 49
-0.29604715 0.00871229 -0.01317945 175 186 0
-0.30263644 0.01381545 -0.03300699 141 165 9
-0.15421577 -0.03224146 -0.03535920 142 157 90
-0.23776340 -0.00873704 0.00670818 141 180 3
-0.23612763 -0.01021435 0.00699628 161 197 1
-0.23292811 -0.01159028 0.00760017 176 209 14
-0.18767779 -0.03233108 -0.01569544 86 130 0
-0.30210486 0.01270147 -0.00794558 222 219 16
-0.29963824 0.01752692 -0.00968146 136 158 32
-0.15244558 -0.04170776 -0.02668387 77 112 0
-0.23737803 -0.02959537 0.01831993 194 215 120
-0.18953912 -0.03685158 -0.01152455 28 65 0
-0.19539198 -0.03787503 -0.00715636 64 99 19
-0.26143077 -0.00802259 0.00658293 193 211 67
-0.26420069 -0.00938763 0.00598233 165 187 78
-0.23988947 -0.03100770 0.01582268 169 197 1
-0.19726984 -0.03006773 0.00286592 131 158 65
-0.19709253 -0.02681684 0.00257055 143 173 77
-0.18197159 -0.03684543 -0.01372386 38 75 0
-0.17669654 -0.03771416 -0.01306436 78 106 19
-0.16128203 -0.02984318 -0.01364588 191 214 61
-0.16085891 -0.02996853 -0.01370870 175 200 36
-0.12024023 -0.04583324 -0.05328301 99 135 48
-0.12634329 -0.04191673 -0.04745951 93 132 25
-0.30959600 0.01379002 -0.02475041 170 181 3
-0.31323430 0.00916488 -0.02310540 193 207 24
-0.17026256 -0.03389129 -0.01153267 123 151 38
-0.17068620 -0.03341694 -0.01094369 129 157 36
-0.16579914 -0.03731677 -0.02910387 70 111 7
-0.16022648 -0.03749339 -0.03300203 31 66 0
-0.17275763 -0.03252831 -0.00915513 116 147 20
-0.17329600 -0.03625795 -0.01281488 83 111 8
-0.19978683 -0.03795625 -0.00635985 40 78 0
-0.20151167 -0.03776806 -0.00516874 73 112 3
-0.25400665 -0.02999802 0.00451119 79 108 24
-0.15731435 -0.03591837 -0.01672826 127 159 14
-0.15500748 -0.03555774 -0.01662564 142 171 17
-0.22288308 -0.01565164 0.00827086 140 179 0
-0.21481135 -0.01810116 0.00538769 160 192 3
-0.26834556 0.00731013 0.00721068 232 235 20
-0.26629528 0.00283255 0.00824744 219 225 53
-0.25537419 -0.00483089 0.00802544 208 214 16
-0.26284891 -0.00330488 0.00733106 233 236 31
-0.19691648 -0.03632198 -0.01092537 38 77 0
-0.19557384 -0.03532364 -0.01169685 30 75 0
-0.30434796 0.01196965 -0.02692956 176 196 19
-0.25023577 -0.03068076 0.00887929 100 126 35
-0.31101692 0.01277361 -0.02421399 159 168 0
-0.30588415 0.01222795 -0.01484422 177 186 5
-0.29949546 0.01291410 -0.01997840 146 164 2
-0.23133311 -0.02447145 0.01613134 141 184 17
-0.21252149 -0.01964230 0.00617195 88 130 0
-0.22101766 -0.03031206 0.01467290 123 159 0
-0.22197139 -0.03251140 0.01532556 172 210 9
-0.30466950 0.01515908 -0.01777627 178 175 0
-0.20450118 -0.03504002 0.00285178 91 134 3
-0.30429605 0.01698972 -0.02018154 85 150 84
-0.31210667 0.01353001 -0.03169664 126 136 1
-0.17172444 -0.03774792 -0.01982921 63 101 0
-0.17113884 -0.03782183 -0.02017562 73 114 12
-0.25426430 -0.02645665 -0.00064316 43 85 1
-0.25461575 -0.02566681 -0.00129579 45 87 1
-0.25930429 -0.02472956 0.00567784 104 129 28
-0.16909668 -0.03835702 -0.01672722 78 112 2
-0.16233124 -0.03789987 -0.01809454 97 129 4
-0.31348187 0.00356212 -0.01866427 218 222 37
-0.31617483 0.00765702 -0.02640751 190 196 38
-0.31698859 0.00338169 -0.02399284 214 221 43
-0.31574059 0.00220465 -0.02102593 199 207 36
-0.15026762 -0.04291222 -0.02943856 72 110 0
-0.29116163 0.01346046 0.00481157 190 200 17
-0.31286234 0.01914002 -0.04581979 157 173 14
-0.31112102 0.01710430 -0.04100871 135 158 18
-0.25454673 -0.02970830 0.00426033 69 96 15
-0.26020658 -0.02417374 -0.00448621 56 94 9
-0.21374746 -0.02822645 0.00917002 168 204 6
-0.20374511 -0.02742080 0.00485855 119 172 6
-0.13840243 -0.04371188 -0.04423670 103 147 32
-0.20527232 -0.02395945 0.00443698 129 180 13
-0.20456275 -0.02223225 0.00307734 88 137 0
-0.22034413 -0.02945438 0.01386999 157 197 13
-0.22170784 -0.02766852 0.01355502 141 187 18
-0.31252459 0.00274278 -0.01731968 213 218 37
-0.31505167 0.00025041 -0.02105813 164 189 23
-0.27475360 0.00245233 0.00811429 220 230 45
-0.27414095 0.00288374 0.00831424 195 204 49
-0.14477956 -0.04215449 -0.04059314 49 91 0
-0.22326399 -0.01334715 0.00620117 124 160 0
-0.23273350 -0.03376839 0.01842343 106 141 0
-0.30116281 0.01752297 -0.02771466 98 112 59
-0.28846675 -0.00138362 0.00147517 217 228 40
-0.28503734 -0.00394808 0.00147852 176 186 71
-0.27862701 -0.00242125 0.00431349 217 219 30
-0.28747156 0.00245523 0.00420037 229 233 48
-0.28383654 -0.00007276 0.00388812 205 216 62
-0.27394420 -0.00256331 0.00596330 205 218 40
-0.31272238 0.01231872 -0.04303211 174 187 9
-0.31920439 0.01112798 -0.04473284 176 185 8
-0.12889013 -0.03872889 -0.04987704 143 161 39
-0.14734477 -0.04363090 -0.03098948 74 109 7
-0.18284959 -0.03526762 -0.00733486 103 130 27
-0.18011682 -0.03553263 -0.00896739 96 128 21
-0.14905827 -0.03961777 -0.02074821 121 151 19
-0.15479982 -0.03870642 -0.01973632 128 162 5
-0.15175475 -0.04215065 -0.03116561 57 95 0
-0.30198789 0.01921629 -0.02627288 83 108 50
-0.23491460 -0.01881901 0.00925079 128 173 0
-0.23522213 -0.02048532 0.01131746 133 177 4
-0.26814452 -0.01492390 0.00441344 199 218 100
-0.26201510 -0.01663794 0.00732118 200 222 85
-0.11096361 -0.05091902 -0.06791162 104 140 8
-0.27047542 0.01097911 0.00429941 143 158 7
-0.12652367 -0.04754974 -0.05281444 97 142 0
-0.13291784 -0.04390387 -0.05021319 64 105 0
-0.27223414 0.01169156 0.00452925 161 178 14
-0.27965102 0.01502670 0.00638603 207 220 42
-0.20352557 -0.03027104 0.00451646 117 166 0
-0.14379635 -0.04051251 -0.04353584 118 157 38
-0.14317781 -0.03398622 -0.04268790 131 144 91
-0.28219873 0.00879934 0.00884318 248 255 18
-0.28703830 0.01293470 0.00792122 220 241 14
-0.13188079 -0.03619541 -0.05011521 115 128 49
-0.12910536 -0.03835290 -0.05225138 125 128 47
-0.27498850 0.00975567 0.00180736 204 217 6
-0.31408367 0.01684696 -0.04836294 168 188 0
-0.18192028 -0.03047933 -0.01875845 95 127 16
-0.17774658 -0.02942853 -0.02118241 74 89 34
-0.24838898 -0.02812071 0.00550104 66 103 0
-0.15203342 -0.04110713 -0.03329515 86 125 32
-0.15864378 -0.03976321 -0.03085241 39 74 0
-0.15961345 -0.04017508 -0.02901939 39 78 0
-0.14108557 -0.04447062 -0.03983593 46 88 0
-0.30739251 0.00241522 -0.01191698 217 220 27
-0.30208516 0.00185245 -0.00643585 207 216 35
-0.22643459 -0.03287404 0.02007270 116 140 0
-0.22227976 -0.02258523 0.01286899 152 183 45
-0.21886550 -0.02806682 0.01343164 146 174 27
-0.19937851 -0.03304799 0.00272116 138 165 36
-0.19943506 -0.03542908 0.00116317 106 135 16
-0.21376230 -0.03045094 0.00952223 96 149 0
-0.30249587 0.01611199 -0.03726316 174 176 93
-0.18867040 -0.02834644 -0.00149694 131 161 61
-0.31135061 0.01512741 -0.03632239 119 138 20
-0.30422616 0.01979957 -0.03426619 100 122 39
-0.20943679 -0.02493812 0.00868148 121 153 46
-0.20048632 -0.02647182 0.00431440 135 162 69
-0.15355691 -0.03516001 -0.03797143 80 100 13
-0.30127522 -0.00445241 -0.00936437 156 172 47
-0.29850081 -0.00350930 -0.00622470 185 206 53
-0.22370374 -0.03444744 0.01732464 92 145 1
-0.22402486 -0.03583752 0.01681649 122 167 2
-0.24326430 -0.03061303 0.01508477 155 180 60
-0.14863515 -0.03337148 -0.03808347 111 124 55
-0.30402482 0.01900457 -0.03714486 119 144 40
-0.30855459 0.01825227 -0.03757416 133 154 37
-0.24299403 -0.01614621 0.00464352 147 188 8
-0.24140863 -0.01578354 0.00549704 138 184 0
-0.29312626 0.01309198 -0.00475982 195 202 0
-0.29300204 0.01388096 -0.00452571 196 203 0
-0.19666536 -0.03014447 -0.00982995 100 146 0
-0.16456716 0.14199620 -0.12114981 104 128 6
-0.15248130 0.13446134 -0.10925744 142 145 32
-0.21927471 0.08078558 -0.07113505 167 185 23
-0.16826954 0.16008292 -0.12051583 180 180 34
-0.16949940 0.15461776 -0.12145685 140 172 1
-0.17189087 0.15435463 -0.12090105 160 188 7
-0.20767143 0.12396336 -0.08192728 236 253 14
-0.16293429 0.16090599 -0.12432608 206 212 40
-0.17452884 0.12705055 -0.09225592 127 158 0
-0.17981966 0.12366740 -0.08829134 123 159 1
-0.17625774 0.12322943 -0.08929735 199 213 2
-0.21563831 0.13529269 -0.08025426 141 170 44
-0.17846370 0.14954913 -0.10793288 171 204 13
-0.15411550 0.13274309 -0.11597241 154 180 21
-0.15410356 0.13270421 -0.11602686 154 180 21
-0.19314162 0.13421568 -0.09453373 142 185 7
-0.20286360 0.09457762 -0.06891549 224 225 35
-0.18665197 0.12312362 -0.08591295 82 124 0
-0.29659721 0.06135909 -0.08223025 158 187 59
-0.29456055 0.06071807 -0.08124113 152 180 43
-0.38730848 -0.00076306 -0.19716942 96 115 51
-0.38404834 -0.00304590 -0.19123857 105 116 37
-0.38792011 -0.00038465 -0.18997501 98 116 30
-0.21466723 0.08959821 -0.06565828 170 189 20
-0.38319048 -0.00362475 -0.19345057 63 76 6
-0.16469817 0.14772943 -0.12179352 168 185 0
-0.16300963 0.15208030 -0.12260976 140 155 0
-0.38330880 -0.00794099 -0.15338108 49 65 2
-0.38705772 -0.00772939 -0.15444294 51 63 13
-0.38656729 -0.00886358 -0.15092966 46 60 7
-0.38642862 -0.00671167 -0.15747660 61 71 19
-0.38478103 0.00862404 -0.20923014 141 170 78
-0.38681024 0.00611696 -0.20668116 133 162 72
-0.24472369 0.09064806 -0.07392962 218 226 5
-0.37608543 0.01451144 -0.18275644 103 121 9
-0.16919923 0.13347760 -0.09983669 63 106 0
-0.16957521 0.13060850 -0.09700957 146 184 19
-0.37744528 0.01000996 -0.19833197 156 175 109
-0.37755585 0.00991538 -0.19862054 152 172 103
-0.19036408 0.14322002 -0.10040215 88 126 0
-0.36726946 0.01677522 -0.16927215 143 171 0
-0.21505509 0.08543017 -0.06833803 154 188 16
-0.36705768 0.01151479 -0.17588466 126 144 24
-0.35755172 0.00754150 -0.15358278 58 86 2
-0.35747471 0.00756329 -0.15531626 58 84 10
-0.18683822 0.11152129 -0.08519752 154 168 0
-0.37263933 0.01591629 -0.17527346 144 170 8
-0.19331998 0.14251298 -0.09992028 92 136 1
-0.37038377 0.01562944 -0.17314614 141 165 0
-0.34500062 0.01152037 -0.14348616 96 124 1
-0.34683451 0.01023566 -0.15076371 86 109 1
-0.32716176 0.04110640 -0.12111108 92 126 16
-0.36701611 0.00753477 -0.17790549 97 113 24
-0.37631443 0.00587871 -0.19829237 113 132 53
-0.30066791 0.05065206 -0.09833936 129 161 18
-0.30121991 0.04526080 -0.10038678 133 149 14
-0.24305126 0.07808594 -0.07364486 134 168 9
-0.35563484 0.01834444 -0.14710288 102 124 16
-0.35582769 0.01851251 -0.14671540 102 124 16
-0.38493249 -0.00284075 -0.16812062 70 83 27
-0.38495052 -0.00533474 -0.16144946 59 72 18
-0.38240513 -0.00301208 -0.16694666 71 81 31
-0.15877494 0.15361153 -0.13256031 128 148 0
-0.37556145 -0.00550814 -0.14779782 71 80 13
-0.37346858 -0.00341555 -0.14636472 79 84 2
-0.38138881 -0.01137250 -0.14246823 48 59 1
-0.37989426 -0.00976082 -0.14734060 80 90 29
-0.38597894 -0.01038417 -0.14620526 45 60 3
-0.17327258 0.14938414 -0.11882059 160 192 0
-0.37708718 -0.00766535 -0.14682852 97 108 30
-0.37674016 -0.01203127 -0.13580531 41 50 0
-0.37176481 -0.00020284 -0.15098915 99 107 32
-0.37256533 -0.00160012 -0.14966926 92 100 17
-0.36966029 0.00449929 -0.14808591 114 123 16
-0.18072253 0.13516383 -0.09471936 168 177 10
-0.34011349 0.02314521 -0.13387470 36 60 0
-0.16316114 0.13625985 -0.10646648 52 97 2
-0.16717719 0.13716263 -0.10499854 91 126 10
-0.37135532 0.00348692 -0.15448098 138 147 68
-0.36910173 0.00166362 -0.18509664 116 138 38
-0.37177706 0.00438608 -0.18869068 71 87 12
-0.18600428 0.13583994 -0.09472977 203 212 0
-0.34501356 0.01099781 -0.13575159 110 135 15
-0.33797345 0.01400094 -0.13630982 118 138 25
-0.19678183 0.13544042 -0.09484161 96 125 0
-0.21452960 0.08538094 -0.07102134 144 152 4
-0.38527426 0.01201053 -0.18933257 151 172 71
-0.38329297 0.01288065 -0.18758835 167 187 90
-0.19680172 0.14335595 -0.10233530 203 229 32
-0.26969984 0.07007718 -0.08896430 111 143 10
-0.19762808 0.09842692 -0.07807551 126 147 0
-0.20348907 0.10146946 -0.07689506 194 214 19
-0.22254491 0.09864973 -0.06776778 105 144 0
-0.22352046 0.09929346 -0.06808691 100 135 5
-0.18831289 0.12567794 -0.08773702 154 176 5
-0.21580283 0.09449050 -0.06601150 214 224 29
-0.17516145 0.13220412 -0.09513773 98 129 9
-0.28829670 0.05269562 -0.09236241 155 175 16
-0.14354256 0.14472930 -0.13188079 129 143 55
-0.20546603 0.09371084 -0.07101264 219 233 24
-0.35944062 0.01565862 -0.16069899 85 106 1
-0.19853693 0.12742442 -0.09095166 171 201 25
-0.34920004 0.02867804 -0.12805042 101 132 0
-0.16812582 0.13835952 -0.10607544 130 162 0
-0.15727188 0.13599317 -0.12943682 84 123 14
-0.20166048 0.13606240 -0.09567562 66 108 0
-0.23417331 0.08055631 -0.07183466 211 211 15
-0.22775899 0.10526215 -0.06983820 196 207 0
-0.34360787 0.02531699 -0.12887941 98 121 15
-0.34736669 0.01601026 -0.13819349 63 92 0
-0.15198851 0.12521166 -0.10877188 92 106 9
-0.32069501 0.04520078 -0.11204039 91 124 7
-0.32646963 0.03383115 -0.12073337 122 146 6
-0.16443969 0.11529367 -0.09802784 85 119 0
-0.15793060 0.15800756 -0.13482152 117 127 0
-0.33437529 0.02165792 -0.12902986 57 84 17
-0.30706313 0.05348434 -0.10271451 77 101 15
-0.38095647 -0.00255033 -0.17359802 93 104 48
-0.38729367 -0.00328303 -0.17183904 68 79 10
-0.34789222 0.02078473 -0.13614684 45 73 0
-0.20405635 0.09617045 -0.06364555 199 223 39
-0.36107242 0.02124112 -0.14611267 70 103 0
-0.23109375 0.09874005 -0.06839163 189 197 0
-0.27518901 0.07025462 -0.08996557 72 109 6
-0.28152585 0.07050756 -0.09044447 117 129 47
-0.35087261 0.03060554 -0.12968959 98 126 16
-0.15521026 0.12876752 -0.10600290 152 185 6
-0.34783822 0.01201996 -0.14322074 79 108 0
-0.14913188 0.16754015 -0.12826742 117 133 44
-0.15577988 0.13542277 -0.10371923 158 164 68
-0.23246154 0.12175778 -0.06912437 84 111 6
-0.33705798 0.02569007 -0.11839096 65 89 5
-0.34015310 0.02074530 -0.12381449 100 126 16
-0.34036270 0.02421382 -0.12170811 64 89 0
-0.14459065 0.13973188 -0.13534814 116 130 9
-0.14630519 0.13790162 -0.13059123 95 111 2
-0.15281175 0.13094316 -0.12856302 59 88 4
-0.15082493 0.13010219 -0.11117056 131 143 33
-0.32272953 0.04261190 -0.11679025 75 107 0
-0.37333184 0.01512085 -0.17709742 130 153 1
-0.21263556 0.10000326 -0.07148580 187 207 21
-0.21355876 0.10490680 -0.07168172 151 185 13
-0.28668284 0.05307298 -0.07972252 157 184 67
-0.28867280 0.05791701 -0.07797266 127 146 65
-0.28077585 0.06232914 -0.07463233 170 188 112
-0.18366942 0.15014659 -0.10712767 131 161 3
-0.20688027 0.11467186 -0.07763098 214 228 8
-0.28174809 0.06221508 -0.09399787 155 178 25
-0.17229716 0.15684886 -0.11497818 141 152 48
-0.20275570 0.09870297 -0.06490140 169 185 37
-0.19424255 0.10433683 -0.07482887 181 184 17
-0.19734478 0.10005165 -0.07091673 160 178 16
-0.19679014 0.10050731 -0.07149047 153 176 24
-0.24711516 0.08810453 -0.07569939 176 195 7
-0.33824587 0.01455518 -0.13395329 89 113 17
-0.19132094 0.10778429 -0.07852378 191 189 19
-0.19200183 0.10756058 -0.07783069 189 188 18
-0.35525683 0.02849557 -0.13185276 136 164 45
-0.35987359 0.02321330 -0.14171030 66 97 0
-0.24201827 0.07973184 -0.07189602 112 146 7
-0.24376011 0.09052270 -0.07320318 222 230 0
-0.22603257 0.11692312 -0.07142384 120 162 0
-0.21147375 0.09302963 -0.07285868 232 238 14
-0.21142489 0.09179168 -0.07337084 212 226 17
-0.35810235 0.01981362 -0.14448702 88 119 0
-0.20736282 0.10411251 -0.07452122 160 184 8
-0.14220436 0.14829691 -0.13339455 116 129 57
-0.14720996 0.15033136 -0.12585624 101 118 48
-0.38806984 0.00509821 -0.20856796 121 153 68
-0.21312144 0.13334154 -0.07943853 136 171 71
-0.22611909 0.12080558 -0.07282693 80 124 0
-0.21134654 0.10745113 -0.07348334 84 124 0
-0.22693944 0.07253040 -0.07135207 78 97 0
-0.23377791 0.06921379 -0.06993047 81 87 0
-0.21488202 0.10852600 -0.07163224 137 168 2
-0.21500033 0.12474779 -0.07708642 167 199 4
-0.32294309 0.03898754 -0.09956341 105 142 3
-0.21579729 0.12332779 -0.07600858 133 173 0
-0.21902572 0.12955193 -0.07868264 111 167 0
-0.21015500 0.11514362 -0.07573904 231 240 9
-0.21761319 0.09199632 -0.06842083 197 209 11
-0.15711226 0.13307242 -0.13089631 106 135 7
-0.20747727 0.09520055 -0.07456227 188 202 1
-0.19695561 0.09725261 -0.07072291 143 163 4
-0.19579241 0.09903429 -0.07776979 147 169 6
-0.35589445 0.01550246 -0.15252237 69 92 1
-0.21041739 0.10144205 -0.07312948 130 157 0
-0.37051022 0.00702551 -0.14259084 172 177 75
-0.16335149 0.13982402 -0.11546132 127 160 9
-0.15255709 0.13150205 -0.10645603 162 168 60
-0.26397628 0.07241104 -0.08592878 105 122 0
-0.28798726 0.04884470 -0.09052516 73 98 0
-0.28594804 0.04746893 -0.09024985 134 161 4
-0.28988293 0.04101567 -0.09208972 170 196 9
-0.28944939 0.03687425 -0.09070047 131 163 36
-0.29327431 0.03093352 -0.08853936 136 164 64
-0.16256511 0.16339682 -0.12263814 83 96 16
-0.36886922 0.00745857 -0.15416802 88 90 50
-0.29693905 0.04977641 -0.09380350 147 173 4
-0.36908698 0.00239532 -0.16974550 68 94 23
-0.36372229 0.00930973 -0.15378085 76 100 12
-0.16616647 0.16055687 -0.11555470 172 175 36
-0.34024778 0.02610396 -0.12895460 64 84 0
-0.35998690 0.01315222 -0.14814672 83 107 9
-0.36893508 0.00460800 -0.16420306 72 96 22
-0.36938283 0.00410077 -0.16572845 64 88 12
-0.15812327 0.13694395 -0.11366642 76 116 1
-0.35920733 0.01070377 -0.15064594 96 118 17
-0.36157578 0.00809442 -0.15486033 81 104 14
-0.20772383 0.12189119 -0.08093458 169 176 0
-0.20896776 0.12233678 -0.07987311 173 189 0
-0.15203901 0.15029234 -0.15139279 87 119 0
-0.15817654 0.12404080 -0.10250630 103 136 0
-0.31297648 0.03336658 -0.09822529 99 129 29
-0.31258497 0.03306209 -0.09853569 85 115 19
-0.31719312 0.03206870 -0.11153457 106 143 11
-0.31631333 0.03612444 -0.11564816 138 163 17
-0.39712501 -0.00483437 -0.21328041 129 112 58
-0.39874089 -0.00726386 -0.21162011 103 107 46
-0.18201467 0.10988933 -0.08625697 149 159 34
-0.18717162 0.10831659 -0.08194589 183 187 32
-0.31157711 0.03218993 -0.10314285 56 90 0
-0.31392652 0.03129454 -0.10621233 67 101 7
-0.31076637 0.03572822 -0.10852680 63 92 0
-0.31151149 0.03289514 -0.10595382 44 74 0
-0.30880740 0.03798796 -0.10902876 79 103 7
-0.15763688 0.14987412 -0.13845529 161 174 7
-0.15723360 0.15098654 -0.14012240 158 174 6
-0.16384169 0.14444204 -0.12070364 187 216 36
-0.16283603 0.14398935 -0.12288674 166 186 13
-0.18837795 0.11595304 -0.08353510 188 215 12
-0.33684906 0.03173019 -0.12320652 74 107 2
-0.22274569 0.11408923 -0.07263833 184 221 20
-0.23027854 0.11408246 -0.06949472 165 193 12
-0.22948609 0.10491481 -0.06927719 207 216 11
-0.21938016 0.11323565 -0.07209735 210 220 1
-0.22698133 0.11296681 -0.07114493 136 176 2
-0.21743354 0.11023660 -0.07149964 233 245 15
-0.21878338 0.08117151 -0.06999537 168 186 4
-0.22941352 0.07227527 -0.06355875 235 248 54
-0.23274186 0.06984895 -0.06645112 142 155 13
-0.15486786 0.15333143 -0.14621837 128 143 0
-0.22563072 0.07680955 -0.06380724 177 203 34
-0.22755301 0.07935954 -0.06508707 170 199 23
-0.22790624 0.08282035 -0.06759027 154 184 8
-0.15700127 0.13597625 -0.11973864 60 109 0
-0.21461126 0.09403779 -0.06587292 243 242 40
-0.15591669 0.14583048 -0.14524932 95 117 0
-0.36931747 0.00208331 -0.17026959 66 92 21
-0.22428232 0.07500813 -0.06835089 228 238 27
-0.22022538 0.12321367 -0.07486624 175 214 11
-0.31512493 0.04013982 -0.11452784 167 193 10
-0.26719841 0.06543925 -0.07275201 130 151 20
-0.26558766 0.07037696 -0.07010918 151 168 100
-0.26055285 0.07308695 -0.06864834 148 164 76
-0.27800512 0.06334095 -0.07388039 150 170 101
-0.27149633 0.06160411 -0.07478210 83 111 0
-0.27194411 0.06231500 -0.07441257 106 135 7
-0.17341493 0.14006977 -0.10185109 200 215 8
-0.19263089 0.14525014 -0.10350129 153 181 18
-0.29768890 0.03404651 -0.09650184 78 103 1
-0.27851969 0.07480639 -0.08532273 68 101 0
-0.17295320 0.13732758 -0.10028204 209 228 22
-0.34451789 0.01545563 -0.13609304 86 114 1
-0.32362700 0.04940473 -0.09838668 85 111 38
-0.23720405 0.07117230 -0.06285363 177 199 52
-0.23789728 0.06926448 -0.06618445 145 164 20
-0.24035412 0.06653862 -0.07053175 138 150 22
-0.30698249 0.03449181 -0.09295127 80 105 11
-0.31584701 0.03582877 -0.09819707 121 150 58
-0.29248458 0.04754360 -0.08412647 154 188 52
-0.29420331 0.04805907 -0.08486890 147 178 59
-0.30038428 0.03769470 -0.08923368 147 181 71
-0.30032811 0.03825607 -0.08912754 148 180 69
-0.30646688 0.05730854 -0.08325270 147 177 63
-0.30336106 0.06108487 -0.08445467 146 180 59
-0.30059439 0.04986909 -0.08523853 121 144 54
-0.30276522 0.04970756 -0.08520561 122 150 37
-0.23876524 0.09075154 -0.06898021 173 191 7
-0.30754328 0.05365288 -0.08306681 173 204 66
-0.30482385 0.05205424 -0.08323002 139 172 21
-0.30416274 0.04413411 -0.09012462 97 125 41
-0.30192828 0.04430402 -0.08903649 107 137 37
-0.27614939 0.05476265 -0.08464798 59 89 0
-0.28351110 0.04555077 -0.08837090 93 125 0
-0.35088730 0.01523829 -0.13694499 91 116 15
-0.34808189 0.01678870 -0.13348153 94 119 17
-0.24922147 0.08108409 -0.07651309 212 213 11
-0.27539667 0.05402995 -0.08772534 50 82 0
-0.27453521 0.05457967 -0.08752520 46 79 0
-0.28594339 0.04226355 -0.08744419 121 157 23
-0.35260111 0.01277444 -0.14131473 90 114 16
-0.18981391 0.11308731 -0.08285386 149 172 0
-0.29012066 0.04473058 -0.08358644 121 152 25
-0.29138801 0.03597426 -0.08739874 130 171 41
-0.34533066 0.01748469 -0.13549146 58 82 4
-0.15884013 0.14865993 -0.13445532 113 127 0
-0.16509210 0.12820359 -0.09799849 181 208 9
-0.17044993 0.12674260 -0.09381826 180 206 11
-0.32083720 0.03844540 -0.11844011 92 124 0
-0.35107738 0.01217374 -0.15429431 72 97 5
-0.34501755 0.00980120 -0.14188603 94 121 6
-0.15892813 0.16511175 -0.13551541 135 146 5
-0.33577389 0.02167927 -0.12194160 83 106 15
-0.33712113 0.01532768 -0.13355236 95 116 21
-0.32151997 0.02853646 -0.11129384 42 72 2
-0.32445043 0.02814467 -0.11239153 57 82 14
-0.30790648 0.04892640 -0.10587307 83 112 6
-0.34266955 0.01757584 -0.12825227 109 132 26
-0.32514665 0.03233927 -0.10698204 92 109 39
-0.32061931 0.02918038 -0.10986505 69 98 16
-0.16722852 0.11804384 -0.09430514 203 224 5
-0.17342377 0.13346294 -0.09703232 119 153 15
-0.34038845 0.01770676 -0.12608151 98 121 17
-0.15967438 0.15437315 -0.12687267 149 168 0
-0.32023168 0.03067819 -0.10778745 77 101 23
-0.22058615 0.12900774 -0.07829145 123 157 44
-0.16897760 0.11938541 -0.09270581 121 150 0
-0.38696724 0.00315705 -0.17085865 115 130 37
-0.38842764 0.00036936 -0.16825069 129 146 68
-0.36884928 0.00009214 -0.18000215 73 96 16
-0.36924186 -0.00102629 -0.18238644 70 95 3
-0.16810116 0.16046338 -0.12186157 206 207 43
-0.38577309 0.00817521 -0.20201999 139 163 77
-0.17882782 0.15284686 -0.10967586 127 152 34
-0.19415966 0.10653626 -0.08112083 149 167 3
-0.31842953 0.04468033 -0.09280065 97 127 5
-0.38347086 -0.00334701 -0.19847928 58 77 13
-0.24092345 0.09690502 -0.07031672 80 118 0
-0.38012475 -0.00531200 -0.19436541 58 71 1
-0.20327680 0.11228019 -0.07774826 113 151 12
-0.19111249 0.12388809 -0.08656294 170 190 5
-0.20096563 0.11744068 -0.08193798 197 201 0
-0.37525570 -0.00525908 -0.18696275 97 122 28
-0.20520684 0.12430359 -0.08453489 156 186 0
-0.20263295 0.12395613 -0.08660413 180 212 7
-0.33677080 0.03606696 -0.12222231 102 130 27
-0.26450884 0.06153975 -0.08703496 90 119 11
-0.29330954 0.06037121 -0.09700514 78 105 8
-0.27717042 0.05688135 -0.09114068 76 94 8
-0.27817720 0.07649258 -0.08823013 66 92 1
-0.26709267 0.07444964 -0.08797795 84 111 18
-0.23008710 0.08955345 -0.06690777 145 176 0
-0.38455215 -0.00177511 -0.20695671 75 99 21
-0.26662830 0.07832084 -0.08631998 75 109 15
-0.27077776 0.06280358 -0.08926755 217 223 39
-0.26765797 0.07739685 -0.08652995 64 104 8
-0.37824732 -0.00011003 -0.19774985 63 80 10
-0.24171799 0.07234697 -0.07633191 184 195 7
-0.29148138 0.05525012 -0.09746122 154 186 17
-0.27154905 0.06044897 -0.09046640 114 123 4
-0.27257007 0.05879426 -0.09033226 82 105 17
-0.38910264 -0.00009867 -0.20600168 108 132 70
-0.15701254 0.14259671 -0.14322498 138 165 10
-0.37442607 0.00304061 -0.19153100 62 81 2
-0.36637208 0.00518390 -0.17636375 59 83 0
-0.25759426 0.09252343 -0.07529856 103 144 4
-0.25289595 0.07856388 -0.08207742 204 209 1
-0.25000766 0.08373975 -0.07918796 180 190 7
-0.37286460 0.00027949 -0.18971343 44 65 0
-0.37133554 -0.00401581 -0.18748337 94 115 12
-0.30015793 0.05587805 -0.09906278 125 154 26
-0.30059379 0.05617669 -0.09933089 128 156 35
-0.37217227 -0.00225608 -0.18194047 78 104 13
-0.37601516 -0.00289598 -0.18193485 84 106 23
-0.35202318 0.00880880 -0.15204434 61 83 0
-0.35135731 0.00878396 -0.15399319 93 114 13
-0.37978429 -0.00254805 -0.17558058 75 86 28
-0.24992134 0.08909010 -0.07602963 210 219 16
-0.37645212 -0.00210649 -0.17588434 84 100 29
-0.37321818 -0.00017400 -0.17146948 80 97 27
-0.20228814 0.11199779 -0.07297345 176 193 78
-0.19728330 0.11041560 -0.07544632 157 164 9
-0.25256857 0.09343257 -0.07388883 118 149 0
-0.23654689 0.10350360 -0.06599521 141 159 15
-0.23867045 0.08522128 -0.06951258 67 99 0
-0.23675995 0.08733681 -0.06865606 66 100 0
-0.26434192 0.06634951 -0.08508756 106 122 0
-0.24499135 0.08924770 -0.07411496 198 210 4
-0.26128879 0.08850303 -0.07867758 78 110 0
-0.29241383 0.04438459 -0.09200989 151 180 10
-0.36040440 0.00588613 -0.16661355 48 72 0
-0.36402166 0.00406638 -0.16868384 52 76 0
-0.36195332 0.00575448 -0.16289702 48 73 5
-0.36570859 0.00344573 -0.16802280 60 87 8
-0.25870612 0.07492755 -0.08464590 206 208 13
-0.33164009 0.04000881 -0.12101619 101 122 17
-0.23728862 0.09447336 -0.06943388 91 122 0
-0.16105442 0.13881940 -0.11193352 48 89 0
-0.16045506 0.13542014 -0.10751814 99 142 1
-0.23665689 0.08239186 -0.06993684 146 169 3
-0.23180723 0.10230139 -0.06827842 218 227 16
-0.35532579 0.02725860 -0.13161001 122 149 6
-0.25984931 0.07822116 -0.08649406 176 194 22
-0.35067132 0.00884508 -0.14542688 83 107 21
-0.24776062 0.06417152 -0.07461959 84 105 4
-0.23538747 0.07273726 -0.07523210 200 206 12
-0.17137729 0.15772006 -0.11821426 138 149 19
-0.22959511 0.10245884 -0.06893855 215 224 0
-0.24754019 0.07567038 -0.07564188 72 106 0
-0.22255586 0.08794403 -0.06738423 213 216 11
-0.26407129 0.06978031 -0.08405852 205 216 16
-0.19500378 0.11080377 -0.07980576 148 169 4
-0.38688576 0.00918901 -0.18417078 112 135 21
-0.38922307 0.00342103 -0.18779147 114 128 40
-0.18841131 0.15085189 -0.10586767 210 216 152
-0.22133319 0.09746882 -0.06734303 180 211 11
-0.16197760 0.14413892 -0.12768701 133 159 10
-0.32297316 0.02845159 -0.11540875 33 64 4
-0.32313102 0.03287096 -0.12004091 58 90 0
-0.28181520 0.05468506 -0.09170576 153 165 21
-0.37978089 0.01386007 -0.18476032 170 190 93
-0.38690799 0.01052895 -0.18591487 147 174 61
-0.39242172 -0.00180979 -0.21073340 129 112 69
-0.30268425 0.04322645 -0.10412804 69 92 1
-0.38744476 0.00541368 -0.20132993 131 156 73
-0.34621689 0.02494914 -0.12892646 100 128 5
-0.38572264 0.00497835 -0.17597739 133 148 43
-0.38942251 -0.00017639 -0.17968264 119 133 54
-0.38759938 0.00381986 -0.18395780 107 125 26
-0.26228353 0.06045873 -0.08582923 69 100 0
-0.38876793 0.00377032 -0.19299808 128 143 48
-0.37542787 0.01623375 -0.17783882 104 131 2
-0.38511103 0.00978142 -0.19858018 149 168 89
-0.29376936 0.03690388 -0.08637157 128 165 36
-0.29416183 0.03740811 -0.08645203 139 174 46
-0.38763607 -0.00094110 -0.18513574 78 95 15
-0.38837248 -0.00327756 -0.17171338 73 85 9
-0.33345863 0.02513272 -0.12786248 69 94 3
-0.14556876 0.14401679 -0.15410924 74 114 0
-0.31817478 0.04375620 -0.11329324 103 135 10
-0.31683454 0.04556090 -0.11090387 75 108 1
-0.15141726 0.12299017 -0.09391119 148 149 45
-0.19712061 0.10548186 -0.07944013 143 161 0
-0.17627527 0.15493767 -0.11026300 132 141 76
-0.14893551 0.13980278 -0.11896761 117 127 38
-0.14884514 0.14034821 -0.11950254 129 139 52
-0.15264294 0.14384718 -0.11585716 135 144 81
-0.15163323 0.14241859 -0.11683589 127 138 60
-0.15037929 0.14647359 -0.11997209 110 122 58
-0.21981825 0.10356843 -0.06985944 125 152 0
-0.22947738 0.07557750 -0.07340562 152 161 0
-0.19702718 0.12185347 -0.08574711 214 222 13
-0.15174158 0.12807283 -0.10658819 109 119 22
-0.30632654 0.04631715 -0.08802838 100 128 17
-0.30877241 0.04431091 -0.09069538 98 124 23
-0.25637594 0.06274339 -0.07844820 71 95 1
-0.24723244 0.06425966 -0.07380474 84 103 0
-0.18584302 0.11316303 -0.08495378 184 202 6
-0.20316677 0.11980630 -0.08357757 184 192 0
-0.32403517 0.03312666 -0.10537943 96 119 41
-0.26316279 0.06230003 -0.07845634 93 124 20
-0.31689844 0.03587930 -0.09873493 120 149 57
-0.19423425 0.10295613 -0.08075777 115 145 0
-0.33007073 0.03144265 -0.12405288 98 127 8
-0.21187113 0.10519735 -0.06942156 170 198 62
-0.20633970 0.11015697 -0.07161663 160 179 64
-0.21216962 0.09885969 -0.06728371 200 211 13
-0.26997492 0.05938267 -0.07670539 71 103 6
-0.27984938 0.05445619 -0.08049721 88 116 5
-0.20835824 0.13024162 -0.08703215 113 157 0
-0.16026610 0.14318550 -0.13425086 123 142 0
-0.14944866 0.13630247 -0.14073494 87 119 8
-0.15229833 0.13434854 -0.13863593 62 96 1
-0.37109679 0.00806041 -0.18472640 84 99 16
-0.17416699 0.11464883 -0.08927716 208 213 5
-0.15979420 0.16133502 -0.13045251 115 141 16
-0.28117308 0.05179625 -0.08307353 78 109 0
-0.28113282 0.05223862 -0.08259646 71 101 0
-0.15488225 0.13219860 -0.13192005 91 120 10
-0.15345784 0.14100975 -0.14892745 85 121 0
-0.15718786 0.13203718 -0.13223954 81 106 2
-0.28620920 0.06139536 -0.07617928 187 212 94
-0.28775135 0.06299362 -0.07870436 180 206 71
-0.14456524 0.14068356 -0.14709947 73 116 11
-0.15389939 0.13593046 -0.14251657 89 129 4
-0.27506226 0.07418893 -0.08787793 73 68 36
-0.29921225 0.04987190 -0.08518405 117 140 60
-0.29735610 0.04758671 -0.08633719 138 166 66
-0.29439834 0.05156581 -0.08275414 129 151 79
-0.16069956 0.13986847 -0.13405164 153 179 18
-0.17791271 0.15359662 -0.11063713 118 145 28
-0.17363584 0.15492652 -0.11676345 156 163 33
-0.31563589 0.05456194 -0.08527265 147 182 82
-0.32085744 0.05152381 -0.09289461 81 112 18
-0.15838012 0.16618535 -0.12560417 141 157 48
-0.15866031 0.15902340 -0.13234752 176 193 35
-0.18692546 0.13845733 -0.09614202 156 159 0
-0.19259176 0.10142083 -0.07992728 97 120 0
-0.21787623 0.11994641 -0.07359777 216 234 12
-0.28025359 0.05785272 -0.09204540 196 202 8
-0.24115272 0.08906215 -0.06992123 186 201 10
-0.32182035 0.04965707 -0.09496238 80 112 29
-0.15592898 0.16681322 -0.12244815 161 174 66
-0.31901354 0.04679680 -0.09179117 106 139 9
-0.26732376 0.08031161 -0.08488195 76 100 0
-0.20539038 0.10836760 -0.07576943 126 155 1
-0.31215072 0.05462437 -0.08372700 163 192 82
-0.15062514 0.13762867 -0.14524822 60 98 0
-0.26449385 0.06221586 -0.07850375 118 151 38
-0.35187450 0.01301565 -0.15030451 51 77 3
-0.20455866 0.10267437 -0.06786261 185 189 30
-0.32455409 0.05331436 -0.10045917 85 112 15
-0.18330231 0.15332727 -0.10750233 160 168 121
-0.17520438 0.14558114 -0.11010878 195 211 1
-0.32237008 0.04723200 -0.09633403 95 126 22
-0.20624839 0.12526925 -0.08430798 203 223 14
-0.21313141 0.13778754 -0.08156709 187 195 32
-0.15447488 0.12887967 -0.11007860 143 169 10
-0.29706094 0.03559266 -0.09581643 136 162 11
-0.15613899 0.13541180 -0.12207551 75 120 3
-0.35568726 0.02239895 -0.13621651 79 108 0
-0.21872297 0.09608106 -0.06768768 172 190 0
-0.29802769 0.04251877 -0.09491836 76 103 0
-0.29626420 0.04557979 -0.09298158 71 94 4
-0.30630779 0.04097521 -0.10807663 119 147 10
-0.16778795 0.15947154 -0.11405529 181 186 57
-0.20910968 0.14131097 -0.08759834 140 160 13
-0.17110930 0.11485374 -0.09221361 209 215 5
-0.16176891 0.12586319 -0.09996824 189 207 11
-0.20597622 0.14324719 -0.09313823 155 178 36
-0.32814988 0.03996543 -0.12208784 67 95 0
-0.18799029 0.14919518 -0.10566000 113 136 4
-0.18666624 0.12538271 -0.08782262 147 163 30
-0.35278061 0.02105742 -0.13808429 79 104 0
-0.20893791 0.13938941 -0.08965369 193 197 40
-0.20573492 0.14000747 -0.09455464 210 215 51
-0.20891677 0.13673556 -0.08933342 172 181 30
-0.22753274 0.08696586 -0.06727284 152 167 0
-0.33214721 0.02801705 -0.12616201 82 108 9
-0.33070096 0.02960474 -0.12572348 62 88 1
-0.17136668 0.11966474 -0.09099893 185 206 3
-0.27190632 0.05825722 -0.08302540 39 70 0
-0.17765182 0.11914650 -0.08746795 185 197 3
-0.24282314 0.09594309 -0.07115406 167 203 19
-0.30469665 0.04710080 -0.10425039 89 117 0
-0.17413056 0.14294235 -0.10523949 195 204 3
-0.17455283 0.14416155 -0.10707555 210 222 16
-0.31025463 0.04253166 -0.11058371 164 187 19
-0.23598710 0.07320771 -0.06227941 157 187 31
-0.23156680 0.07294516 -0.06085299 165 195 37
-0.23688738 0.07651541 -0.06345484 180 203 25
-0.15525667 0.13287814 -0.10942291 187 210 14
-0.25658196 0.06383731 -0.08244177 135 157 22
-0.29778993 0.04856531 -0.09420856 144 163 12
-0.34269524 0.01494469 -0.13628425 79 106 0
-0.37755421 -0.00375186 -0.16185670 106 112 48
-0.37683004 -0.00262427 -0.16291144 81 93 27
-0.18416125 0.10991835 -0.08774158 192 205 11
-0.38983089 0.00133274 -0.19225197 106 121 38
-0.32392073 0.04055749 -0.10065310 120 149 33
-0.23924616 0.11140461 -0.06474484 157 174 42
-0.23812784 0.10677182 -0.06542482 149 163 18
-0.19769658 0.15044950 -0.09620248 69 65 98
-0.31502220 0.05906498 -0.08532072 117 159 47
-0.23891844 0.10450735 -0.06559566 139 146 4
-0.17983350 0.11019472 -0.08840912 129 144 0
-0.18195608 0.14522243 -0.10322760 104 131 0
-0.15355931 0.13012971 -0.12594970 46 78 2
-0.35769987 0.01091958 -0.16405450 155 171 46
-0.35440207 0.01059068 -0.16056238 120 140 15
-0.34880710 0.03295179 -0.12909356 127 158 28
-0.36407670 0.00923838 -0.17331636 123 140 26
-0.35150447 0.01156118 -0.15816408 65 91 0
-0.33426020 0.02131431 -0.12412164 49 75 10
-0.14764570 0.13805605 -0.12527826 148 161 43
-0.34723824 0.01212887 -0.14173797 81 108 3
-0.37494817 0.00739594 -0.19422270 150 164 79
-0.37630185 0.01085928 -0.19020204 144 164 41
-0.19990408 0.14751545 -0.09864202 164 182 62
-0.15657072 0.14837588 -0.14178890 141 157 0
-0.23624997 0.11917847 -0.06665350 132 150 28
-0.31679723 0.05839610 -0.08831451 143 169 42
-0.34937283 0.00889320 -0.14559026 72 96 10
-0.23729882 0.06876591 -0.07246090 134 151 10
