-0.04083689 0.08161811 0.13858941 86 103 1
-0.04092428 0.08133864 0.13869511 90 102 4
-0.04072700 0.08166733 0.13931094 86 103 0
-0.04458702 0.07760538 0.15559769 115 129 8
-0.04488108 0.07745824 0.15623944 111 125 4
-0.04026861 0.08137102 0.14138150 80 94 0
-0.04009207 0.08123648 0.14220507 89 95 5
-0.04050637 0.08077479 0.14156093 84 98 3
-0.04055465 0.08120308 0.14068680 86 100 5
-0.03981392 0.08009066 0.14669874 76 88 4
-0.03970984 0.08075377 0.14443745 97 100 21
-0.03982721 0.07971176 0.14821027 108 117 36
-0.03982526 0.07973558 0.14812057 108 117 36
-0.04208064 0.07748986 0.15887260 90 107 5
-0.04142774 0.07764230 0.16037820 91 107 9
-0.04203719 0.07709079 0.16120955 89 105 7
-0.04245773 0.07890144 0.14854696 97 115 0
-0.04212613 0.07913391 0.14846164 101 115 1
-0.04284690 0.07863095 0.14858942 124 137 5
-0.04252674 0.07885381 0.14854605 105 121 0
-0.04279902 0.07873615 0.14681445 123 136 5
-0.04252981 0.07880848 0.14960952 99 116 1
-0.04058540 0.08038992 0.10533687 145 145 25
-0.04036595 0.08003549 0.10673164 144 143 27
-0.04001075 0.07991216 0.10716272 140 140 28
-0.03923985 0.07984538 0.10728360 116 121 18
-0.04915781 0.07902952 0.17872435 146 152 80
-0.04903684 0.07891084 0.17928584 141 143 70
-0.04804803 0.07598161 0.15264161 130 149 0
-0.04288119 0.07816976 0.13728900 100 112 0
-0.04263787 0.07838845 0.13842142 103 115 3
-0.04210665 0.07904208 0.13972774 101 110 1
-0.04248429 0.07871626 0.13788018 101 114 0
-0.04244184 0.07859279 0.13914748 104 114 0
-0.04631198 0.07670277 0.14829867 152 162 3
-0.04837390 0.07766873 0.16450195 116 126 4
-0.04874795 0.07777210 0.16401470 152 152 4
-0.04426393 0.07674215 0.16672823 119 129 60
-0.04400600 0.07661404 0.16670211 117 127 56
-0.04395194 0.07657699 0.16679725 119 129 58
-0.04339883 0.07658373 0.16561040 109 119 46
-0.04369482 0.07642256 0.16707920 119 129 58
-0.04969186 0.07869082 0.17058896 148 150 53
-0.04959311 0.07864819 0.17090228 153 153 55
-0.04977293 0.07877710 0.17105372 154 154 56
-0.04134507 0.07948557 0.15350391 99 119 4
-0.04821718 0.07798375 0.17243253 125 131 31
-0.04781926 0.07792311 0.16997404 144 142 29
-0.04795103 0.07793015 0.17215782 139 141 31
-0.04698852 0.07773206 0.17161135 108 113 21
-0.04383514 0.07719140 0.16071208 116 127 7
-0.04415016 0.07726760 0.15994586 109 119 4
-0.04466176 0.07742708 0.15979333 92 104 2
-0.04890955 0.07326475 0.14692280 105 130 2
-0.04822325 0.07781051 0.16726284 97 106 0
-0.04843417 0.07774081 0.16608754 108 117 0
-0.04866213 0.07793456 0.16750805 110 117 1
-0.04659047 0.07773784 0.16207749 123 130 0
-0.03991343 0.08104485 0.14570889 158 154 109
-0.03996565 0.08113346 0.14583513 154 151 106
-0.05096854 0.07926332 0.17282525 147 152 68
-0.05076727 0.07926696 0.17351647 138 145 65
-0.04874899 0.07645869 0.15639493 124 136 0
-0.04945458 0.07691603 0.15798411 107 121 0
-0.03881872 0.07891753 0.11032360 129 136 24
-0.03853613 0.07910931 0.10953427 125 133 24
-0.03833786 0.07903972 0.10968633 124 130 24
-0.03898943 0.07948596 0.10843444 120 122 21
-0.04037225 0.07674516 0.12038171 174 166 41
-0.03992004 0.07669971 0.11980049 154 152 43
-0.04027787 0.07669131 0.12067357 173 167 43
-0.04412403 0.07302366 0.13149624 166 153 51
-0.04385103 0.07439248 0.12973376 188 175 60
-0.04125591 0.08187464 0.09938436 131 131 17
-0.04121724 0.08169322 0.09989799 130 128 17
-0.04099499 0.08161277 0.10034764 133 131 18
-0.04039332 0.08185109 0.10037872 126 130 19
-0.04078652 0.08136116 0.10122749 140 139 23
-0.03915750 0.07681682 0.11708820 144 142 39
-0.03838642 0.07662393 0.11760730 132 131 23
-0.03841063 0.07663294 0.11756333 132 131 23
-0.04760646 0.07693733 0.15711646 131 140 0
-0.04749713 0.07702918 0.15732901 114 127 0
-0.04744360 0.07690360 0.15675041 120 131 0
-0.04605594 0.07751505 0.15822762 111 122 0
-0.04852998 0.07329310 0.14607933 103 128 0
-0.04807730 0.07342302 0.14437793 123 151 4
-0.04871977 0.07322868 0.14628133 122 143 4
-0.05035081 0.07899515 0.16916288 103 112 21
-0.04950491 0.07841815 0.16943517 155 155 45
-0.05102524 0.07354857 0.15449953 152 149 34
-0.05106111 0.07386517 0.15551633 139 141 18
-0.03788920 0.07906704 0.10946352 121 128 14
-0.03770580 0.07932466 0.10905544 129 133 20
-0.03765732 0.07988665 0.10796671 128 132 19
-0.04093214 0.07617716 0.12431989 133 137 16
-0.04088623 0.07677878 0.12313320 147 150 21
-0.04100168 0.07651465 0.12384405 138 142 19
-0.04098986 0.07621291 0.12436982 133 137 16
-0.03947680 0.08163536 0.10269283 121 129 17
-0.03904247 0.08193409 0.10307860 116 125 16
-0.03896374 0.08147307 0.10376737 124 132 20
-0.03952806 0.08190409 0.10228213 120 128 16
-0.03979509 0.08327988 0.09970992 108 115 11
-0.04068640 0.08306850 0.09782255 116 122 14
-0.04006340 0.08362064 0.09890306 106 113 10
-0.03926544 0.08344556 0.10080782 114 126 18
-0.04062005 0.08316315 0.09791646 114 120 14
-0.04582836 0.07766600 0.16701391 142 149 72
-0.04552151 0.07729787 0.16799346 114 121 54
-0.04886709 0.07617272 0.15559600 105 124 0
-0.04671067 0.07769705 0.16295061 128 132 0
-0.04909936 0.07601183 0.15378731 158 170 8
-0.04767050 0.07782170 0.16714476 132 134 1
-0.04733117 0.07783730 0.16692050 140 143 14
-0.04747534 0.07787758 0.16772972 140 142 19
-0.04815444 0.07774708 0.16666736 98 106 0
-0.04788480 0.07771505 0.16581306 120 128 6
-0.04773878 0.07152015 0.13993317 194 177 134
-0.04799860 0.07145943 0.14023833 181 162 122
-0.04721235 0.07179340 0.13867559 173 163 74
-0.04700068 0.07192025 0.13833350 169 164 60
-0.04671590 0.07206285 0.13835803 147 149 16
-0.04647016 0.07247717 0.13739941 163 157 43
-0.04686806 0.07225103 0.13745561 158 152 78
-0.04484356 0.07390734 0.13731730 149 152 11
-0.04478604 0.07408082 0.13743369 140 144 8
-0.04481238 0.07387631 0.13714246 151 154 11
-0.04509981 0.07349224 0.13747929 154 154 8
-0.04507931 0.07345518 0.13733266 152 152 6
-0.04523893 0.07249663 0.13574809 126 132 8
-0.04475268 0.07235274 0.13436726 147 148 21
-0.04523394 0.07255822 0.13596734 123 132 7
-0.04512125 0.07255664 0.13576487 124 132 10
-0.04389728 0.07258867 0.13374798 130 141 11
-0.04513439 0.07370140 0.13808957 156 155 11
-0.04478671 0.07485589 0.13939364 125 130 1
-0.04488062 0.07464658 0.13934156 117 126 0
-0.04492666 0.07410041 0.13801746 133 139 5
-0.04519878 0.07430147 0.14023083 126 133 3
-0.04473749 0.07454271 0.13818286 120 128 6
-0.04029199 0.08276686 0.09908529 112 119 15
-0.03981336 0.08146979 0.10229499 121 128 16
-0.03971276 0.08278531 0.10046002 112 121 14
-0.03984101 0.08301230 0.09979049 111 116 13
-0.03996145 0.08187959 0.10128849 116 125 16
-0.03963608 0.08187220 0.10208878 118 126 15
-0.03931884 0.08272562 0.10150910 110 118 15
-0.03957976 0.08248029 0.10126437 116 124 15
-0.04926300 0.07302218 0.14517643 149 153 40
-0.04343759 0.07351440 0.13322431 156 165 12
-0.04308550 0.07403187 0.13207541 162 172 15
-0.04330855 0.07412601 0.13290651 156 165 10
-0.04163184 0.07535382 0.12673970 152 152 18
-0.04168471 0.07571913 0.12577604 173 164 47
-0.04180244 0.07573290 0.12630583 174 165 44
-0.04326408 0.07674827 0.13375401 137 145 10
-0.04339626 0.07682409 0.13578129 130 136 4
-0.04338522 0.07615274 0.13366064 144 149 5
-0.04348051 0.07601339 0.13455294 149 151 8
-0.04328226 0.07639560 0.13296738 150 153 10
-0.04346312 0.07581358 0.13372914 158 160 14
-0.04349735 0.07588322 0.13440089 154 156 11
-0.04330826 0.07647587 0.13355790 138 142 3
-0.04410314 0.07281799 0.13234445 184 177 61
-0.04342995 0.07284532 0.13210021 127 138 10
-0.04114822 0.07907373 0.15671268 100 119 12
-0.04325826 0.07311365 0.13229692 135 147 13
-0.04317825 0.07356988 0.13222536 152 164 16
-0.04307624 0.07513007 0.13196166 145 149 12
-0.04344517 0.07481594 0.13342465 134 140 6
-0.04322951 0.07456116 0.13265449 145 149 10
-0.04352627 0.07458383 0.13377793 134 140 8
-0.04313305 0.07474910 0.13225144 142 146 10
-0.03827775 0.08035518 0.10677662 123 130 16
-0.03767618 0.08010646 0.10755133 129 133 20
-0.03844575 0.08085013 0.10580292 124 128 17
-0.04411464 0.07349773 0.13502632 155 161 9
-0.04401800 0.07332457 0.13474473 148 153 7
-0.04416351 0.07420114 0.13542144 136 142 8
-0.04387980 0.07415333 0.13478379 148 151 10
-0.04405969 0.07395675 0.13509499 153 158 14
-0.04453741 0.07335771 0.13588984 147 152 8
-0.04852473 0.07131403 0.14328992 201 189 105
-0.04958209 0.07830703 0.18260130 114 120 46
-0.04890390 0.07831954 0.18447915 123 125 50
-0.04888422 0.07152318 0.14185852 208 187 144
-0.04948733 0.07192010 0.14310598 185 160 119
-0.04839250 0.07181884 0.14542088 147 146 19
-0.04890750 0.07137126 0.14484227 217 199 151
-0.04585330 0.07637297 0.17056626 133 141 84
-0.04586776 0.07683215 0.16998599 132 140 83
-0.04644201 0.07732980 0.17125088 134 141 74
-0.04513108 0.07732439 0.15685098 108 120 10
-0.04503115 0.07734863 0.15685271 113 125 15
-0.04506012 0.07734142 0.15686545 113 125 15
-0.04662286 0.07753051 0.15908772 145 154 9
-0.04423100 0.07433491 0.13053766 189 176 64
-0.04492386 0.07400628 0.13225056 182 171 66
-0.04447338 0.07334780 0.13161564 190 179 64
-0.04739331 0.07739277 0.15991136 125 134 7
-0.04780635 0.07731870 0.15942822 119 130 2
-0.05210293 0.07945466 0.16911283 176 168 106
-0.05203031 0.07868270 0.16816595 203 190 146
-0.05183194 0.07848307 0.16955018 164 162 85
-0.04948755 0.07166430 0.14561284 194 167 138
-0.04930209 0.07151850 0.14525475 213 189 161
-0.04797696 0.07765274 0.16420786 99 108 0
-0.04799779 0.07763018 0.16387312 103 111 2
-0.05197726 0.07953435 0.17058615 211 200 146
-0.05172189 0.07901319 0.17284599 203 191 153
-0.05183437 0.07862862 0.16987158 185 180 112
-0.05184511 0.07927214 0.17177963 194 179 148
-0.05178734 0.07915404 0.17229037 189 178 132
-0.05087338 0.07803430 0.17413397 72 87 4
-0.05159780 0.07814812 0.17037782 82 93 0
-0.05079123 0.07793219 0.17404129 70 88 4
-0.05108257 0.07785388 0.17180917 65 83 0
-0.05126043 0.07795826 0.17133138 68 86 2
-0.05081904 0.07878846 0.17688960 172 160 108
-0.05074300 0.07911611 0.17736731 122 120 46
-0.05141138 0.07868244 0.17479002 157 150 95
-0.05104706 0.07882559 0.17613304 179 167 119
-0.05088051 0.07814156 0.17535281 94 102 27
-0.05115602 0.07834843 0.17424749 103 106 25
-0.05068020 0.07792506 0.17529559 77 90 11
-0.05061838 0.07792272 0.17611754 87 95 18
-0.05127253 0.07847147 0.17424314 134 126 54
-0.04609223 0.07718466 0.15391505 159 166 11
-0.04596833 0.07736991 0.15466581 129 140 1
-0.04651180 0.07717174 0.15529409 147 153 1
-0.05089905 0.07929825 0.16938826 146 150 63
-0.05138787 0.07926276 0.16875847 136 136 64
-0.04636230 0.07692280 0.15261562 136 145 2
-0.04580267 0.07751717 0.15104002 153 164 8
-0.04050342 0.08175852 0.14544800 92 110 0
-0.04785891 0.07303759 0.14176881 135 150 0
-0.04806100 0.07296149 0.14188369 158 171 4
-0.04111961 0.08163284 0.14442816 93 116 0
-0.04118251 0.08172017 0.14389636 97 120 3
-0.04847232 0.07314662 0.14302389 167 178 24
-0.04906892 0.07812624 0.16847315 141 141 31
-0.04849390 0.07807431 0.16918628 105 113 14
-0.04151300 0.08121131 0.14229582 98 119 0
-0.04138922 0.08144781 0.14385457 97 120 3
-0.04152479 0.08118609 0.14225486 95 119 0
-0.04245086 0.07967317 0.14377712 102 122 0
-0.04240360 0.07976052 0.14355880 102 122 0
-0.04290636 0.07959472 0.14233187 116 134 0
-0.04850717 0.07545884 0.15128358 160 178 8
-0.04854484 0.07554115 0.15159258 156 172 4
-0.04425773 0.07804819 0.14417991 109 124 0
-0.04389469 0.07827979 0.14456938 114 130 5
-0.04404589 0.07820193 0.14431834 114 131 3
-0.04388434 0.07841454 0.14396849 113 127 4
-0.04528530 0.07783177 0.15125906 113 124 4
-0.04527677 0.07789459 0.14951378 111 123 0
-0.04134648 0.07735259 0.15399528 71 92 1
-0.04215769 0.07704708 0.15283148 80 98 0
-0.04228324 0.07689673 0.15316303 83 100 0
-0.04817430 0.07568397 0.15132362 126 144 0
-0.04961799 0.07898568 0.17667486 152 155 78
-0.04948161 0.07901205 0.17708300 148 150 75
-0.04129227 0.07950373 0.15491815 93 113 0
-0.05017585 0.07916536 0.17573069 109 112 35
-0.04300300 0.07792132 0.15479106 99 116 1
-0.04272060 0.07791227 0.15354873 102 112 0
-0.04277423 0.07793941 0.15398316 96 108 0
-0.04597751 0.07784982 0.16222461 118 129 33
-0.03807642 0.07831331 0.11148594 126 129 22
-0.03858275 0.07856487 0.11115856 131 135 22
-0.03812195 0.07859385 0.11086659 128 130 21
-0.04374694 0.07823271 0.14556076 104 119 0
-0.03772824 0.07798209 0.11209086 131 135 24
-0.03811041 0.07791401 0.11265476 129 133 23
-0.03881460 0.07845613 0.11167763 133 136 23
-0.04173325 0.08083975 0.14166327 104 126 2
-0.04159357 0.08164126 0.14111808 105 120 3
-0.04142608 0.08179080 0.14176492 103 124 3
-0.04406451 0.07795134 0.15086786 108 118 3
-0.04353888 0.07819032 0.15148181 107 123 0
-0.04083494 0.08043650 0.14761455 93 113 2
-0.04042192 0.08111414 0.14750458 94 108 0
-0.04061164 0.08107444 0.14711557 90 108 0
-0.04467317 0.07764876 0.14456558 103 122 0
-0.04653656 0.07679929 0.15182862 113 127 0
-0.04624495 0.07714770 0.15059468 121 139 5
-0.04448418 0.07736085 0.15920244 101 113 1
-0.04404888 0.07727549 0.15972313 111 122 4
-0.04337503 0.07727259 0.15947522 99 112 0
-0.03895313 0.07714169 0.11570407 142 141 35
-0.03864208 0.07723950 0.11522304 137 141 30
-0.03813285 0.07705912 0.11552908 130 132 22
-0.04968948 0.07155568 0.14740008 204 179 157
-0.05006390 0.07153357 0.14852867 181 163 123
-0.04175630 0.07721233 0.12531336 149 152 19
-0.04155081 0.07722872 0.12376983 154 160 28
-0.04203427 0.07758591 0.12660059 136 141 12
-0.04168397 0.07762829 0.12394017 143 151 16
-0.04178379 0.07736530 0.12520592 146 150 14
-0.04184078 0.07761418 0.12512128 135 141 9
-0.05139932 0.07928589 0.17237884 144 145 65
-0.05163240 0.07961848 0.17106771 148 145 74
-0.04195477 0.07765574 0.15844759 87 105 3
-0.04208533 0.07756180 0.15848471 88 106 4
-0.04401920 0.07818194 0.14623755 111 128 0
-0.04394872 0.07822005 0.14648102 109 124 0
-0.04837064 0.07728786 0.15956788 159 162 0
-0.04819231 0.07749429 0.16174242 125 132 0
-0.04905387 0.07748799 0.16093586 158 160 1
-0.04328544 0.07839706 0.14729075 118 131 0
-0.04345863 0.07828364 0.14895707 111 122 2
-0.04327948 0.07839927 0.14732610 115 128 0
-0.04793180 0.07597578 0.15205736 149 163 8
-0.04655976 0.07622710 0.14774615 179 185 1
-0.04570479 0.07680278 0.14605996 145 154 1
-0.04543083 0.07712227 0.14600667 140 155 2
-0.04566080 0.07728039 0.14744601 141 156 3
-0.04583870 0.07716358 0.14776078 135 151 3
-0.05121426 0.07944687 0.17089859 145 148 69
-0.05120981 0.07944275 0.17117114 144 147 68
-0.05095322 0.07932795 0.17173187 144 148 63
-0.03986265 0.08050034 0.14702384 141 141 71
-0.03979764 0.08030844 0.14697152 110 117 39
-0.03976206 0.08031528 0.14656900 105 109 33
-0.04000890 0.08107606 0.14666007 146 151 85
-0.05019089 0.07908588 0.17180905 110 117 37
-0.05063396 0.07921185 0.16990556 129 135 45
-0.04889113 0.07845885 0.17661801 121 123 50
-0.04630721 0.07767317 0.16010949 113 121 0
-0.04231566 0.07851083 0.15189245 97 113 4
-0.04189726 0.07887735 0.15141727 98 117 2
-0.04171715 0.07885394 0.15194948 95 115 0
-0.04866950 0.07838105 0.17919511 131 135 59
-0.04890560 0.07863746 0.17839034 133 137 61
-0.04324671 0.07737200 0.15859565 99 112 0
-0.04401692 0.07745741 0.15812521 101 111 0
-0.04359051 0.07754408 0.15710735 107 118 0
-0.04424923 0.07748807 0.15793654 98 110 2
-0.04362488 0.07693232 0.16262442 102 116 21
-0.04341049 0.07688219 0.16304955 98 112 24
-0.04338858 0.07699708 0.16188869 101 114 6
-0.05210036 0.07943663 0.16902055 176 168 106
-0.05202632 0.07969433 0.16990736 161 156 88
-0.04610035 0.07326658 0.13473403 160 155 63
-0.04596099 0.07412886 0.13466528 174 169 65
-0.04666175 0.07354422 0.13611367 170 167 60
-0.04567820 0.07392085 0.13395029 172 166 72
-0.04031498 0.07994427 0.15126993 98 118 3
-0.04528465 0.07731433 0.15701590 109 118 9
-0.04531279 0.07733820 0.15724860 108 120 12
-0.04866159 0.07868205 0.18140325 138 143 76
-0.04073013 0.07964361 0.15133052 96 117 0
-0.04057954 0.07985688 0.15168469 97 116 0
-0.04744475 0.07750566 0.16081510 125 133 0
-0.04580986 0.07737550 0.14856808 147 160 8
-0.04608510 0.07728352 0.14999111 140 151 12
-0.04657273 0.07653677 0.14946955 180 184 9
-0.04814809 0.07700383 0.15789650 161 162 0
-0.04845858 0.07706144 0.15831727 177 172 8
-0.04889281 0.07709429 0.15864393 157 159 0
-0.04046529 0.07986321 0.15405677 129 139 53
-0.04140600 0.07958179 0.14824317 86 106 0
-0.04211613 0.07901963 0.14969553 95 116 0
-0.04182066 0.07913826 0.14989038 98 119 2
-0.04177618 0.07898767 0.15108748 101 120 2
-0.04159772 0.07944053 0.14856234 101 120 5
-0.04097763 0.07976851 0.15325284 98 116 4
-0.04124846 0.07951847 0.14920613 90 110 0
-0.04063051 0.07972138 0.14982806 92 112 0
-0.04042890 0.07977921 0.15008888 91 111 0
-0.04809806 0.07554808 0.15078135 127 147 0
-0.04893846 0.07896147 0.18214980 142 148 76
-0.04768190 0.07670962 0.15625042 156 159 6
-0.04789874 0.07657470 0.15570976 176 173 6
-0.04770818 0.07142593 0.14179230 176 171 45
-0.04798700 0.07138204 0.14160952 201 191 96
-0.04267845 0.07713712 0.16038120 90 107 3
-0.04241995 0.07702929 0.16126375 86 103 0
-0.04245067 0.07704256 0.16115484 86 103 0
-0.04717865 0.07756797 0.16247320 142 147 3
-0.04353223 0.07779161 0.15444364 101 114 0
-0.04313108 0.07787448 0.15364866 114 126 2
-0.04350194 0.07786646 0.15339217 108 122 0
-0.05040929 0.07221988 0.14925759 164 152 104
-0.05013819 0.07225399 0.14743920 166 142 96
-0.05028949 0.07178211 0.14861874 170 153 109
-0.04943433 0.07232998 0.15120335 156 158 33
-0.04919137 0.07249744 0.15101601 139 146 14
-0.05016461 0.07298870 0.15351610 144 149 21
-0.04830648 0.07154980 0.14382288 160 154 44
-0.04871492 0.07134181 0.14385149 213 198 131
-0.05026267 0.07301071 0.15360035 155 157 30
-0.05019984 0.07281553 0.15321727 164 166 41
-0.04404122 0.07780495 0.15372650 98 115 1
-0.04497027 0.07760217 0.15527883 118 130 6
-0.04527783 0.07758371 0.15512320 111 121 8
-0.05038949 0.07915772 0.17330772 109 116 38
-0.04950019 0.07606177 0.15502611 152 162 5
-0.05047915 0.07213045 0.14974079 163 150 106
-0.05054771 0.07191280 0.15020627 162 147 114
-0.05053028 0.07280694 0.14984578 165 155 119
-0.04671852 0.07672182 0.15276928 125 139 4
-0.04695975 0.07663357 0.15278211 136 150 0
-0.05062409 0.07923720 0.17417477 124 131 51
-0.04969299 0.07174378 0.14956544 236 224 166
-0.04988286 0.07190442 0.15067880 217 208 141
-0.04996900 0.07173720 0.14991625 191 176 137
-0.05008626 0.07216891 0.15182512 194 191 110
-0.05020877 0.07184809 0.15069066 165 153 111
-0.04984597 0.07196297 0.14608455 172 136 86
-0.04954579 0.07188094 0.14399877 185 152 117
-0.04905628 0.07137533 0.14407684 231 212 172
-0.04917320 0.07168763 0.14851055 206 195 131
-0.04982623 0.07149881 0.14841598 197 179 141
-0.04266471 0.07376377 0.13001215 142 145 14
-0.04276488 0.07365198 0.13013676 142 145 16
-0.04226720 0.07513796 0.12863800 145 146 18
-0.04201941 0.07518954 0.12854242 139 143 20
-0.04549145 0.07254782 0.13636832 122 131 2
-0.04590074 0.07261279 0.13708307 123 133 8
-0.04549574 0.07288147 0.13759549 124 129 11
-0.04560233 0.07201639 0.13455084 190 179 61
-0.04568417 0.07757382 0.15417600 104 114 0
-0.04553505 0.07770963 0.15200068 117 126 0
-0.04577119 0.07748981 0.15421276 113 125 1
-0.04847601 0.07794142 0.17746364 131 134 53
-0.04787022 0.07776184 0.17570001 103 111 28
-0.04858500 0.07881918 0.18267328 136 144 71
-0.04736146 0.07791784 0.16882744 129 132 15
-0.04741634 0.07792848 0.16875422 132 136 16
-0.04088676 0.07838547 0.11555891 143 139 29
-0.03952306 0.07708745 0.11663691 138 140 30
-0.04065474 0.07834847 0.11479687 146 145 29
-0.04077109 0.07861900 0.11388316 143 144 27
-0.04071799 0.07858024 0.11386456 143 144 27
-0.04061316 0.07854046 0.11363885 147 146 28
-0.04093581 0.07820925 0.11666653 142 140 29
-0.04896891 0.07827425 0.17136578 121 130 37
-0.04908322 0.07835199 0.17058185 138 139 45
-0.04893146 0.07824668 0.17167209 118 125 30
-0.04752058 0.07593539 0.15106963 158 169 3
-0.04845872 0.07801314 0.17407219 133 140 45
-0.04773488 0.07771608 0.17534660 100 107 29
-0.04867915 0.07812984 0.17555730 124 127 50
-0.04099139 0.08203541 0.14354302 100 124 4
-0.03896545 0.07776906 0.11395373 136 138 31
-0.04074791 0.07883326 0.11281976 143 144 25
-0.03916584 0.07713591 0.11589995 139 140 36
-0.03963377 0.07828823 0.11319757 145 146 29
-0.03922478 0.07800119 0.11357581 130 131 27
-0.03917680 0.07756440 0.11473063 133 134 30
-0.04025069 0.07915097 0.11079588 148 150 27
-0.03982751 0.07909659 0.11040948 141 143 20
-0.04036936 0.07920530 0.11067451 145 147 24
-0.04016232 0.07908507 0.11103585 148 150 27
-0.04030384 0.07938619 0.10950185 144 146 23
-0.04004636 0.07940543 0.10903549 143 144 24
-0.03928653 0.07907672 0.10994387 125 129 19
-0.03983394 0.07937638 0.10907312 138 142 22
-0.04453668 0.07741296 0.16203639 101 114 32
-0.04370959 0.07699700 0.16238531 107 121 24
-0.04441271 0.07722882 0.16290835 106 118 32
-0.04082299 0.07617166 0.12233601 181 171 47
-0.04048922 0.07574334 0.12221508 160 158 45
-0.04074581 0.07592389 0.12255207 175 169 45
-0.04435434 0.07784348 0.15276590 105 120 1
-0.04537003 0.07771146 0.15316920 112 125 11
-0.04539234 0.07768458 0.15352800 108 121 7
-0.04716871 0.07628208 0.15172704 166 169 0
-0.04755657 0.07225148 0.13800253 170 161 106
-0.04825555 0.07209464 0.14014149 191 170 117
-0.04843923 0.07203522 0.14070554 191 169 122
-0.04757476 0.07673478 0.15614592 151 156 4
-0.04762477 0.07646774 0.15388532 180 180 0
-0.04763558 0.07649400 0.15416516 170 173 0
-0.04145148 0.07827289 0.15739189 88 105 3
-0.04203727 0.07773001 0.15802366 86 105 0
-0.04546188 0.07736308 0.15681808 113 123 10
-0.04546553 0.07738723 0.15648212 109 122 6
-0.04422121 0.07276297 0.13256985 186 176 63
-0.04418323 0.07260520 0.13322100 146 148 25
-0.04431235 0.07256798 0.13324594 173 168 51
-0.04495282 0.07278448 0.13289407 196 185 69
-0.04506273 0.07282413 0.13310170 195 184 68
-0.04416538 0.07788578 0.15174675 100 113 0
-0.04445966 0.07788546 0.15082417 128 141 9
-0.04419064 0.07788448 0.15173779 100 113 0
-0.04832972 0.07603421 0.15306662 121 142 1
-0.04056906 0.07686000 0.12035920 175 165 42
-0.04019743 0.07720598 0.11816587 169 164 44
-0.04065004 0.07689206 0.12047634 176 166 43
-0.04087006 0.07799171 0.11739427 148 144 36
-0.04069715 0.07687303 0.12067100 175 165 42
-0.04104007 0.07964182 0.15554927 96 116 5
-0.04106467 0.07949670 0.15587121 92 113 0
-0.04998257 0.07335570 0.14967404 171 174 67
0.00954883 0.10690706 0.12931314 84 95 52
0.02235544 0.11000165 0.13480960 117 144 47
0.02266987 0.11069296 0.13522330 113 141 38
0.02282855 0.11117754 0.13551019 119 148 42
0.02339550 0.11152646 0.13573956 113 143 29
0.00707133 0.10612152 0.12744457 88 98 37
0.00716007 0.10610411 0.12782316 86 96 46
0.00736965 0.10626910 0.12735927 86 96 36
0.00770630 0.10634246 0.12787700 90 100 50
0.00744476 0.10636330 0.12696193 81 93 21
0.00907408 0.10788789 0.12648176 111 113 38
0.01002378 0.10786879 0.12766981 69 77 18
0.00930969 0.10806756 0.12654082 116 118 45
0.00847181 0.10723171 0.12658237 82 91 12
0.01116891 0.10830819 0.12869956 85 94 47
0.01149946 0.10831735 0.12909365 77 89 41
0.01154432 0.10824320 0.12929396 74 86 40
-0.00282524 0.10153981 0.12569474 91 111 14
-0.00185982 0.10204034 0.12636673 99 117 18
0.00616849 0.10627689 0.12504981 85 97 15
0.00729746 0.10659963 0.12594821 89 101 19
0.00687943 0.10665224 0.12536341 85 97 15
-0.00052009 0.10316711 0.12564953 82 99 19
0.00048019 0.10325336 0.12682122 99 111 25
0.00011571 0.10324655 0.12632675 92 107 22
-0.00015933 0.10351959 0.12519103 97 110 56
0.00496508 0.10564135 0.12595971 88 100 28
0.00581042 0.10599963 0.12539457 91 103 17
0.00542851 0.10592614 0.12481350 85 97 11
0.00651781 0.10623137 0.12556587 92 104 18
0.00945840 0.10719339 0.12847959 83 92 47
0.00961070 0.10744068 0.12800755 75 85 32
0.00922595 0.10694777 0.12875642 81 93 47
0.00918048 0.10687985 0.12887745 83 95 49
0.01018407 0.10783785 0.12802719 75 83 32
0.00913047 0.10684994 0.12885983 83 95 49
-0.00109300 0.10587909 0.12026796 98 98 96
-0.00142501 0.10613873 0.12027249 90 99 94
-0.00197757 0.10567942 0.11989770 101 121 112
0.01270575 0.10375938 0.12756959 157 152 130
0.01311073 0.10422715 0.12678650 176 168 147
0.01117551 0.10356244 0.12773718 172 166 140
0.01218230 0.10357327 0.12783796 156 151 129
0.01070005 0.10421225 0.12652561 189 177 153
0.01302835 0.10408376 0.12703151 170 164 142
0.00990607 0.10426813 0.12633167 195 183 161
0.01159737 0.10376002 0.12743632 171 163 140
0.03217687 0.11749472 0.13439141 60 66 0
0.03276718 0.11772937 0.13453004 70 81 5
0.03168251 0.11735339 0.13469788 74 78 2
0.03480548 0.11539652 0.13500960 138 166 45
0.03413004 0.11530367 0.13512282 134 164 42
0.03547654 0.11612550 0.13494848 144 170 45
0.00819909 0.10770225 0.12556477 130 136 66
0.00860309 0.10767792 0.12614581 115 119 34
0.00828863 0.10737192 0.12614906 98 106 23
-0.01203238 0.10240985 0.11514925 204 185 170
-0.01123128 0.10219996 0.11525544 182 156 139
-0.01199374 0.10214316 0.11505696 185 163 149
-0.01342150 0.10092784 0.11426426 193 177 164
-0.01159384 0.10233128 0.11522117 182 161 144
-0.01204537 0.10260309 0.11521961 208 189 175
-0.03488191 0.09279090 0.10071930 165 176 108
-0.03545292 0.09248190 0.09988720 160 175 94
0.00982686 0.10836802 0.12520440 138 149 135
0.00984489 0.10846408 0.12560004 131 136 113
-0.01332288 0.10005824 0.11776006 117 141 65
-0.01347084 0.09926389 0.11755216 117 144 67
0.02969545 0.11384791 0.13581808 108 142 22
0.02921396 0.11340387 0.13559055 111 140 22
0.02903906 0.11410425 0.13660894 116 153 22
0.02987297 0.11375112 0.13556911 108 139 20
0.02844007 0.11280286 0.13547900 123 151 32
0.02786559 0.11250900 0.13554741 124 152 33
0.02772916 0.11206206 0.13551293 144 167 53
0.01873052 0.10815807 0.13335709 112 134 62
0.01807223 0.10841718 0.13321210 124 145 76
0.01800772 0.10855076 0.13321343 123 143 74
0.01838268 0.10899662 0.13338123 119 140 71
0.00112239 0.10206993 0.12879145 102 113 37
0.00216668 0.10298760 0.12941504 94 107 37
0.00108173 0.10319482 0.12885931 107 122 29
0.00263520 0.10325082 0.12923011 87 103 32
0.00100079 0.10319527 0.12883326 107 122 27
0.00268817 0.10356938 0.12861073 91 103 37
-0.01479012 0.09783179 0.11667468 95 118 50
-0.01541215 0.09687857 0.11625437 67 89 7
-0.01400573 0.09872959 0.11719944 118 144 71
-0.01553842 0.09799195 0.11619158 107 135 60
-0.02473449 0.09816234 0.10824204 124 84 76
-0.02339899 0.09779092 0.10825370 111 80 75
-0.02389468 0.09763995 0.10802702 117 80 74
-0.02371201 0.09745020 0.10792166 118 80 77
-0.02445921 0.09734412 0.10767350 133 85 75
0.01240967 0.10857841 0.13009983 83 97 44
0.01269320 0.10907335 0.12981664 85 98 45
0.01327956 0.10919259 0.13060842 93 107 46
0.03293133 0.11724896 0.13377488 116 106 81
0.03266607 0.11752970 0.13416994 79 85 13
-0.01176574 0.10003444 0.11865773 115 140 72
-0.01229047 0.09950727 0.11838872 111 140 73
-0.01122207 0.09965982 0.11924415 103 125 61
-0.01280089 0.09959242 0.11792725 116 142 69
-0.01156853 0.10028261 0.11874211 117 140 70
0.03265123 0.11024370 0.13360314 200 190 155
0.03291469 0.11047075 0.13362628 204 194 159
0.03011958 0.11709666 0.13515343 63 63 3
0.03151184 0.11732557 0.13480286 83 86 15
0.01482387 0.10935586 0.13176121 95 111 46
0.01404854 0.10819695 0.13157620 100 117 63
0.01514688 0.10836520 0.13219656 112 129 74
0.01432114 0.10920823 0.13149442 91 110 46
0.01647245 0.10963321 0.13268633 103 124 59
0.01496223 0.10897652 0.13193674 96 114 54
-0.00025762 0.10290426 0.12795131 116 128 28
-0.00068206 0.10270202 0.12697196 97 112 21
-0.00061746 0.10272919 0.12698679 100 115 24
0.02518415 0.11171675 0.13574697 123 152 33
0.02561751 0.11010090 0.13495366 113 137 41
0.02606893 0.11199589 0.13570622 125 156 37
0.02593140 0.11080812 0.13520758 120 145 41
0.03930769 0.11615339 0.13488562 129 150 49
0.03906527 0.11614833 0.13483657 134 155 52
0.00140014 0.10359893 0.12699926 94 108 29
0.00184879 0.10375986 0.12705112 93 105 31
0.02758463 0.10758102 0.13408136 217 208 167
0.02956379 0.10904615 0.13449317 201 202 142
0.02938628 0.10860546 0.13407570 212 205 161
0.02263343 0.10957397 0.13457333 112 138 49
0.02448008 0.11152448 0.13579123 128 157 39
0.02376485 0.11072560 0.13529426 122 150 40
0.02291880 0.10973623 0.13468057 115 142 49
0.02360779 0.10987054 0.13478972 110 137 40
-0.00537003 0.09765774 0.12443583 154 170 72
-0.00560926 0.09729610 0.12385295 170 177 109
-0.00596326 0.09717510 0.12338103 177 185 102
-0.02230988 0.09934509 0.11094636 185 149 149
-0.02158219 0.09942903 0.11128291 96 48 44
-0.02217831 0.09936022 0.11100578 176 137 138
-0.01702612 0.09619880 0.11487329 72 92 5
-0.01649310 0.09726148 0.11547910 96 120 42
-0.01631769 0.09697800 0.11556845 79 102 22
-0.01738985 0.09616157 0.11457941 75 95 10
-0.01540074 0.09644872 0.11620106 73 93 6
0.01454354 0.10726465 0.13185276 117 132 77
0.01519534 0.10748238 0.13211763 116 134 74
0.01613760 0.10770034 0.13248841 120 136 74
0.01560569 0.10842868 0.13238551 114 134 75
0.01525601 0.10733301 0.13212107 112 130 72
0.01643357 0.10882258 0.13273658 114 133 69
0.01532450 0.10815589 0.13224888 118 136 78
0.02733151 0.10870124 0.13478661 126 142 54
0.02603208 0.10796665 0.13480993 109 120 42
0.02382764 0.10571133 0.13305180 211 200 155
0.02476217 0.10629051 0.13234191 203 191 151
0.02546500 0.10661440 0.13255240 203 194 155
0.02572222 0.10679193 0.13223630 196 186 151
0.02471422 0.10616397 0.13302363 209 197 155
0.02640892 0.10693304 0.13361059 207 198 157
0.02596680 0.10671590 0.13356751 208 199 158
0.02069934 0.11223880 0.13572161 128 154 47
0.02187789 0.11015898 0.13486944 117 145 45
0.02131109 0.11133733 0.13537343 119 147 37
0.03995883 0.11661239 0.13479874 136 146 57
0.04022662 0.11686081 0.13469516 134 143 50
-0.01261373 0.10248600 0.11705103 167 158 67
-0.01549323 0.10221881 0.11589956 114 57 40
-0.01440906 0.10224552 0.11638047 135 98 53
-0.01355269 0.10204699 0.11690117 166 164 77
-0.03142303 0.09442496 0.10323673 128 163 71
-0.03156725 0.09452779 0.10355580 129 161 62
-0.01465638 0.10248102 0.11583380 122 60 45
-0.01311214 0.10277829 0.11568537 211 183 179
-0.01499611 0.10241771 0.11588831 112 55 38
-0.01388959 0.10265029 0.11598537 127 68 50
0.03288367 0.11215285 0.13465238 113 131 29
0.03221519 0.11171912 0.13467640 118 136 34
0.03350066 0.11222371 0.13463594 114 135 34
0.03150992 0.11144446 0.13469854 112 132 33
0.03196833 0.11156144 0.13468522 123 140 38
0.01064092 0.10335159 0.13080530 107 127 55
0.01171319 0.10392488 0.13108182 139 157 83
0.04339652 0.12021151 0.13312599 212 211 129
0.04268473 0.12077358 0.13267258 192 183 154
0.04276974 0.11904261 0.13170920 191 176 157
0.04213635 0.12143205 0.13246113 172 157 136
0.01203649 0.10791264 0.13028021 82 95 49
0.01201232 0.10804478 0.13019009 84 97 51
0.01394821 0.10538428 0.13193345 132 152 83
0.01316115 0.10554048 0.13167119 119 137 75
0.01253561 0.10500567 0.13156807 131 150 84
0.01232751 0.10556377 0.13141613 110 128 70
-0.02152091 0.09534599 0.11166738 94 114 19
-0.02071010 0.09503260 0.11186809 84 99 14
-0.01994704 0.09542729 0.11247454 88 107 18
-0.01985272 0.09546550 0.11254309 89 108 19
-0.02191577 0.09578776 0.11174472 99 119 20
-0.02107551 0.09489471 0.11160863 89 104 19
-0.02048941 0.09600049 0.11256041 102 119 25
0.01108234 0.10520440 0.13102816 105 123 65
0.01167682 0.10592221 0.13109459 90 107 55
0.01140378 0.10561401 0.13105920 99 116 64
0.01087893 0.10552327 0.13087709 98 112 59
0.01351708 0.10752250 0.13140358 106 123 69
0.01342373 0.10748446 0.13134733 108 125 71
0.01360064 0.10913043 0.13101438 91 110 46
0.01380935 0.10897743 0.13120663 88 106 44
-0.03442962 0.09197284 0.09832485 134 136 96
-0.03510089 0.09172413 0.09775968 119 134 77
-0.03350408 0.09191769 0.09873251 108 58 49
-0.03240591 0.09148092 0.09886955 116 76 51
-0.00337498 0.10189045 0.12441616 89 107 21
0.00951511 0.10390214 0.13070123 119 135 72
0.01119768 0.10458220 0.13118790 118 137 73
-0.02203774 0.09929211 0.11387195 75 82 5
-0.02177690 0.09875165 0.11403173 93 89 18
-0.02057440 0.09907611 0.11509787 177 181 61
0.01130763 0.10649026 0.13073394 93 105 59
0.01229556 0.10722675 0.13082522 102 116 67
0.01133135 0.10662204 0.13066107 96 109 63
0.00090007 0.10332755 0.12805845 99 113 26
0.00108732 0.10338494 0.12776944 95 109 24
-0.01372104 0.10155019 0.11442997 197 180 172
-0.01471177 0.10110094 0.11402382 191 178 169
-0.01409320 0.10147344 0.11431206 187 173 164
-0.00410444 0.09896317 0.12605789 134 155 54
-0.00363755 0.09961181 0.12685287 119 138 46
-0.00357020 0.09928267 0.12579867 90 105 38
0.04167170 0.11873315 0.13395397 185 197 87
0.01634940 0.10357279 0.13055415 149 148 117
0.01349158 0.10285294 0.13031551 128 127 99
0.01445362 0.10522440 0.13207346 138 154 81
0.01203294 0.10464692 0.13133493 130 150 81
0.01175165 0.10481876 0.13135394 121 140 76
0.02834417 0.10930786 0.13484670 120 137 43
0.02878735 0.11027476 0.13501571 112 138 39
0.02778661 0.10907379 0.13484173 115 132 40
0.01318625 0.10323558 0.12921026 142 140 117
0.01458065 0.10323612 0.12986349 127 127 103
0.01307150 0.10305688 0.12956321 140 138 115
0.01626707 0.10353681 0.12997046 149 145 116
0.01399338 0.10296483 0.13020544 126 126 102
0.01496146 0.10337186 0.12973319 125 127 106
0.01587912 0.10398156 0.12845835 139 134 112
0.01586417 0.10367247 0.12937459 140 136 111
0.01548624 0.10401235 0.12815611 145 143 120
0.01438800 0.10411956 0.12724794 159 154 132
0.01322033 0.10333959 0.12895548 144 142 119
0.01514785 0.10402238 0.12794507 145 143 120
0.01425525 0.10405258 0.12737721 157 152 130
0.01457442 0.10368392 0.12865034 136 134 111
0.01207094 0.10325173 0.12860329 147 145 120
0.01481331 0.10405202 0.12767746 151 146 124
-0.00590090 0.10170685 0.12215292 110 130 67
-0.00625690 0.10112074 0.12240633 93 112 31
-0.00573354 0.10006802 0.12390044 107 126 34
-0.00585536 0.10183430 0.12206935 113 131 69
-0.00562345 0.10038221 0.12369246 102 122 23
-0.00591238 0.10055466 0.12326615 93 114 11
0.04203176 0.11822151 0.13418584 202 208 120
0.00965193 0.10508914 0.13051233 92 106 53
0.00906067 0.10392716 0.13058546 111 125 63
0.00961124 0.10469744 0.13059676 103 118 63
-0.03040205 0.09385800 0.10211182 179 126 108
-0.02931556 0.09384862 0.10263219 158 121 95
-0.02907012 0.09423631 0.10328823 151 116 94
-0.03074716 0.09360938 0.10159896 223 151 136
0.01083479 0.10250993 0.12947802 150 146 119
0.01080831 0.10239770 0.12967117 151 147 122
0.01186435 0.10249475 0.13011093 155 156 125
0.01240990 0.10337495 0.13084456 142 160 84
0.01151829 0.10331037 0.13080436 115 136 59
0.01264244 0.10277437 0.13036647 147 148 114
0.01133220 0.10284751 0.13046861 155 163 112
0.01129389 0.10296770 0.13054673 127 138 78
0.02552092 0.10853855 0.13481487 104 128 42
0.02654126 0.10851593 0.13481584 111 126 41
0.02668960 0.10884698 0.13481331 110 131 40
0.00772029 0.10231351 0.13037123 110 124 65
0.02274219 0.10541312 0.13311844 218 205 161
0.02301247 0.10588963 0.13404821 187 192 134
0.02303926 0.10595463 0.13417463 139 149 88
-0.02192431 0.09975775 0.11263450 45 39 5
-0.00217715 0.10062691 0.12721962 139 152 80
-0.00189769 0.10113840 0.12765583 111 129 45
0.00862239 0.10200283 0.13008347 122 128 82
0.00913077 0.10181542 0.12990022 129 129 91
0.00899441 0.10247540 0.13049538 127 136 79
0.00993139 0.10260286 0.13040407 167 173 125
0.00629687 0.10208009 0.12981218 98 109 53
0.00562211 0.10272142 0.13012359 87 104 34
0.02464161 0.10836153 0.13462272 107 129 47
0.02511596 0.10834424 0.13473408 106 128 46
0.00791096 0.10596447 0.12911415 93 104 62
0.00762237 0.10596079 0.12886509 92 103 61
0.00681486 0.10577596 0.12839286 96 107 64
0.00672235 0.10564864 0.12847541 90 102 56
0.01093099 0.10680573 0.13030525 99 110 67
0.01079484 0.10693068 0.13012183 101 112 69
0.01024258 0.10679225 0.12985760 94 103 60
-0.01860118 0.10124701 0.11479564 160 150 151
-0.01795995 0.10154602 0.11477569 206 195 199
0.00916350 0.10651812 0.12937081 91 102 60
0.00745944 0.10500332 0.12970270 79 88 43
0.00803914 0.10573236 0.12942223 83 94 51
0.00903986 0.10592125 0.12977667 88 99 56
0.00708884 0.10521328 0.12935199 80 91 48
-0.00147046 0.10265768 0.12540859 90 109 20
-0.00102847 0.10285752 0.12565918 92 112 23
-0.00123036 0.10269029 0.12581284 92 112 17
0.00830605 0.10361725 0.13055742 103 120 52
0.02962130 0.11397678 0.13602735 112 147 29
0.02953345 0.11434375 0.13652062 117 153 27
0.00766150 0.10477643 0.12997662 88 100 50
0.00819917 0.10484055 0.13019316 88 101 47
0.00745602 0.10426154 0.13026151 106 118 56
0.00605975 0.10348158 0.13011198 96 114 40
0.00663865 0.10422250 0.12988837 95 108 54
0.04382171 0.11969874 0.13346560 209 212 123
0.04355120 0.11908083 0.13352646 216 218 145
0.04279448 0.11856509 0.13206393 193 180 161
0.04363466 0.11961457 0.13304578 197 193 148
0.00679167 0.10334509 0.13041601 101 118 47
0.00862002 0.10417467 0.13050736 106 120 59
0.00913252 0.10435323 0.13052069 101 116 57
0.00832786 0.10270043 0.13064988 103 123 51
0.01947793 0.10877746 0.13367333 118 140 65
0.01915261 0.10888329 0.13359310 120 142 69
0.02037182 0.10928552 0.13402647 119 144 63
0.02121603 0.10939880 0.13429910 113 138 54
-0.01129618 0.09696171 0.11938024 100 120 31
-0.01274869 0.09695365 0.11824885 87 107 22
-0.01248410 0.09730472 0.11846545 81 103 21
-0.01386675 0.09643693 0.11736263 88 108 19
-0.01353134 0.09675355 0.11763334 84 104 17
-0.01072842 0.09710914 0.11982682 96 119 29
-0.01334667 0.09640711 0.11776675 94 114 25
-0.01061228 0.09798308 0.11994354 89 108 27
0.00906268 0.10343856 0.13063231 111 128 60
-0.00741179 0.09637253 0.12146480 148 151 82
-0.00716335 0.09648551 0.12189601 132 139 59
-0.00736749 0.09634699 0.12138060 171 170 113
-0.00091111 0.10223755 0.12808086 91 107 18
-0.00149395 0.10175699 0.12786187 86 100 12
-0.00109087 0.10244931 0.12706672 109 125 26
0.03157789 0.11464795 0.13560197 108 142 19
0.03273646 0.11499665 0.13546804 106 137 17
0.03185609 0.11477685 0.13561068 113 147 26
-0.02240606 0.09878998 0.11346332 94 92 35
-0.02202405 0.09813323 0.11372905 149 157 36
0.02199813 0.10882817 0.13438949 106 131 48
0.02315620 0.10818902 0.13439931 110 134 56
0.02211920 0.10793035 0.13426754 103 127 51
0.03393948 0.11117630 0.13344643 180 169 139
0.03610715 0.11275803 0.13392819 204 194 159
0.03608527 0.11277918 0.13398665 206 198 159
0.02981644 0.10846195 0.13367039 201 194 152
0.03029627 0.10924308 0.13428746 217 213 166
0.03137302 0.11727326 0.13556309 87 93 21
0.02991254 0.11696627 0.13531646 78 81 12
-0.03548479 0.09190985 0.09815456 131 155 69
-0.03534013 0.09232944 0.09923156 147 164 68
-0.03479733 0.09250517 0.09953994 134 161 64
-0.03576846 0.09156906 0.09920656 116 130 43
-0.03503982 0.09184596 0.10041274 96 113 21
-0.03233835 0.09193595 0.09932051 119 74 51
-0.03250784 0.09274564 0.09996499 127 68 60
-0.03160359 0.09315661 0.10071514 173 105 94
-0.02642270 0.09710681 0.10671539 137 88 74
-0.02674102 0.09683973 0.10639345 132 85 75
-0.02620699 0.09752510 0.10731401 142 93 79
-0.00679421 0.09810332 0.12303682 106 120 35
-0.00665154 0.09822284 0.12318140 107 121 34
-0.00678979 0.09778648 0.12312108 117 132 37
-0.00641448 0.09824901 0.12346455 111 125 37
-0.02169767 0.09689670 0.11255854 111 128 16
-0.02145695 0.09702641 0.11277693 113 129 20
-0.02029414 0.09790355 0.11411875 106 129 13
-0.02133943 0.09771012 0.11359366 112 135 19
0.02236583 0.10901100 0.13444872 103 128 44
0.02371648 0.10959592 0.13463616 110 136 45
0.02368347 0.10899980 0.13455297 108 133 50
0.02443713 0.10882616 0.13459000 112 136 52
-0.00741178 0.09820122 0.12262711 101 118 38
-0.00691924 0.09888068 0.12305477 121 137 48
-0.00687285 0.09866390 0.12305598 118 134 46
-0.02200928 0.09896737 0.10975790 146 98 86
-0.02242536 0.09910244 0.10960019 145 98 88
-0.02068002 0.09875029 0.11039249 154 108 95
-0.02131956 0.09896594 0.11015496 153 105 95
-0.02198592 0.09909445 0.10984884 153 105 93
-0.02316163 0.09780409 0.10838395 111 82 78
-0.02292758 0.09799621 0.10863609 110 79 74
0.03207973 0.11011555 0.13411202 214 205 162
0.03326698 0.11112717 0.13434796 210 209 155
0.03200385 0.11064671 0.13464287 179 186 109
0.03219163 0.11062155 0.13451052 192 198 126
-0.00704072 0.09955934 0.12287956 105 123 39
-0.00798032 0.09913941 0.12216723 105 120 35
-0.00764782 0.09966245 0.12224416 96 116 31
-0.00118597 0.10538422 0.12237648 128 138 69
-0.00105628 0.10608122 0.12187810 171 177 89
-0.00048946 0.10587367 0.12221067 137 148 54
0.02917158 0.11642683 0.13563122 99 116 22
-0.00583128 0.10246618 0.12153241 121 139 65
-0.00704324 0.10368552 0.11967169 133 148 45
-0.00739069 0.10193701 0.12077960 112 133 58
-0.00793358 0.10249969 0.11993321 116 138 53
-0.00647231 0.10305437 0.12059262 126 145 64
-0.00657342 0.10249341 0.12095582 117 135 59
-0.00635957 0.10317832 0.12058002 128 147 66
-0.00536376 0.10091314 0.12342139 93 114 13
-0.00471662 0.10104875 0.12407763 97 117 22
-0.00499628 0.10091288 0.12387040 94 114 17
-0.00518442 0.10080589 0.12374640 95 116 15
-0.01059958 0.10099570 0.11909517 107 128 53
-0.01064643 0.10134838 0.11885796 110 131 52
-0.00962262 0.10144331 0.11952633 106 126 54
-0.00894245 0.09915905 0.12133185 96 114 28
-0.00903842 0.09936301 0.12116315 91 110 28
-0.00867425 0.09984449 0.12126649 89 112 34
-0.00969421 0.09896131 0.12077809 94 109 26
0.03579733 0.11256537 0.13354628 198 189 158
0.03497445 0.11220806 0.13297032 144 137 111
0.03440284 0.11148755 0.13338743 175 166 135
0.03440543 0.11149480 0.13337862 175 166 135
-0.02950325 0.09541441 0.10471504 125 126 84
-0.02966896 0.09514797 0.10420103 152 113 98
-0.02884846 0.09593496 0.10553719 134 129 97
0.02832134 0.11406586 0.13694081 132 168 36
0.02723041 0.11358740 0.13693149 128 164 30
0.02673751 0.11312422 0.13667080 116 154 32
-0.00960854 0.10379446 0.11787374 109 140 62
-0.00898180 0.10368551 0.11773589 55 107 71
-0.00931687 0.10382486 0.11804456 120 143 53
-0.00780431 0.10325719 0.11943965 118 135 39
-0.00833738 0.10257944 0.11959466 112 134 49
-0.00860973 0.10260534 0.11941133 106 128 43
-0.00842379 0.10258430 0.11953886 112 134 49
-0.00723320 0.10353276 0.11843477 86 84 69
-0.00909735 0.10339257 0.11687779 191 161 137
-0.00859090 0.10334615 0.11715741 106 111 91
-0.00789777 0.10309503 0.11722182 70 84 67
-0.00779956 0.10382534 0.11853041 122 130 83
0.02898868 0.11609793 0.13638288 83 105 7
0.02845154 0.11581334 0.13671085 77 95 11
0.00559272 0.10196013 0.12916270 77 92 37
0.00473780 0.10206491 0.12884541 73 87 36
0.00376269 0.10263024 0.12788129 69 81 31
0.00552399 0.10189240 0.12924007 78 93 38
0.00451639 0.10494941 0.12746972 94 106 60
0.00460820 0.10532735 0.12674458 88 99 43
0.00481888 0.10541910 0.12680237 85 96 38
0.00437696 0.10485477 0.12750676 94 106 56
-0.00939369 0.10374430 0.11815510 130 152 54
-0.00884440 0.10373556 0.11848583 144 157 49
0.02810458 0.11146851 0.13533683 119 146 41
0.02678872 0.11157460 0.13539705 131 155 43
0.02768544 0.11105730 0.13520652 119 147 45
0.02695971 0.11191837 0.13550934 132 157 40
0.02676150 0.11090520 0.13517268 125 150 46
0.04316288 0.11923406 0.13372764 201 207 107
-0.00784213 0.10067723 0.12149116 92 112 43
-0.00824134 0.10125905 0.12069553 111 132 67
-0.00794806 0.10119964 0.12097036 106 126 63
-0.00856168 0.10128461 0.12042843 112 133 66
-0.00700299 0.10168166 0.12128931 115 135 66
-0.02501586 0.09683822 0.10976623 79 81 6
-0.02533687 0.09593281 0.10911372 31 54 0
-0.02575226 0.09626018 0.10881585 44 54 2
-0.03498748 0.09153020 0.10024368 86 106 9
-0.03477977 0.09168173 0.10051154 84 106 6
0.03302437 0.11717496 0.13625953 153 173 58
-0.03181497 0.09323208 0.10073299 168 97 91
-0.03269256 0.09300011 0.10020081 125 76 69
0.03171901 0.11696675 0.13638410 148 167 49
0.03188957 0.11569323 0.13628738 118 149 22
0.03265451 0.11628586 0.13627426 124 149 21
0.03102890 0.11675412 0.13633902 134 154 43
0.03041195 0.11671975 0.13598411 87 106 14
-0.03060141 0.09408358 0.10232987 171 124 106
-0.03128934 0.09364643 0.10146840 231 153 143
-0.00429996 0.10172343 0.12388410 84 104 15
-0.00378052 0.10208686 0.12364531 90 108 34
0.04266776 0.11806721 0.13371147 147 140 111
0.04229945 0.11835195 0.13400385 188 192 107
0.03080277 0.11624655 0.13684154 164 189 62
-0.00517975 0.10364568 0.12134578 136 153 75
-0.00547274 0.10346439 0.12119454 133 150 72
-0.00220872 0.10264993 0.12422954 95 111 48
-0.00204557 0.10267805 0.12435083 95 112 42
0.03070993 0.11565838 0.13677077 156 188 45
0.03065389 0.11563317 0.13680077 156 188 45
0.02948717 0.11627202 0.13642934 82 103 8
-0.00527859 0.10599077 0.12000644 60 50 49
-0.00609395 0.10499708 0.11979599 110 111 67
-0.00556160 0.10559267 0.11996104 77 71 55
-0.00249168 0.10246777 0.12421693 94 110 47
0.03405253 0.11598573 0.13551001 121 151 27
0.03419877 0.11586878 0.13535094 123 153 29
0.03377431 0.11561640 0.13539445 119 151 26
0.02867611 0.10853349 0.13445374 217 216 159
0.02787974 0.10883314 0.13474932 132 146 61
0.02769053 0.10806233 0.13437401 232 230 173
-0.00291299 0.10364618 0.12247668 124 139 74
-0.00477635 0.10268374 0.12210819 122 139 71
-0.00325567 0.10234801 0.12359422 99 114 57
-0.00211876 0.10464495 0.12235510 139 150 84
-0.00263455 0.10468517 0.12211738 137 148 80
-0.00186442 0.10534766 0.12213227 135 145 74
-0.00244051 0.10416540 0.12244431 136 148 82
-0.00606699 0.10334729 0.12072659 130 147 69
-0.00556707 0.10353370 0.12107150 133 150 72
-0.00564102 0.10459675 0.12040760 156 168 82
-0.00520500 0.10558653 0.12027633 119 117 78
-0.00649776 0.10460273 0.11934339 115 117 70
-0.00678921 0.10455815 0.11938482 134 140 70
-0.00606011 0.10486823 0.11941700 57 50 42
-0.00426398 0.10540091 0.11933811 91 83 80
0.00259219 0.10221145 0.12776875 76 88 38
0.00257837 0.10204063 0.12803715 79 92 39
0.00352487 0.10251103 0.12795077 68 80 30
0.01986723 0.10815565 0.13372426 112 136 60
0.02014738 0.10854287 0.13385323 111 133 58
0.01997771 0.10841945 0.13378550 112 134 59
-0.00346501 0.10548364 0.12138187 169 178 97
-0.00258388 0.10395967 0.12248030 130 142 76
-0.00331107 0.10457425 0.12187499 141 152 83
-0.00415065 0.10536014 0.12109876 167 180 98
-0.00406300 0.10544363 0.12109474 167 180 98
0.00592276 0.10291103 0.12831520 81 94 38
0.00662795 0.10290936 0.12859032 88 99 41
0.00535784 0.10230512 0.12868109 72 87 32
0.00427137 0.10282713 0.12775566 72 87 32
0.00012670 0.10604737 0.12099942 120 107 99
-0.00040584 0.10632814 0.12149377 129 118 88
0.00052831 0.10600237 0.12132747 111 96 89
-0.00341939 0.10572542 0.11946294 65 83 71
0.00324540 0.10324906 0.12961306 83 98 29
0.00472227 0.10407857 0.12909476 89 102 48
0.00385752 0.10403030 0.12843859 91 102 46
0.00319525 0.10376482 0.12843736 96 108 46
-0.00387749 0.10630741 0.12012644 63 71 73
-0.00381013 0.10642508 0.11984850 58 74 73
-0.00333985 0.10644250 0.11999307 56 91 85
0.00919424 0.10185592 0.12986977 126 127 87
0.00808182 0.10187651 0.12971897 113 120 66
0.00657447 0.10197681 0.12946250 94 104 51
0.03261856 0.11531885 0.13573983 114 146 21
0.03259758 0.11544228 0.13583282 113 145 18
0.03215847 0.11529136 0.13592236 115 147 22
0.00101154 0.10599916 0.12197214 129 123 71
0.00188650 0.10582450 0.12240470 130 135 43
-0.00440393 0.10481003 0.11894712 110 101 96
-0.00423467 0.10485100 0.11893173 112 101 97
-0.00469735 0.10450169 0.11878616 122 111 105
-0.00534542 0.10422460 0.11875001 123 112 108
-0.00380530 0.10387008 0.12196765 141 154 82
-0.00394398 0.10351197 0.12205908 126 141 72
-0.00412493 0.10330556 0.12206580 125 138 69
-0.00378617 0.10411823 0.12186927 142 155 83
-0.01556810 0.10008890 0.11658044 113 137 51
-0.01358855 0.10101748 0.11736370 118 142 66
-0.01489088 0.10016158 0.11693278 121 143 60
-0.00421557 0.10435616 0.11900346 129 116 110
-0.00396998 0.10393683 0.11921114 144 127 119
-0.00408374 0.10389382 0.11915167 142 128 119
-0.00384878 0.10417493 0.11924472 137 122 115
-0.00475406 0.10409064 0.11873154 137 124 116
-0.00157732 0.10465071 0.12017008 134 134 122
-0.00208400 0.10526808 0.11977846 110 127 117
-0.00210167 0.10520231 0.11979133 113 129 119
-0.00180941 0.10439740 0.12015358 140 138 123
-0.00118900 0.10478608 0.12028533 126 128 115
-0.00227785 0.10447955 0.11993997 123 126 107
0.03595487 0.11860900 0.13460650 157 170 64
0.03549349 0.11820614 0.13506812 176 193 81
0.03483674 0.11828590 0.13470414 69 83 8
0.03460136 0.11821765 0.13478608 67 81 6
0.03277049 0.11781324 0.13519607 91 109 25
-0.00397704 0.10564318 0.11939747 76 81 75
-0.01940355 0.10055693 0.11320571 125 110 113
-0.01894630 0.10083546 0.11347625 115 104 102
0.00378032 0.10199843 0.12918575 88 103 36
0.00454614 0.10196625 0.12933722 82 97 38
0.03398490 0.11778956 0.13545281 135 149 70
