-0.58895010 -0.26530200 0.18113516 145 156 54
-0.58556730 -0.26551613 0.18661705 149 159 44
-0.58732301 -0.26384687 0.18425174 141 155 32
-0.58614880 -0.26552606 0.18566035 154 164 51
-0.58849710 -0.26229969 0.18280265 139 154 27
-0.58805811 -0.26439002 0.18287893 143 157 36
-0.58910549 -0.26340899 0.18146332 138 152 29
-0.59757787 -0.26337239 0.15496114 149 160 81
-0.59674311 -0.26355398 0.15431201 156 166 95
-0.59884053 -0.26299804 0.15667509 119 135 47
-0.59836984 -0.26340663 0.15406066 126 140 55
-0.59633768 -0.26328003 0.15666026 165 172 92
-0.59619612 -0.26296097 0.15913764 116 128 30
-0.59517932 -0.26296329 0.15997171 134 149 48
-0.59571290 -0.26304057 0.15895377 144 156 70
-0.59619540 -0.26368257 0.16793677 126 145 4
-0.59516281 -0.26457843 0.16937500 141 158 26
-0.59524280 -0.26529953 0.17203835 153 166 48
-0.59606177 -0.26377994 0.16805775 139 157 19
-0.59524423 -0.26282024 0.16333824 129 144 27
-0.59501767 -0.26399690 0.16709405 140 157 45
-0.59782183 -0.26249447 0.16211882 154 164 78
-0.59794974 -0.26232204 0.16439231 123 138 19
-0.59823769 -0.26260683 0.16020305 129 143 56
-0.50097799 -0.32045195 0.25345153 71 88 8
-0.49931839 -0.32135054 0.25309175 64 84 13
-0.50289547 -0.31892815 0.24941091 53 74 5
-0.50251293 -0.31921065 0.24949843 56 77 8
-0.50094354 -0.32077369 0.24937877 49 77 2
-0.49933642 -0.32194066 0.24976987 48 77 0
-0.49647880 -0.32483175 0.24949867 47 82 2
-0.50126821 -0.32067919 0.24913247 49 77 2
-0.50460643 -0.31981859 0.25333863 116 137 58
-0.50326347 -0.32048494 0.25398427 161 184 94
-0.50428194 -0.32088417 0.25407454 78 113 0
-0.50630075 -0.32408971 0.24461673 52 88 0
-0.50391996 -0.32559055 0.24577950 57 92 0
-0.50454533 -0.32501394 0.24553086 61 97 7
-0.50400448 -0.32600710 0.24559189 52 87 0
-0.50703496 -0.32273978 0.24453442 67 103 5
-0.50282806 -0.32287893 0.24783340 47 79 0
-0.49901658 -0.32394066 0.24876250 51 82 2
-0.49970496 -0.32383117 0.24856654 50 82 0
-0.50107986 -0.32469517 0.24780454 54 86 3
-0.49897486 -0.32514057 0.24836592 49 76 0
-0.49820772 -0.32386470 0.24906281 50 81 1
-0.50017756 -0.32398197 0.24835464 49 81 0
-0.50186992 -0.32061079 0.24893472 50 79 0
-0.50224525 -0.32275090 0.24807484 49 81 0
-0.50189155 -0.32544810 0.24727155 51 83 0
-0.49463052 -0.32465437 0.25006619 38 76 1
-0.49707741 -0.32237804 0.25118899 44 74 0
-0.49561673 -0.32366118 0.25056764 38 72 0
-0.49619487 -0.32257020 0.25119019 43 73 3
-0.49769935 -0.32174483 0.25220811 45 68 0
-0.51190239 -0.31417626 0.24935183 124 165 59
-0.51329613 -0.31190091 0.24854927 147 195 95
-0.50997472 -0.31439215 0.24892361 33 49 10
-0.50862801 -0.31437516 0.24853639 49 79 5
-0.50879079 -0.31440488 0.24859773 45 74 8
-0.50715798 -0.31566700 0.24880140 51 81 7
-0.51184255 -0.31242543 0.24841620 43 73 11
-0.50850987 -0.31507194 0.24886887 50 75 9
-0.51052833 -0.31869531 0.24389666 61 104 0
-0.50700867 -0.32222265 0.24483845 68 105 2
-0.51243788 -0.31543180 0.24414676 74 122 2
-0.50896943 -0.31912321 0.24495338 70 114 3
-0.51138794 -0.31708723 0.24408759 69 114 0
-0.51152974 -0.31687102 0.24409148 69 114 0
-0.51004738 -0.31775501 0.24482729 72 117 0
-0.50858563 -0.32056880 0.24445789 63 106 1
-0.51093525 -0.31687993 0.24458142 76 121 4
-0.51107192 -0.31664559 0.24459976 77 120 4
-0.49561667 -0.32264936 0.25242630 39 65 2
-0.49191576 -0.32466418 0.25103331 44 78 1
-0.49784642 -0.32161260 0.25173408 47 73 2
-0.49827570 -0.32178974 0.25301546 51 69 7
-0.50099474 -0.31973353 0.25073510 49 71 0
-0.50241584 -0.31897438 0.25089422 56 70 11
-0.50330561 -0.31850550 0.25102895 60 70 18
-0.50370979 -0.31817770 0.25046283 42 57 2
-0.46873820 -0.33769202 0.24994095 127 154 83
-0.46901470 -0.33869487 0.24988100 144 171 100
-0.49352774 -0.32453233 0.25301704 187 211 133
-0.49235657 -0.32760558 0.25217116 112 138 51
-0.48731336 -0.32878417 0.25163049 138 164 77
-0.49306512 -0.32474732 0.25293994 187 211 133
-0.48637497 -0.32945687 0.25141323 136 160 72
-0.48906302 -0.32786903 0.25194833 133 161 76
-0.50535417 -0.32056108 0.25368550 88 126 17
-0.50386083 -0.32184872 0.25189430 71 113 1
-0.46955699 -0.33803740 0.24951643 144 168 94
-0.46893141 -0.33822024 0.24999358 140 166 93
-0.47105697 -0.33896643 0.24772954 118 146 72
-0.47011766 -0.34014663 0.24770358 134 166 83
-0.46831164 -0.34162194 0.24797451 113 147 63
-0.46949196 -0.33655110 0.24948315 150 174 96
-0.47053117 -0.33653346 0.24904466 152 177 94
-0.46902055 -0.33651000 0.24970588 138 162 84
-0.46941552 -0.33949053 0.24845847 130 161 81
-0.46794674 -0.34145388 0.24842319 113 147 63
-0.50531846 -0.31843489 0.24825130 55 84 4
-0.50632751 -0.32047182 0.24636565 55 91 1
-0.50600255 -0.32120529 0.24623662 55 89 2
-0.50976658 -0.31750229 0.24519117 73 117 4
-0.50823992 -0.31660497 0.24688657 59 101 1
-0.50728005 -0.31665570 0.24762668 67 100 11
-0.50943619 -0.31717846 0.24562676 61 107 0
-0.50583750 -0.32007349 0.24696824 57 91 4
-0.50971639 -0.31745315 0.24525729 73 117 4
-0.50837266 -0.31702727 0.24655673 60 105 2
-0.50643820 -0.31738839 0.24791110 60 89 5
-0.50761050 -0.31979957 0.24569669 55 97 0
-0.50426292 -0.32210794 0.24714836 58 90 5
-0.50541812 -0.32040817 0.24712600 54 86 3
-0.49881706 -0.32350972 0.25456676 66 74 25
-0.49916023 -0.32320222 0.25436604 29 29 1
-0.47331494 -0.33887461 0.25151622 169 191 119
-0.47046426 -0.34123576 0.25370494 149 174 109
-0.46961784 -0.34155405 0.25381568 146 170 108
-0.46948445 -0.34027758 0.25196475 151 173 109
-0.47186944 -0.33928800 0.25152203 158 179 110
-0.50036603 -0.32146180 0.25412282 96 104 47
-0.50295109 -0.32074559 0.25410804 178 197 115
-0.50007141 -0.32525188 0.25132707 78 116 13
-0.49735293 -0.32613459 0.25201041 87 122 30
-0.49826029 -0.32552224 0.25358877 82 120 9
-0.49951199 -0.32505542 0.25361750 77 116 1
-0.47096422 -0.33747980 0.24897145 152 175 95
-0.47274449 -0.33785850 0.25002152 161 183 108
-0.46982902 -0.33879182 0.25013062 144 167 95
-0.48664647 -0.32993686 0.24891189 38 82 7
-0.48703775 -0.32867566 0.25045526 44 81 1
-0.48669881 -0.32908660 0.25027114 144 180 92
-0.48682669 -0.32952017 0.24934509 39 81 7
-0.48075852 -0.33164999 0.24935961 52 89 9
-0.47916549 -0.33175865 0.24992792 146 176 80
-0.48395246 -0.33128279 0.24861166 29 75 10
-0.47837231 -0.33204535 0.24960116 162 191 99
-0.48435590 -0.33113763 0.24877617 30 76 11
-0.51194930 -0.31732592 0.24930766 96 143 39
-0.51176423 -0.31814450 0.24892873 83 132 27
-0.50922769 -0.31821108 0.25161129 83 139 32
-0.51290369 -0.31531841 0.24969842 140 173 68
-0.47525206 -0.33638468 0.25052214 159 180 103
-0.47594622 -0.33573809 0.25050312 160 182 100
-0.48123512 -0.33133584 0.25053439 150 180 82
-0.47872180 -0.33391944 0.25068477 154 177 97
-0.47633201 -0.33620873 0.25077152 157 180 102
-0.47555125 -0.33601487 0.25048333 157 180 98
-0.47758514 -0.33230978 0.24981910 155 182 85
-0.47757378 -0.33334121 0.25016248 155 180 89
-0.47903123 -0.33393627 0.25077879 154 177 97
-0.50653636 -0.31866956 0.25175604 113 142 49
-0.50598079 -0.31844413 0.25144655 34 51 0
-0.50369966 -0.31854007 0.25199249 49 57 8
-0.50523603 -0.31863955 0.25191665 62 72 12
-0.50789249 -0.31781825 0.25098270 105 142 36
-0.50699729 -0.31824499 0.25102332 140 162 80
-0.50769621 -0.31716910 0.25022131 30 45 0
-0.50911623 -0.31788039 0.25159666 86 139 33
-0.51167059 -0.31510475 0.24986497 133 171 68
-0.50576085 -0.31692323 0.24909727 56 82 8
-0.49515772 -0.32427970 0.25472462 154 184 94
-0.49422532 -0.32403451 0.25367764 190 210 141
-0.51445520 -0.31118548 0.24579832 70 120 9
-0.51558870 -0.30864197 0.24698576 65 121 24
-0.51787096 -0.30965108 0.24468412 77 121 6
-0.51733726 -0.31033877 0.24451530 74 118 3
-0.51578581 -0.31139719 0.24474467 69 113 0
-0.51688761 -0.30873784 0.24604201 49 105 0
-0.52294797 -0.30551338 0.24444950 73 102 38
-0.51570094 -0.31060216 0.24541010 63 111 1
-0.51550537 -0.31004390 0.24596846 59 113 2
-0.51634175 -0.31000033 0.24544139 59 109 0
-0.51705348 -0.31102014 0.24418387 72 114 2
-0.51652873 -0.31076738 0.24472897 71 115 2
-0.49049729 -0.33167586 0.25035274 124 148 74
-0.48728025 -0.33315572 0.25069159 123 149 76
-0.49269405 -0.32953081 0.25106227 110 135 54
-0.49561992 -0.32992369 0.24931209 106 136 64
-0.49248451 -0.33140007 0.24961405 120 144 68
-0.48958790 -0.33164787 0.25081870 112 136 60
-0.49111447 -0.33064252 0.25090930 113 137 59
-0.49488425 -0.33005857 0.24955836 111 139 64
-0.47224438 -0.33570322 0.24895297 163 186 96
-0.47306854 -0.33707494 0.24980010 159 182 100
-0.47226873 -0.33700207 0.24937707 158 182 98
-0.47196463 -0.33626646 0.24899170 161 185 97
-0.49588168 -0.32525361 0.25509369 112 148 61
-0.49480805 -0.32662451 0.25320289 101 136 42
-0.49887365 -0.32483318 0.25466442 81 118 5
-0.49916333 -0.32796240 0.24676643 57 94 1
-0.50284874 -0.32705748 0.24555559 62 102 3
-0.50297636 -0.32700077 0.24553497 62 102 3
-0.50210178 -0.32597661 0.24686234 51 87 0
-0.49920502 -0.32931560 0.24560815 71 110 1
-0.50463492 -0.32675475 0.24485475 39 81 0
-0.49594104 -0.32410753 0.25511193 151 173 100
-0.49652308 -0.32436687 0.25569856 143 168 87
-0.49537641 -0.32330614 0.25391260 52 62 12
-0.49607906 -0.32862261 0.25017285 96 128 45
-0.49532685 -0.32695752 0.25192860 99 133 39
-0.49964443 -0.32598254 0.25067252 82 120 21
-0.49719888 -0.32765123 0.25044885 91 125 38
-0.49643016 -0.32746273 0.25097576 92 127 35
-0.50059259 -0.32795718 0.24815899 74 112 25
-0.50561410 -0.32567951 0.24681747 65 107 5
-0.50483161 -0.32607004 0.24693279 65 107 7
-0.50151247 -0.32797351 0.24677162 69 110 6
-0.50813812 -0.32418710 0.24705827 71 113 15
-0.50260991 -0.32761428 0.24611370 65 108 1
-0.50215721 -0.32767934 0.24660398 68 109 5
-0.50336796 -0.32686061 0.24699028 66 108 8
-0.50221920 -0.32703435 0.24821161 76 115 26
-0.49972859 -0.32840446 0.24824400 84 119 35
-0.46835008 -0.34220016 0.25280693 147 174 107
-0.46830949 -0.34126985 0.25189283 139 166 97
-0.46838832 -0.34254822 0.25324318 137 164 95
-0.51054436 -0.32073832 0.24857634 78 126 24
-0.50925028 -0.31897134 0.25106195 72 129 24
-0.51059151 -0.32066721 0.24857140 78 126 24
-0.50985688 -0.32092661 0.24918456 80 127 25
-0.50896919 -0.32061666 0.25031948 74 125 20
-0.50307608 -0.32239410 0.25217417 73 112 3
-0.50133443 -0.32366732 0.25334725 74 112 1
-0.50798506 -0.31967962 0.25182492 64 119 15
-0.50626421 -0.32033777 0.25196037 74 122 22
-0.50687963 -0.32187605 0.25023565 69 116 10
-0.50638711 -0.32053903 0.25171608 74 122 22
-0.50821096 -0.32254016 0.24902202 72 118 20
-0.49953827 -0.32274595 0.25425410 59 56 39
-0.49997610 -0.32274312 0.25430375 121 121 97
-0.50168145 -0.32213181 0.25448772 135 154 90
-0.50577587 -0.32306147 0.24978988 69 116 14
-0.50318986 -0.32252279 0.25136942 73 112 5
-0.50439864 -0.32311669 0.25040862 74 119 16
-0.50749671 -0.32278731 0.24915010 71 117 19
-0.50061780 -0.32627892 0.24989723 79 116 20
-0.50017202 -0.32699436 0.24950734 93 131 44
-0.49997842 -0.32575303 0.25069681 81 119 20
-0.50623858 -0.32478341 0.24822490 81 119 32
-0.49998456 -0.32680678 0.24977100 81 117 29
-0.50393301 -0.32547379 0.24884349 82 125 35
-0.50187409 -0.32682624 0.24875163 75 113 28
-0.50190324 -0.32552227 0.24987778 72 109 13
-0.50142092 -0.32660174 0.24918856 84 122 37
-0.49189943 -0.32482284 0.25238302 117 130 77
-0.49237794 -0.32449576 0.25275236 199 215 150
-0.48683709 -0.32863498 0.25122792 148 172 74
-0.48702180 -0.32847229 0.25108525 138 168 72
-0.48762709 -0.33114597 0.25126386 120 147 70
-0.49236584 -0.32847008 0.25202644 114 140 53
-0.48543543 -0.33086619 0.25111741 126 154 67
-0.48712933 -0.33090067 0.25125530 123 150 71
-0.49143773 -0.32882851 0.25189960 118 143 59
-0.48917991 -0.33112729 0.25139710 119 143 69
-0.51010960 -0.31391585 0.24732542 60 101 7
-0.51243269 -0.31375101 0.24538693 66 113 1
-0.51194638 -0.31431547 0.24534701 66 113 1
-0.51104492 -0.31429124 0.24617338 69 113 2
-0.51291269 -0.31382710 0.24489374 60 108 0
-0.51405203 -0.31003940 0.24706084 64 112 10
-0.51393276 -0.31008077 0.24713272 55 103 3
-0.51409090 -0.30984047 0.24719343 56 104 5
-0.51432723 -0.30950448 0.24726470 52 102 7
-0.51259613 -0.31113935 0.24743743 54 98 1
-0.51382399 -0.31110391 0.24636942 65 115 2
-0.47297421 -0.33460906 0.24893788 157 181 95
-0.47115973 -0.33560511 0.24923582 119 146 67
-0.47060379 -0.33534926 0.24959221 124 151 70
-0.50213212 -0.32334059 0.25169995 73 110 4
-0.50162357 -0.32351980 0.25282741 73 111 0
-0.50166315 -0.32372963 0.25184074 77 114 8
-0.49853250 -0.32932237 0.24721499 80 116 28
-0.49750647 -0.32989889 0.24665503 86 123 30
-0.49552888 -0.33083329 0.24650638 73 107 21
-0.49755126 -0.32960230 0.24810801 90 124 48
-0.49838132 -0.32931146 0.24763697 81 116 34
-0.48018876 -0.33905801 0.25122830 153 175 102
-0.47970629 -0.33747032 0.25100800 152 174 101
-0.47796732 -0.33950883 0.25121725 157 179 106
-0.47872916 -0.33957356 0.25124940 159 181 108
-0.47759157 -0.33701074 0.25088260 157 179 106
-0.47829476 -0.33710983 0.25091735 158 180 107
-0.47612858 -0.33838591 0.25101468 157 179 106
-0.48084134 -0.33349910 0.25105959 147 170 90
-0.47878975 -0.33619925 0.25089571 146 169 97
-0.48251519 -0.33364415 0.25095320 136 158 83
-0.48438501 -0.33160618 0.25105935 137 165 80
-0.47887090 -0.33489174 0.25102496 149 173 99
-0.48107564 -0.33424821 0.25097018 143 165 92
-0.48185667 -0.33350402 0.25100356 140 163 85
-0.47962993 -0.33456689 0.25101668 144 168 94
-0.60955364 -0.19411844 0.21044885 117 155 78
-0.60837424 -0.19833748 0.20799746 171 188 118
-0.60975432 -0.19480869 0.20965727 116 153 76
-0.61220300 -0.18728985 0.21008484 76 98 15
-0.61055768 -0.18980421 0.21024299 85 101 28
-0.61233318 -0.18721405 0.20970167 79 101 18
-0.61173964 -0.19256702 0.20892313 77 98 5
-0.61192477 -0.19229299 0.20895810 92 113 20
-0.61130995 -0.19646354 0.20788823 213 214 182
-0.61246502 -0.19392520 0.20848973 161 165 114
-0.61069763 -0.19844529 0.20735370 204 209 169
-0.61145806 -0.18979056 0.20922692 76 100 16
-0.61055732 -0.19164449 0.20907353 81 104 14
-0.61164558 -0.19870232 0.20717686 197 193 181
-0.61089957 -0.19989648 0.20685488 195 193 172
-0.61138374 -0.20070013 0.20662986 197 190 172
-0.61304259 -0.19372043 0.20861849 102 105 50
-0.61262625 -0.19739395 0.20914860 155 174 118
-0.61264729 -0.19658850 0.20942196 156 175 120
-0.61286241 -0.19823082 0.20743389 194 184 172
-0.60900438 -0.19366840 0.20883822 83 106 2
-0.60882372 -0.19485398 0.20896840 82 107 6
-0.60859627 -0.19603199 0.20880610 84 114 16
-0.61163831 -0.19356658 0.20924002 139 172 101
-0.61260009 -0.19560075 0.20960684 146 180 104
-0.61242950 -0.19050662 0.20939761 131 162 92
-0.61200595 -0.19481812 0.20939468 138 172 98
-0.60989422 -0.19807926 0.20754725 63 85 2
-0.60961121 -0.19713433 0.20787144 73 99 10
-0.60986871 -0.19805163 0.20755735 63 85 2
-0.60916501 -0.19606143 0.20812733 76 104 4
-0.61007732 -0.19365308 0.20884646 77 103 4
-0.60973215 -0.19479437 0.20851672 72 100 0
-0.61005455 -0.19148846 0.21083036 96 122 51
-0.61112946 -0.18912917 0.21133322 101 128 57
-0.61160910 -0.18811136 0.21160457 96 126 52
-0.61173910 -0.18791810 0.21170910 97 129 53
-0.61170912 -0.18929189 0.21093941 99 131 58
-0.61108196 -0.18946488 0.21157813 92 122 50
-0.61251777 -0.18846777 0.21029979 118 152 76
-0.61275023 -0.18853214 0.20991701 130 160 86
-0.61291534 -0.18805824 0.20997739 132 163 87
-0.61324263 -0.18873976 0.20952497 125 155 85
-0.55752397 -0.28226686 0.23060818 133 173 58
-0.55797482 -0.28248456 0.22983868 126 170 46
-0.55856693 -0.28232449 0.22902997 113 160 20
-0.55968344 -0.28181252 0.22760013 106 150 11
-0.56371510 -0.28208277 0.22353856 124 164 42
-0.56340641 -0.28638047 0.22522426 137 174 68
-0.56574619 -0.28216442 0.22193715 118 157 38
-0.56306553 -0.28659546 0.22556953 131 170 63
-0.56502354 -0.28400460 0.22313239 127 164 61
-0.56634074 -0.28228909 0.22150207 121 158 52
-0.56666917 -0.28197294 0.22113290 124 159 57
-0.56240273 -0.28386909 0.22518875 130 169 44
-0.56579238 -0.28364620 0.22239593 129 165 59
-0.56597871 -0.28198028 0.22168906 119 158 43
-0.56100613 -0.28359717 0.22624318 120 158 37
-0.56115013 -0.28625327 0.22703502 119 155 45
-0.55840969 -0.28437927 0.22872820 131 170 55
-0.55963278 -0.28444803 0.22770818 122 162 37
-0.55961031 -0.28429592 0.22767495 122 162 37
-0.56106144 -0.28493676 0.22665730 128 167 50
-0.56066269 -0.28426248 0.22676535 120 160 37
-0.55579197 -0.27998787 0.23011936 49 60 4
-0.55784428 -0.28015912 0.22818911 171 192 87
-0.55727595 -0.28004202 0.22902302 42 50 1
-0.55853039 -0.28118142 0.22933851 104 151 11
-0.55762774 -0.28070882 0.22996140 141 171 57
-0.52911180 -0.29958728 0.24422148 41 72 13
-0.52750826 -0.30002880 0.24757764 30 58 9
-0.53063822 -0.29754591 0.24515608 54 67 41
-0.52884120 -0.29965246 0.24481156 41 75 15
-0.52778989 -0.29959279 0.24790129 21 50 4
-0.52684623 -0.30169719 0.24517766 59 99 29
-0.53135121 -0.29708439 0.24433939 51 71 43
-0.52774471 -0.30081746 0.24490799 57 103 31
-0.53173798 -0.29697701 0.24353196 54 77 35
-0.56724596 -0.27749127 0.21576168 112 139 6
-0.57412392 -0.27500638 0.20968549 125 148 18
-0.57101625 -0.27456284 0.21117587 140 159 17
-0.57136977 -0.27362287 0.21021275 137 155 11
-0.56829131 -0.27627388 0.21416534 119 145 12
-0.57002342 -0.27549523 0.21251269 138 161 19
-0.56985486 -0.27480325 0.21205832 132 155 15
-0.55313885 -0.28212297 0.23255084 204 215 147
-0.56858343 -0.27538624 0.21325605 115 139 0
-0.56897199 -0.27432829 0.21214719 124 147 5
-0.56777555 -0.27651018 0.21464658 116 142 9
-0.56844497 -0.27529079 0.21324934 115 139 0
-0.56476313 -0.27694032 0.21717453 103 130 0
-0.56335008 -0.27859366 0.22000936 106 140 2
-0.56477535 -0.27687952 0.21710594 103 130 0
-0.55076134 -0.28748250 0.23332140 158 187 77
-0.54893631 -0.28811711 0.23379968 157 186 76
-0.55168819 -0.28764343 0.23307937 158 187 77
-0.55220717 -0.28856900 0.23294534 150 179 73
-0.55241477 -0.28782284 0.23288973 151 180 70
-0.55099028 -0.28913245 0.23326451 155 184 76
-0.54761857 -0.29555288 0.23629487 133 164 71
-0.55201840 -0.29246017 0.23378776 141 172 79
-0.54775608 -0.29450977 0.23592991 138 170 71
-0.55183727 -0.29503748 0.23463289 140 172 73
-0.55058169 -0.29572502 0.23528929 143 173 77
-0.54927921 -0.29395208 0.23521735 133 164 70
-0.54602569 -0.29443017 0.23652349 142 175 70
-0.54698986 -0.29408118 0.23607363 136 169 65
-0.55035275 -0.29203415 0.23425333 150 181 88
-0.55040759 -0.29329458 0.23461545 135 165 77
-0.54586565 -0.29522571 0.23682152 132 167 65
-0.55070490 -0.29269126 0.23432660 127 157 69
-0.54810876 -0.29368398 0.23555395 148 180 79
-0.57951409 -0.26773107 0.20141958 135 161 12
-0.58054709 -0.26860768 0.19982584 136 154 16
-0.57966393 -0.26788273 0.20121531 136 162 13
-0.57757002 -0.26876670 0.20417120 143 168 24
-0.57732785 -0.26917773 0.20439139 137 163 14
-0.57617575 -0.26945108 0.20549312 142 165 22
-0.57660043 -0.26895878 0.20467328 143 170 29
-0.53127062 -0.30813527 0.24511681 141 164 73
-0.52893335 -0.30885497 0.24571425 125 148 57
-0.52826726 -0.30788577 0.24613926 136 160 64
-0.53199369 -0.30845624 0.24481405 143 166 75
-0.52701676 -0.30941176 0.24621135 121 147 50
-0.53078127 -0.30747125 0.24541865 126 149 58
-0.52731729 -0.30969304 0.24605343 123 148 56
-0.53169733 -0.30217385 0.24525452 133 155 47
-0.52899468 -0.30393323 0.24643588 133 155 54
-0.52993715 -0.30415162 0.24580665 135 158 52
-0.53008169 -0.30362692 0.24585593 130 153 47
-0.52996689 -0.30295134 0.24610205 124 149 45
-0.52805954 -0.30538228 0.24662517 129 154 53
-0.53149372 -0.30249101 0.24529533 133 154 49
-0.52773553 -0.30195004 0.24771830 137 154 99
-0.56419092 -0.27788353 0.21940349 112 138 5
-0.56304717 -0.27784601 0.21970153 104 136 1
-0.56211001 -0.27872628 0.22156870 104 145 7
-0.58010566 -0.27712619 0.20835668 141 165 7
-0.58043224 -0.27643964 0.20827916 139 164 8
-0.58139992 -0.27591190 0.20660362 154 171 31
-0.57850605 -0.26968676 0.20287074 137 160 10
-0.57891548 -0.26800615 0.20267831 129 162 13
-0.53165960 -0.30504000 0.24511921 131 157 58
-0.53321880 -0.30498466 0.24451110 123 150 47
-0.53064966 -0.30437344 0.24549252 124 146 45
-0.53116870 -0.30598441 0.24533792 128 152 58
-0.53277975 -0.30334941 0.24463388 131 157 50
-0.53253710 -0.30494916 0.24477522 132 160 58
-0.53127563 -0.30713302 0.24533004 123 146 55
-0.57858843 -0.26795021 0.19960883 142 142 30
-0.57983375 -0.26717016 0.19904092 147 165 43
-0.57735801 -0.26845840 0.20165181 129 138 19
-0.57591397 -0.26922065 0.20311335 126 136 11
-0.57909596 -0.26739004 0.20074506 145 159 38
-0.56818396 -0.27489790 0.21262816 113 133 10
-0.56779730 -0.27475408 0.21215582 113 134 5
-0.58244866 -0.26750410 0.19487873 133 161 14
-0.58319795 -0.26830673 0.19442169 133 157 19
-0.58197129 -0.26742959 0.19566865 131 159 14
-0.52571779 -0.31175005 0.24615403 132 159 66
-0.52584249 -0.30866584 0.24682467 129 153 55
-0.52547574 -0.30857643 0.24698892 130 156 57
-0.52116925 -0.30932111 0.24849914 136 164 64
-0.52634788 -0.31018955 0.24627164 124 149 55
-0.52657712 -0.30969080 0.24629834 120 146 49
-0.52350587 -0.31146917 0.24702749 113 142 50
-0.52205187 -0.31126136 0.24759947 118 152 58
-0.52393645 -0.31312710 0.24635184 129 163 69
-0.52072561 -0.31446114 0.24704637 110 143 52
-0.52102363 -0.31486881 0.24681334 122 155 64
-0.52198821 -0.31297264 0.24707894 107 138 44
-0.52465355 -0.31158626 0.24659088 114 141 48
-0.51904243 -0.31553316 0.24729224 104 139 47
-0.52072835 -0.31256813 0.24764571 117 151 56
-0.54138315 -0.29688957 0.23921433 125 159 46
-0.53975463 -0.29787907 0.24030727 122 155 40
-0.54042894 -0.29924622 0.24049608 131 162 58
-0.54168594 -0.30042532 0.24035373 144 176 79
-0.53662580 -0.30017126 0.24254829 130 157 44
-0.54220980 -0.29954812 0.23980044 135 166 72
-0.53947127 -0.30096045 0.24154751 129 155 54
-0.53682882 -0.30027431 0.24249376 133 160 47
-0.53637952 -0.29966745 0.24247772 132 159 44
-0.53628069 -0.30148646 0.24317893 136 163 50
-0.53742170 -0.30141374 0.24263714 136 164 54
-0.52465397 -0.30353072 0.24904187 143 171 86
-0.52406967 -0.30388981 0.24897510 155 179 103
-0.52441835 -0.30309644 0.24879065 140 154 103
-0.54228532 -0.29549909 0.23830517 127 162 46
-0.53792989 -0.29567549 0.24057861 113 150 37
-0.53616965 -0.29919794 0.24244936 136 163 48
-0.53296065 -0.29667047 0.24339141 125 145 76
-0.53531581 -0.29831460 0.24264187 140 163 47
-0.53378850 -0.29754552 0.24320988 148 167 42
-0.53305298 -0.29645172 0.24328390 150 168 94
-0.53897041 -0.29777950 0.24062747 130 159 43
-0.53453839 -0.29912022 0.24326120 132 156 44
-0.53702378 -0.29600558 0.24113251 111 149 36
-0.57130319 -0.27293700 0.20971929 145 162 21
-0.57345510 -0.27135345 0.20738211 144 162 26
-0.57177377 -0.27265853 0.20945635 145 164 13
-0.52316254 -0.30299309 0.24830568 116 136 83
-0.52570879 -0.30234849 0.24646813 61 54 10
-0.52501148 -0.30168429 0.24831638 42 46 19
-0.52383590 -0.30281165 0.24783729 32 30 15
-0.52630198 -0.30077183 0.24832214 36 50 14
-0.52192760 -0.30731148 0.24881594 136 163 56
-0.52105206 -0.30806378 0.24855448 134 159 55
-0.52304375 -0.30615708 0.24912131 135 163 53
-0.57898140 -0.27121902 0.20303947 129 150 13
-0.57723695 -0.27286512 0.20575608 127 145 11
-0.57663327 -0.27283135 0.20632847 130 151 10
-0.58059484 -0.26971257 0.20053661 133 149 14
-0.51911265 -0.30880263 0.24821380 130 167 74
-0.51702583 -0.30771801 0.24765268 116 165 86
-0.52025074 -0.30728468 0.24828175 133 163 63
-0.52099043 -0.30596161 0.24828795 140 168 65
-0.52028590 -0.30633622 0.24818212 146 183 87
-0.57851362 -0.26859850 0.20059337 130 136 14
-0.57857549 -0.26849040 0.20039831 131 135 15
-0.51943487 -0.30564529 0.24792509 142 186 88
-0.52171326 -0.30551079 0.24567607 82 73 32
-0.51863891 -0.30710912 0.24618138 48 95 15
-0.52243620 -0.30485061 0.24606484 80 64 38
-0.51730043 -0.30734497 0.24722259 116 163 82
-0.52086157 -0.30505565 0.24741901 160 195 115
-0.51831299 -0.30693394 0.24685016 111 153 81
-0.56699485 -0.28397122 0.22177131 136 171 53
-0.56579292 -0.28770989 0.22617309 139 174 44
-0.57029426 -0.28588670 0.22404408 135 168 25
-0.57105118 -0.28676432 0.22508200 138 170 33
-0.56861538 -0.28402987 0.22184771 140 173 40
-0.56765950 -0.28330514 0.22098911 133 166 51
-0.56840509 -0.28431886 0.22218743 142 175 42
-0.56966603 -0.28453064 0.22244272 145 179 43
-0.56835073 -0.28345188 0.22116520 134 169 43
-0.56986719 -0.28441772 0.22231050 140 173 40
-0.56678891 -0.28698087 0.22531818 141 176 48
-0.56459415 -0.28615195 0.22433120 135 173 64
-0.56572920 -0.28513327 0.22313547 136 173 60
-0.58201981 -0.26935545 0.19880666 130 146 13
-0.58394462 -0.26903993 0.19653818 130 147 17
-0.58355653 -0.26913559 0.19711904 129 146 14
-0.58489752 -0.26860341 0.19433483 132 150 28
-0.57595044 -0.27276307 0.20702545 132 154 17
-0.57564783 -0.27338454 0.20771077 127 149 14
-0.57526112 -0.27452004 0.20875229 121 143 16
-0.52687103 -0.30517882 0.24746914 125 151 50
-0.52675921 -0.30318797 0.24805756 137 161 77
-0.52700859 -0.30049661 0.24856250 23 39 10
-0.52609187 -0.30344105 0.24847709 145 169 91
-0.52413273 -0.30745846 0.24790093 135 158 50
-0.52456957 -0.30543277 0.24894340 126 158 49
-0.52348185 -0.30626699 0.24904948 136 162 52
-0.52201796 -0.30846927 0.24849945 136 163 58
-0.57025218 -0.27329427 0.20895655 120 133 19
-0.57086062 -0.27311292 0.20952947 157 171 48
-0.56705105 -0.29161474 0.22811571 159 194 64
-0.57003826 -0.28782329 0.22632261 150 183 52
-0.56711912 -0.28983921 0.22780210 137 172 44
-0.58296865 -0.27184927 0.20424591 124 142 34
-0.58344448 -0.26986268 0.19909409 126 142 17
-0.58258861 -0.27099007 0.20243695 124 144 23
-0.58196139 -0.26963294 0.19959886 128 143 14
-0.58480382 -0.26988471 0.19817480 123 139 17
-0.58226973 -0.26955330 0.19918542 127 142 13
-0.58409452 -0.26947379 0.19768716 127 144 16
-0.58389431 -0.27009922 0.19934510 122 138 14
-0.57761019 -0.28077459 0.21207315 126 150 2
-0.57867843 -0.28126526 0.21132100 140 163 21
-0.57677019 -0.28109044 0.21290621 124 148 0
-0.57593697 -0.28213826 0.21398543 117 147 1
-0.57790607 -0.28300321 0.21258534 125 150 6
-0.58182758 -0.27130029 0.20330267 123 142 16
-0.58048677 -0.26993507 0.20084363 129 144 15
-0.57988000 -0.27054498 0.20180307 124 142 8
-0.58021569 -0.27189121 0.20411408 121 139 17
-0.57777637 -0.27313313 0.20592886 129 148 20
-0.57991076 -0.27296391 0.20588954 119 139 28
-0.58033329 -0.27039441 0.20160127 124 141 9
-0.57929945 -0.27193460 0.20408165 124 142 24
-0.57577789 -0.27508232 0.20898834 122 146 32
-0.58271521 -0.27199712 0.20458123 124 142 34
-0.57070225 -0.27332616 0.21025543 144 161 23
-0.57038021 -0.27348757 0.21060427 148 163 34
-0.57698894 -0.27913693 0.21162803 135 160 14
-0.57528532 -0.27826399 0.21163659 126 154 33
-0.57527602 -0.28002885 0.21304518 130 157 16
-0.57715923 -0.27943990 0.21179885 133 159 10
-0.57674593 -0.27948901 0.21200858 133 159 8
-0.57776242 -0.27737334 0.20990492 142 166 20
-0.56329924 -0.27996176 0.22160882 121 161 10
-0.56220460 -0.28054044 0.22321947 124 166 20
-0.56365567 -0.27956125 0.22084141 118 159 5
-0.56261379 -0.28066614 0.22300921 120 159 16
-0.56680447 -0.29220358 0.22653192 186 197 79
-0.56784469 -0.29148066 0.22559817 113 129 5
-0.56670749 -0.29242238 0.22720124 178 196 74
-0.56857228 -0.29078346 0.22420852 103 122 4
-0.57572341 -0.27636209 0.20867079 113 127 13
-0.57528108 -0.27697876 0.20985994 112 126 15
-0.57489341 -0.27665433 0.20994817 101 115 4
-0.57698137 -0.27752072 0.20850104 139 156 18
-0.57593364 -0.27734074 0.20950824 110 124 10
-0.57213259 -0.28701222 0.22534522 139 173 35
-0.56867838 -0.29044464 0.22391529 107 127 4
-0.56850964 -0.29037797 0.22351196 109 127 9
-0.55614537 -0.28525937 0.23054610 142 176 64
-0.55416697 -0.28766635 0.23190582 142 170 59
-0.55391443 -0.28466690 0.23186563 155 184 76
-0.55548573 -0.28551385 0.23096405 144 174 62
-0.55389947 -0.28711140 0.23203276 146 174 61
-0.55449778 -0.28628892 0.23161545 145 174 58
-0.55286330 -0.28802240 0.23272230 151 180 72
-0.55401880 -0.28770557 0.23199855 143 171 61
-0.57259810 -0.28144172 0.21602805 127 159 22
-0.57305145 -0.28182966 0.21597202 125 158 19
-0.57360929 -0.28054568 0.21454491 129 161 26
-0.57098615 -0.28151295 0.21734589 125 158 27
-0.57198626 -0.27936989 0.21490985 134 163 55
-0.57348698 -0.28087389 0.21489380 128 160 25
-0.57108033 -0.28155193 0.21730217 125 158 27
-0.57444900 -0.27894619 0.21265364 127 157 23
-0.57449585 -0.27901879 0.21267292 127 157 23
-0.57488638 -0.27604228 0.21007179 126 149 45
-0.55994892 -0.29168957 0.22541527 106 128 1
-0.55969173 -0.29248011 0.22566612 115 138 6
-0.55955541 -0.29152507 0.22558860 101 122 1
-0.56246889 -0.29328844 0.22438884 130 147 6
-0.55919778 -0.29509550 0.22631595 103 125 0
-0.55838573 -0.29406089 0.22656718 112 135 3
-0.56169784 -0.29270273 0.22468811 107 128 0
-0.56263316 -0.29386699 0.22439459 131 150 6
-0.56695426 -0.29089102 0.22175868 104 123 8
-0.56313264 -0.29398885 0.22416127 120 140 6
-0.57716781 -0.27794877 0.20884049 137 153 18
-0.57700646 -0.27827412 0.20944926 139 155 23
-0.57933974 -0.27803683 0.20737764 144 160 12
-0.57989031 -0.27658039 0.20477848 129 143 20
-0.56907606 -0.29042539 0.22614269 157 152 84
-0.56915277 -0.29054534 0.22556975 122 132 7
-0.57044923 -0.28894085 0.22565891 167 174 81
-0.56824571 -0.29135066 0.22636083 134 139 23
-0.57159889 -0.27604377 0.21186981 124 140 7
-0.57146400 -0.27547035 0.21145093 131 147 12
-0.56804842 -0.27815664 0.21627586 117 137 6
-0.57076430 -0.27549928 0.21197173 133 149 16
-0.57038951 -0.27703264 0.21361205 123 138 9
-0.57041788 -0.27779385 0.21427469 118 133 8
-0.58305824 -0.27281448 0.20527111 126 144 32
-0.58132952 -0.27461684 0.20415519 135 150 23
-0.58152676 -0.27437276 0.20421834 135 150 23
-0.58021116 -0.27793756 0.20702732 156 170 15
-0.58215714 -0.27397630 0.20506018 124 138 25
-0.57576716 -0.27582404 0.20950529 119 144 40
-0.57958597 -0.27726695 0.20926690 141 166 10
-0.57983071 -0.27671066 0.20887907 141 166 10
-0.57688117 -0.27505302 0.20875128 113 136 28
-0.58162814 -0.27374080 0.20667140 127 148 31
-0.58070123 -0.27519298 0.20776431 141 165 29
-0.57963914 -0.27529013 0.20811684 129 154 26
-0.56470448 -0.29021376 0.22765566 154 188 52
-0.56494182 -0.28859228 0.22719184 138 172 49
-0.56512254 -0.28898799 0.22734210 136 168 41
-0.56552529 -0.29220998 0.22291724 104 124 3
-0.56581193 -0.29268503 0.22599223 132 150 32
-0.56343234 -0.29461592 0.22711930 145 160 59
-0.56425893 -0.29367504 0.22550184 136 154 18
-0.56221968 -0.29542086 0.22688085 146 158 48
-0.56189150 -0.29566598 0.22694024 144 158 44
-0.56173724 -0.29548374 0.22561841 104 125 0
-0.56214619 -0.29514524 0.22539455 104 125 0
-0.56507915 -0.29341689 0.22696213 164 182 60
-0.56084806 -0.29624373 0.22621396 97 116 0
-0.55758184 -0.29433039 0.22705561 103 128 1
-0.55711758 -0.29286200 0.22705244 92 116 2
-0.55642569 -0.29282624 0.22742744 84 108 0
-0.55668646 -0.29594129 0.22783324 109 134 6
-0.55711073 -0.29614446 0.22763526 110 137 6
-0.55812502 -0.29447797 0.22678232 112 138 3
-0.56040710 -0.29483792 0.22982806 130 167 53
-0.56115133 -0.29341143 0.22990392 146 180 59
-0.55928767 -0.29530814 0.23001567 126 165 46
-0.56084096 -0.29403993 0.22986624 140 175 55
-0.55626166 -0.29849616 0.22905049 140 161 82
-0.55595773 -0.29737389 0.22849052 90 113 0
-0.55601192 -0.29850119 0.22873555 87 101 24
-0.57293367 -0.27338433 0.20864107 128 143 18
-0.57340622 -0.27428049 0.20907564 125 137 11
-0.57467669 -0.27397209 0.20793967 124 138 17
-0.57460356 -0.27422550 0.20820485 126 139 21
-0.57346845 -0.27520448 0.20981626 124 138 17
-0.57318699 -0.27550143 0.21026179 124 140 15
-0.57935560 -0.27453759 0.20265782 101 114 24
-0.57967371 -0.27400297 0.20204401 103 113 26
-0.57590955 -0.27457687 0.20721887 110 125 20
-0.57690173 -0.27340603 0.20548460 115 129 16
-0.57593036 -0.27434865 0.20710857 113 128 23
-0.57837629 -0.27457574 0.20396382 102 115 25
-0.57993191 -0.27417174 0.20176454 104 115 23
-0.58333802 -0.26627621 0.19155222 142 161 20
-0.58212537 -0.26656216 0.19425887 140 162 15
-0.58455694 -0.26588717 0.18869534 148 159 37
-0.56970996 -0.28749308 0.22595079 145 177 44
-0.56407136 -0.28806272 0.22659101 142 178 70
-0.56565082 -0.28837612 0.22700290 137 172 42
-0.57596743 -0.27116495 0.20456418 130 141 19
-0.57193816 -0.27358896 0.20948081 121 135 12
-0.57727844 -0.27124098 0.20380920 125 137 13
-0.57555431 -0.27051863 0.20419407 123 132 15
-0.57679558 -0.27146703 0.20433544 124 136 12
-0.56786573 -0.27792025 0.21626371 107 128 1
-0.56611884 -0.27807528 0.21812575 122 137 12
-0.56735259 -0.27847216 0.21716923 109 129 6
-0.56720489 -0.27655014 0.21595648 117 132 13
-0.56666380 -0.27690080 0.21674752 116 129 15
-0.58297300 -0.27254751 0.20348230 125 142 28
-0.58334446 -0.27234131 0.20428512 125 146 29
-0.58249062 -0.27239990 0.19927953 131 140 31
-0.58295923 -0.27225825 0.20119393 145 158 53
-0.58202553 -0.27305660 0.20130625 126 135 26
-0.58296657 -0.27189344 0.19846521 132 141 32
-0.58295953 -0.27244639 0.20262739 123 140 28
-0.58415914 -0.27104783 0.19964610 129 143 29
-0.58150631 -0.27335298 0.20024633 126 135 28
-0.58389217 -0.27118337 0.19897270 139 151 39
-0.58397621 -0.26717955 0.19074537 145 152 38
-0.58436376 -0.26728123 0.19000520 135 143 34
-0.58320588 -0.26764926 0.19268742 139 149 37
-0.58279222 -0.26639640 0.19267513 141 156 29
-0.58439547 -0.26779822 0.19030131 136 145 40
-0.56529176 -0.27753288 0.21843320 117 136 10
-0.56616986 -0.27701968 0.21724249 110 124 13
-0.56903678 -0.27515450 0.21301597 113 131 11
-0.56669831 -0.27575925 0.21482532 123 140 46
-0.58463681 -0.26967475 0.19440338 135 142 47
-0.58417028 -0.26977584 0.19355984 120 128 45
-0.58461648 -0.27000481 0.19560638 132 144 36
-0.58339143 -0.27111620 0.19661176 127 134 41
-0.58455622 -0.26975274 0.19448802 133 140 44
-0.58398324 -0.27018750 0.19463463 113 118 36
-0.58048320 -0.27049637 0.19871922 124 134 37
-0.58198446 -0.27120706 0.19665776 108 116 31
-0.58047724 -0.27394792 0.20074725 108 118 31
-0.58202714 -0.27182364 0.19694792 109 117 31
-0.58019662 -0.27384737 0.20115145 101 111 22
-0.58111161 -0.27331713 0.19933176 115 125 39
-0.58126491 -0.27153936 0.19803928 105 115 29
-0.58081156 -0.27040771 0.19812562 122 133 29
-0.55887371 -0.29638231 0.22843289 137 172 56
-0.55814457 -0.29730237 0.22785282 141 152 58
-0.58102459 -0.26770434 0.19754845 133 138 20
-0.58329338 -0.26913941 0.19360816 127 136 45
-0.58167917 -0.26793456 0.19622983 144 149 29
-0.57803470 -0.27077171 0.20291555 124 135 17
-0.57573867 -0.27008811 0.20367387 124 135 13
-0.57866424 -0.26981840 0.20171413 132 142 17
-0.54557675 -0.29972601 0.23856550 137 169 72
-0.54293591 -0.29918200 0.23938204 136 167 73
-0.54334849 -0.29837620 0.23892081 128 159 65
-0.54602748 -0.29857209 0.23795915 147 178 85
-0.54489952 -0.29707593 0.23783451 128 162 67
-0.54235572 -0.29970527 0.23980220 135 166 72
-0.54245299 -0.29977724 0.23979156 138 169 75
-0.54756135 -0.29819641 0.23722580 136 167 74
-0.54337132 -0.29903287 0.23915796 137 168 75
-0.54738164 -0.29851648 0.23741512 136 167 74
-0.54381436 -0.30078396 0.23964269 139 169 69
-0.54460615 -0.29849571 0.23847967 134 164 74
-0.57292020 -0.27373192 0.20954715 138 155 15
-0.57463616 -0.27157700 0.20772246 139 163 5
-0.57377976 -0.27203032 0.20832098 143 164 7
-0.57199931 -0.27344468 0.20980202 144 163 12
-0.56011492 -0.28791580 0.22809483 132 166 71
-0.55985188 -0.28680223 0.22822721 115 151 43
-0.55591530 -0.28894243 0.23085169 142 173 69
-0.55664480 -0.28909293 0.23038405 125 160 60
-0.55728155 -0.28538615 0.22984463 134 174 59
-0.55781925 -0.28630865 0.22952768 134 173 64
-0.55678141 -0.28645179 0.23020522 134 168 58
-0.56147522 -0.28808585 0.22721902 140 177 82
-0.57924575 -0.27980223 0.20979480 142 164 21
-0.57937628 -0.27984604 0.20943651 146 165 23
-0.57994461 -0.27842715 0.20762312 153 167 18
-0.52822024 -0.30158126 0.24357301 51 93 9
-0.53297746 -0.30009854 0.24258229 72 106 19
-0.52981913 -0.29948720 0.24351643 56 89 20
-0.53119338 -0.29802632 0.24340910 56 78 31
-0.53226560 -0.29924148 0.24291742 54 83 16
-0.53047103 -0.30122325 0.24304476 68 103 21
-0.53098065 -0.30106094 0.24293923 65 101 14
-0.57025999 -0.27713102 0.21371949 119 146 15
-0.57067066 -0.27843693 0.21483365 129 158 42
-0.56925547 -0.28141740 0.21860963 136 168 59
-0.57155788 -0.27682868 0.21273139 123 153 19
-0.56841081 -0.27961901 0.21722156 124 156 33
-0.57286501 -0.27679271 0.21200961 129 157 36
-0.57055795 -0.27718532 0.21361856 117 144 11
-0.56898910 -0.27935961 0.21665440 129 160 41
-0.56697607 -0.27858552 0.21692148 104 136 0
-0.56987840 -0.27774277 0.21454227 118 148 16
-0.55044210 -0.28469124 0.23304130 179 204 100
-0.54989576 -0.28521967 0.23269941 178 200 99
-0.54685253 -0.28867725 0.23138361 92 118 21
-0.54956418 -0.28566495 0.23263448 162 190 80
-0.54671222 -0.28838757 0.23080896 89 110 15
-0.54818356 -0.29035464 0.23449743 158 193 77
-0.55025291 -0.29004121 0.23367044 156 185 77
-0.54770398 -0.28972065 0.23446803 158 191 76
-0.54381335 -0.29419693 0.23723875 130 166 56
-0.54949570 -0.29177061 0.23447815 148 180 79
-0.54895931 -0.28905788 0.23381852 159 189 77
-0.54542559 -0.29190776 0.23545061 148 185 72
-0.54449195 -0.29283959 0.23574819 142 179 66
-0.54657209 -0.28888261 0.23124561 83 109 12
-0.54580891 -0.29066437 0.23357119 146 175 69
-0.54682332 -0.28971460 0.23337565 154 184 72
-0.54752582 -0.28963479 0.23442006 154 187 72
-0.54444331 -0.29304788 0.23608978 145 179 67
-0.56069434 -0.29643428 0.22668245 105 126 9
-0.55895859 -0.29612577 0.22877808 135 179 66
-0.56138361 -0.29557937 0.22781523 155 173 55
-0.56023258 -0.29506636 0.22982489 128 164 54
-0.56106997 -0.29578513 0.22766818 148 165 50
-0.53181881 -0.29761586 0.24448794 84 106 60
-0.52912182 -0.30027217 0.24727733 172 192 131
-0.53391141 -0.30089077 0.24408805 136 163 50
-0.53207141 -0.29731402 0.24420916 152 175 121
-0.53330910 -0.29921025 0.24395916 141 160 45
-0.53160775 -0.29961175 0.24529748 133 155 47
-0.53349113 -0.30091608 0.24439424 140 164 54
-0.55824941 -0.27987713 0.22694372 146 160 65
-0.55901825 -0.27944756 0.22550632 105 139 16
-0.55888140 -0.27924299 0.22544089 96 123 10
-0.55845779 -0.27916008 0.22586741 107 120 30
-0.55306828 -0.28182033 0.23214181 140 135 105
-0.55390751 -0.28135934 0.23204884 121 111 84
-0.58074313 -0.26890588 0.19865963 128 138 26
-0.58358234 -0.26943317 0.19320877 122 131 48
-0.58019042 -0.26939124 0.19956073 133 141 30
-0.58027971 -0.26938301 0.19939607 128 140 32
-0.57994896 -0.26934960 0.20002349 134 142 31
-0.56136376 -0.29197991 0.22921379 137 170 53
-0.56278467 -0.29139045 0.22850928 146 178 53
-0.56283480 -0.29002547 0.22767483 138 175 61
-0.56117690 -0.29234472 0.22947949 137 171 51
-0.55971563 -0.29277819 0.23009998 135 169 56
-0.56106764 -0.28996676 0.22807410 132 170 59
-0.56374788 -0.29093894 0.22800043 154 189 61
-0.56604260 -0.28002745 0.21938144 120 155 13
-0.56816834 -0.28137863 0.21921930 147 176 83
-0.56606638 -0.28061235 0.22005947 119 157 20
-0.56769532 -0.28142112 0.21966483 132 163 69
-0.56584364 -0.28150207 0.22130693 124 162 43
-0.56519711 -0.28063914 0.22081700 122 159 28
-0.56528634 -0.28040516 0.22046332 116 152 18
-0.56658769 -0.27982885 0.21868950 125 159 20
-0.55780703 -0.29418507 0.23097779 135 173 54
-0.55575955 -0.29584852 0.23247716 130 167 53
-0.55578458 -0.29639187 0.23234577 125 162 46
-0.55421603 -0.29696336 0.23363538 127 165 54
-0.55255538 -0.29361030 0.23392925 150 181 88
-0.55319107 -0.29697394 0.23448992 130 167 62
-0.55493110 -0.29443032 0.23286757 144 183 77
-0.55445719 -0.29542881 0.23339157 132 168 60
-0.55334145 -0.29596013 0.23413639 146 182 74
-0.55320257 -0.29117030 0.23292448 127 158 64
-0.55552584 -0.29520342 0.23275436 134 171 55
-0.55228859 -0.29676151 0.23491985 149 185 79
-0.55245030 -0.29748958 0.23502818 129 164 62
-0.55610532 -0.29177529 0.23151651 149 183 99
-0.56018990 -0.29012185 0.22858582 143 182 75
-0.55822659 -0.29094887 0.23000552 135 170 78
-0.55947042 -0.28998950 0.22895744 131 169 70
-0.55359381 -0.29013881 0.23241295 145 175 77
-0.55599201 -0.28998670 0.23097166 125 160 66
-0.55589885 -0.29128137 0.23146756 153 182 98
-0.55649781 -0.29064113 0.23090202 145 174 90
-0.55441278 -0.28281015 0.23183954 141 163 78
-0.55652434 -0.28334066 0.23070255 143 183 71
-0.55265892 -0.28281730 0.23261300 202 221 131
-0.56970066 -0.27384785 0.20966564 127 142 15
-0.57156664 -0.27232459 0.20747317 123 136 22
-0.57317621 -0.27137288 0.20637195 125 141 16
-0.53742146 -0.31287119 0.24366893 111 134 56
-0.54134977 -0.31097031 0.24195814 93 118 35
-0.54400712 -0.29864430 0.23674567 60 86 0
-0.54352260 -0.29752520 0.23654073 77 109 10
-0.54477197 -0.29780805 0.23587909 64 94 8
-0.54529983 -0.29720247 0.23526806 63 93 5
-0.54032379 -0.29878038 0.23913974 87 122 22
-0.52962899 -0.31638658 0.24253683 100 136 26
-0.52926242 -0.31668344 0.24248806 102 139 26
-0.53158683 -0.31441188 0.24285868 95 128 21
-0.53061813 -0.31552547 0.24267788 98 131 24
-0.55420578 -0.29735446 0.23346093 124 162 51
-0.55243808 -0.29804841 0.23489077 130 165 63
-0.55750966 -0.29618669 0.23051420 117 156 39
-0.55556428 -0.29828268 0.22995755 104 145 49
-0.55506605 -0.29923502 0.23029818 105 148 59
-0.55429441 -0.29919884 0.23139912 97 137 49
-0.55366850 -0.29812044 0.23276943 115 155 33
-0.55462909 -0.29915640 0.23092926 93 138 47
-0.54039186 -0.31218889 0.24526009 133 153 82
-0.54067838 -0.31200451 0.24496703 131 151 79
-0.54167086 -0.31102058 0.24266066 101 124 44
-0.53853029 -0.31254473 0.24401495 120 143 65
-0.54086447 -0.31239083 0.24666937 117 136 57
-0.52505207 -0.31900713 0.24347535 101 141 26
-0.52492017 -0.31925744 0.24386504 85 124 33
-0.52440685 -0.32028350 0.24550885 110 149 43
-0.52451819 -0.32006758 0.24516855 112 149 44
-0.52472949 -0.31919816 0.24339828 98 138 23
-0.52598017 -0.31940725 0.24602003 112 150 47
-0.51909423 -0.32252869 0.24265987 118 144 96
-0.51988065 -0.32235748 0.24324533 105 128 74
-0.52050281 -0.32145590 0.24232376 108 155 27
-0.51601815 -0.32333452 0.24061593 114 152 33
-0.52178681 -0.32111257 0.24316435 104 134 48
-0.52172983 -0.32064658 0.24225724 107 149 23
-0.52638662 -0.31839868 0.24327202 97 140 22
-0.52996445 -0.31716824 0.24292207 108 142 29
-0.52677441 -0.31852508 0.24466094 101 139 54
-0.52933025 -0.31734395 0.24275126 107 144 31
-0.53036767 -0.31697077 0.24255973 111 144 39
-0.53865504 -0.31117472 0.24021365 116 141 47
-0.53359789 -0.31181669 0.24292669 107 139 32
-0.53636843 -0.31105849 0.24148086 105 134 24
-0.53510368 -0.31249619 0.24203205 111 143 34
-0.53451639 -0.30021846 0.24200295 97 127 37
-0.53453147 -0.30433249 0.24188168 64 98 14
-0.53499103 -0.29993251 0.24178606 88 119 26
-0.53555226 -0.30035329 0.24150856 78 106 19
-0.53435636 -0.30279562 0.24200727 84 115 22
-0.51627564 -0.31788129 0.24300547 63 102 11
-0.51745826 -0.31959343 0.24195437 78 119 17
-0.51589233 -0.32268462 0.24066465 101 140 25
-0.51532978 -0.32276803 0.24071531 102 142 30
-0.51667458 -0.32152933 0.24111429 101 142 22
-0.51509458 -0.32188445 0.24119613 78 119 13
-0.51346594 -0.31969362 0.24256007 64 105 9
-0.51494068 -0.32063851 0.24184494 66 98 25
-0.51651639 -0.32200018 0.24090466 99 138 21
-0.51563752 -0.31908122 0.24250981 56 89 20
-0.51871449 -0.31699145 0.24305014 59 92 23
-0.51311088 -0.32013789 0.24239607 60 101 7
-0.55228478 -0.30125526 0.23305596 93 129 41
-0.55046040 -0.30312845 0.23408063 78 105 28
-0.55114418 -0.29943153 0.23555721 126 161 61
-0.55176413 -0.29861647 0.23531999 131 165 68
-0.54992634 -0.30348465 0.23449996 63 92 12
-0.55249381 -0.30018201 0.23347194 100 137 34
-0.51490927 -0.31803748 0.24309675 73 116 9
-0.51441395 -0.31700355 0.24340273 80 119 10
-0.51244140 -0.31787714 0.24324746 63 107 0
-0.51154357 -0.31976783 0.24276581 75 119 6
-0.51238239 -0.31947279 0.24281080 69 110 4
-0.51737535 -0.31627095 0.24347648 75 116 14
-0.51691151 -0.31625575 0.24350069 76 118 10
-0.51667696 -0.31524220 0.24378982 73 111 8
-0.51572818 -0.31732020 0.24325882 78 120 12
-0.55562228 -0.28103477 0.22758713 115 129 34
-0.55542350 -0.28191599 0.22689605 110 129 24
-0.55531555 -0.28052256 0.22880977 122 130 55
-0.55540305 -0.28201950 0.22680922 110 129 24
-0.52501214 -0.31779540 0.24239020 96 135 16
-0.52659845 -0.31615487 0.24271266 98 137 20
-0.52466458 -0.31381747 0.24368104 76 114 15
-0.52793169 -0.31387067 0.24326789 104 139 19
-0.52522111 -0.31400123 0.24355584 88 126 13
-0.52673340 -0.31517315 0.24300444 104 139 21
-0.52917767 -0.31290790 0.24341890 103 138 22
-0.52402884 -0.31471086 0.24347776 89 128 21
-0.52712590 -0.31623319 0.24262407 98 136 17
-0.54542637 -0.28946912 0.23095904 74 105 2
-0.54182005 -0.29308909 0.23559244 87 113 22
-0.54157436 -0.29282007 0.23550671 84 110 21
-0.54062420 -0.29346722 0.23648880 78 107 17
-0.54333544 -0.29235086 0.23425496 87 118 14
-0.51770025 -0.31128889 0.24905899 127 159 62
-0.51466990 -0.31293359 0.24937284 117 158 52
-0.51631260 -0.30883944 0.24763218 108 166 81
-0.51864356 -0.31023180 0.24869397 118 149 56
-0.51471615 -0.31084606 0.24835666 131 179 80
-0.51504153 -0.31078720 0.24838069 118 163 62
-0.54070449 -0.30915412 0.23925300 101 128 23
-0.54350710 -0.30482817 0.23797648 88 122 1
-0.54305345 -0.30424786 0.23819850 93 128 8
-0.54613525 -0.30551356 0.23672239 70 101 8
-0.54182464 -0.30687913 0.23874937 94 129 13
-0.54110098 -0.30759257 0.23908383 86 120 8
-0.52329981 -0.31998101 0.24576740 111 148 45
-0.52239430 -0.32074180 0.24542029 104 139 39
-0.51995707 -0.32056996 0.24523047 89 124 20
-0.52029878 -0.32178202 0.24485867 97 132 32
-0.52224284 -0.31964907 0.24577139 102 139 33
-0.51359379 -0.32332337 0.24313612 66 94 53
-0.51695472 -0.32315063 0.24512897 82 117 25
-0.51429087 -0.32339227 0.24234059 62 88 59
-0.51554918 -0.32347065 0.24143587 113 140 71
-0.51599938 -0.32334498 0.24288622 84 112 63
-0.51805013 -0.32321742 0.24435805 92 125 34
-0.51385981 -0.32312214 0.24545842 66 110 12
-0.51351577 -0.32319838 0.24457881 57 100 11
-0.51422781 -0.32324266 0.24406745 71 110 29
-0.54895878 -0.28640568 0.22973433 115 132 38
-0.55440098 -0.28235203 0.22822851 105 123 24
-0.55009091 -0.28554514 0.22946498 93 113 24
-0.55056995 -0.28478095 0.23036776 91 106 21
-0.55315512 -0.28253964 0.23045503 115 126 48
-0.55326295 -0.28301707 0.22900753 100 120 21
-0.54844815 -0.28657195 0.23041967 106 123 27
-0.55155039 -0.28403080 0.23014702 102 120 21
-0.55188322 -0.28423601 0.22890323 85 104 22
-0.54917932 -0.28551349 0.23152333 96 107 41
-0.55224186 -0.28434205 0.22785552 90 108 26
-0.55361283 -0.28694931 0.22697704 88 107 15
-0.55097049 -0.28795579 0.22801667 105 119 42
-0.55480814 -0.28648379 0.22650799 78 102 4
-0.55211419 -0.28909856 0.22737515 94 115 14
-0.55428225 -0.28672552 0.22670989 73 97 1
-0.54821372 -0.28878054 0.22912866 75 98 7
-0.55813879 -0.28487152 0.22523297 111 130 14
-0.55224252 -0.28611007 0.22765851 113 131 47
-0.54820150 -0.28745335 0.22927573 96 113 21
-0.55147624 -0.28495988 0.22809343 95 113 29
-0.55396676 -0.28540555 0.22698046 98 113 32
-0.55428606 -0.28494123 0.22688538 92 107 26
-0.55561906 -0.28518522 0.22628920 79 104 3
-0.54819894 -0.28727615 0.22929299 101 118 26
-0.57143682 -0.28476959 0.22204815 128 159 21
-0.57204008 -0.28297806 0.21835724 125 156 16
-0.57424021 -0.28258824 0.21576248 122 153 13
-0.56924605 -0.28211305 0.21924700 140 172 45
-0.57182038 -0.28225479 0.21726830 130 162 25
-0.57237607 -0.28433830 0.22047198 121 152 15
-0.57281339 -0.28379992 0.21914105 117 149 12
-0.57327336 -0.28317207 0.21763232 124 156 19
-0.57209551 -0.28446174 0.22093326 118 149 12
-0.57058924 -0.28322217 0.22004534 130 163 24
-0.54619092 -0.30420560 0.23997837 124 157 53
-0.54813802 -0.30224502 0.23827831 113 145 44
-0.55031842 -0.30031699 0.23610759 115 150 46
-0.54775512 -0.30299395 0.23824978 117 150 46
-0.54959565 -0.30169126 0.23609297 112 144 33
-0.54841530 -0.30299541 0.23700802 101 133 22
-0.51871705 -0.31994069 0.24536388 94 130 32
-0.51827693 -0.31858155 0.24619716 107 145 46
-0.51891303 -0.31744507 0.24694730 117 151 57
-0.51876360 -0.31827199 0.24641815 123 161 62
-0.52491915 -0.31886801 0.24636959 121 154 50
-0.52189070 -0.31774074 0.24691918 122 164 54
-0.51928359 -0.31991190 0.24541213 96 133 30
-0.53912818 -0.29464647 0.23802811 88 116 32
-0.53923184 -0.29450083 0.23788850 89 117 32
-0.55578953 -0.29886821 0.22896273 111 128 58
-0.53984690 -0.31043875 0.23990047 116 143 48
-0.53823930 -0.31226450 0.24140631 121 145 61
-0.51060677 -0.32137972 0.24264537 58 97 6
-0.51223785 -0.32444817 0.24162114 62 95 38
-0.51281202 -0.32382196 0.24142572 57 96 29
-0.51097339 -0.32462138 0.24216819 63 95 45
