-0.17041023 0.16068263 0.20849824 115 136 17
-0.15356517 0.16017215 0.21779610 157 161 4
-0.15189961 0.15947255 0.21999127 171 176 11
-0.15646401 0.16447717 0.21659416 160 165 1
-0.15574752 0.16372207 0.21640991 168 173 9
-0.15010563 0.15916240 0.22247374 162 170 9
-0.15169896 0.16054393 0.22118364 161 168 2
-0.15377662 0.15844043 0.21714461 173 179 17
-0.15406683 0.15865611 0.21651502 176 181 17
-0.15563065 0.16057019 0.21345162 178 180 17
-0.15532038 0.16199701 0.21527918 157 163 3
-0.15818706 0.15710293 0.20803919 146 155 4
-0.15781569 0.15725803 0.20880200 151 158 2
-0.15751758 0.15836239 0.20931539 173 175 6
-0.15579011 0.16313140 0.21489170 179 180 24
-0.15674758 0.16282545 0.21278279 154 160 0
-0.15810075 0.16405395 0.21125051 154 160 0
-0.16537148 0.16737294 0.21116820 154 158 37
-0.16283770 0.16761942 0.21119821 140 150 19
-0.17320961 0.16332434 0.18912679 107 113 17
-0.17306192 0.16544802 0.18818608 105 117 15
-0.15759781 0.15880020 0.20909446 149 154 36
-0.15769541 0.15614122 0.20969650 132 143 38
-0.15710796 0.15675196 0.21062538 125 136 34
-0.16114905 0.16586733 0.20948388 160 169 0
-0.16034195 0.16528773 0.20847529 148 158 1
-0.16208120 0.16214836 0.19757906 134 143 34
-0.16154273 0.15996587 0.19904815 142 150 47
-0.16137399 0.15980877 0.19956112 144 153 48
-0.15595190 0.16106421 0.21306317 157 162 42
-0.15433568 0.15950593 0.21535282 159 164 48
-0.16818461 0.16073819 0.21320131 127 145 7
-0.15827806 0.15938444 0.20820877 179 180 16
-0.15898050 0.15855579 0.20680025 158 166 3
-0.15976439 0.16112453 0.20689964 166 171 17
-0.15969934 0.15887894 0.20591912 149 158 7
-0.16595162 0.16267739 0.21057755 145 157 21
-0.16293253 0.16428390 0.20945051 158 165 10
-0.16546690 0.16427732 0.21070975 149 156 24
-0.15946870 0.16532943 0.21030691 173 174 8
-0.15765013 0.16459537 0.21312521 179 180 16
-0.15747961 0.16275217 0.21118039 159 163 40
-0.15985659 0.16478056 0.20892940 139 149 14
-0.15773924 0.15528865 0.20959312 142 149 43
-0.15680853 0.15209806 0.21079892 93 108 27
-0.15499790 0.14947683 0.21498451 101 116 31
-0.15592523 0.15057884 0.21271741 90 104 29
-0.15877709 0.15541907 0.20648995 108 126 44
-0.17268644 0.16936672 0.17856622 93 98 6
-0.16962932 0.16944185 0.18387817 91 100 7
-0.19140056 0.19204330 0.15113540 140 149 66
-0.19183742 0.19322014 0.15214477 134 146 60
-0.19222896 0.19477601 0.15427509 141 153 71
-0.20244023 0.20204397 0.16390394 118 137 48
-0.19970289 0.19960923 0.16092056 120 138 54
-0.19517419 0.19450304 0.15392956 99 112 42
-0.19820534 0.19421296 0.15338428 218 200 176
-0.19729106 0.20007437 0.15916626 79 96 25
-0.19794600 0.19500840 0.15489249 91 95 44
-0.20040707 0.19573730 0.15462723 227 210 190
-0.19373497 0.19160064 0.15015535 143 135 86
-0.20601854 0.20323268 0.16527048 103 120 49
-0.20687717 0.20407629 0.16644669 103 122 43
-0.19492367 0.19660626 0.15583083 113 126 46
-0.19787607 0.19664979 0.15712483 97 110 41
-0.20313890 0.20221670 0.16383283 116 135 45
-0.19864517 0.19618675 0.15633236 85 95 34
-0.20068154 0.19757444 0.15741903 96 107 47
-0.19849765 0.19121304 0.15320994 114 128 41
-0.20211679 0.19218804 0.15345831 120 136 47
-0.19703297 0.19643191 0.15748571 120 140 69
-0.19740206 0.19710670 0.15807199 108 128 56
-0.19669124 0.19531000 0.15625286 103 116 47
-0.19603752 0.19486070 0.15572245 108 121 51
-0.19839151 0.19385111 0.15463825 112 124 50
-0.20005122 0.19364709 0.15442878 116 130 53
-0.20276847 0.19499478 0.15580265 121 133 51
-0.20130526 0.19643725 0.15714294 126 139 70
-0.19945519 0.19715990 0.15827584 109 124 55
-0.20205066 0.19764905 0.15840651 134 145 77
-0.20466776 0.20173246 0.16426201 100 118 44
-0.19985768 0.19870970 0.16032945 123 142 61
-0.20386787 0.20120414 0.16370456 103 119 48
-0.20396471 0.20113765 0.16357136 103 119 48
-0.19020155 0.19316448 0.15319949 152 157 75
-0.19133724 0.19410971 0.15407787 107 119 37
-0.19545458 0.19190294 0.15261376 96 112 41
-0.19589038 0.19080608 0.15161699 94 111 31
-0.19628851 0.19066699 0.15174206 92 107 24
-0.19638500 0.19047731 0.15174477 96 111 26
-0.20075120 0.19905692 0.15946390 87 101 40
-0.20265867 0.19999877 0.15977681 97 111 52
-0.20201650 0.20147096 0.16167182 98 113 46
-0.20512661 0.20046265 0.15895803 116 129 47
-0.20488992 0.19977894 0.15813847 113 130 50
-0.19114383 0.19151767 0.15142708 129 140 62
-0.19132912 0.19214423 0.15231380 166 177 101
-0.19643493 0.18810959 0.14794295 218 174 145
-0.19573742 0.18883954 0.14770031 200 162 126
-0.19164674 0.18672855 0.14634028 96 115 36
-0.19158389 0.18691620 0.14648323 99 118 39
-0.19221665 0.18736376 0.14434049 183 150 105
-0.19177453 0.18884106 0.14846973 106 124 48
-0.18872991 0.18439569 0.14155935 92 94 29
-0.19870956 0.18870129 0.15201594 104 121 29
-0.20254809 0.19137323 0.15233278 239 239 187
-0.18014255 0.17609434 0.12769720 133 127 51
-0.20352723 0.19848605 0.15921016 123 135 63
-0.19401610 0.18786950 0.14932708 91 113 30
-0.20475951 0.20236158 0.16379997 89 106 36
-0.19150689 0.19128639 0.15026280 127 135 52
-0.20568986 0.19821301 0.15927930 124 137 58
-0.20409694 0.19695851 0.15625483 115 132 52
-0.20441855 0.19524132 0.15513474 109 127 43
-0.20355090 0.19458850 0.15490180 107 120 41
-0.20556200 0.19817102 0.15696849 107 122 41
-0.20660666 0.20133115 0.16071749 112 130 48
-0.19689561 0.18683875 0.15083928 99 109 23
-0.19691600 0.18499541 0.14872101 219 180 149
-0.19424582 0.18374225 0.14709979 197 170 127
-0.20122826 0.19057195 0.15129064 181 173 152
-0.20057417 0.19198483 0.15166286 173 160 141
-0.19715461 0.19008605 0.14932080 205 172 137
-0.19302849 0.18345764 0.14602576 157 139 93
-0.19606031 0.18738070 0.14734267 224 179 146
-0.19188833 0.18430020 0.14399354 163 160 105
-0.19059743 0.18461643 0.14207931 174 152 94
-0.19093260 0.18327703 0.14313750 178 183 127
-0.19088162 0.18289456 0.14308941 171 176 118
-0.19395044 0.18522094 0.14875272 93 107 28
-0.18909992 0.18198635 0.14067997 140 152 78
-0.18788637 0.18299630 0.14026327 122 132 61
-0.19146718 0.18549076 0.14563327 108 127 46
-0.19127710 0.18436094 0.14500003 105 128 50
-0.19202659 0.18456212 0.14586771 100 119 37
-0.18991077 0.18742579 0.14412242 70 69 12
-0.19281927 0.19054666 0.14854944 142 137 99
-0.20557271 0.20107993 0.15971309 114 129 46
-0.19151235 0.18982255 0.14805692 129 128 61
-0.20265166 0.19494599 0.15480191 156 155 99
-0.17991868 0.17658186 0.12132210 161 154 84
-0.18071000 0.17692944 0.12686244 156 148 73
-0.19970176 0.19322819 0.15201871 188 175 158
-0.20003480 0.19378275 0.15249793 190 177 160
-0.18135551 0.17838600 0.12769151 176 170 92
-0.19354299 0.18942365 0.14678147 183 163 126
-0.19388920 0.19133355 0.14966440 137 121 88
-0.18561272 0.18025216 0.13510877 139 140 64
-0.18414912 0.18090436 0.13325842 129 130 54
-0.18605030 0.18105070 0.13569340 142 142 68
-0.22661848 0.13208130 0.24047692 120 138 2
-0.19218236 0.15285218 0.20512825 162 183 4
-0.20244971 0.14420302 0.22240993 142 167 1
-0.20290402 0.14410886 0.22265470 137 159 0
-0.23828015 0.12182159 0.24836598 115 150 8
-0.24020410 0.12019814 0.24900851 99 128 0
-0.23632920 0.12027022 0.24532463 162 189 0
-0.19127136 0.15343396 0.20420712 159 183 1
-0.22938485 0.12718579 0.24131474 120 145 0
-0.22892806 0.12744911 0.24114217 112 140 0
-0.24198566 0.10789183 0.25353301 85 119 22
-0.20495553 0.13267435 0.23499748 93 106 52
-0.20509408 0.13533646 0.23276211 130 151 10
-0.18814638 0.16098930 0.19023314 132 140 41
-0.23560695 0.11325455 0.24572897 104 134 20
-0.19344863 0.15954790 0.19932009 150 165 22
-0.19466065 0.15883549 0.20219107 157 173 15
-0.19562769 0.15945515 0.20407499 147 165 0
-0.25145870 0.10734784 0.25466913 123 154 1
-0.24124271 0.11623335 0.24877709 129 166 0
-0.23661311 0.11420076 0.24573785 113 155 11
-0.21209042 0.13131453 0.23641820 95 112 8
-0.21137473 0.13264941 0.23515305 98 120 9
-0.23104811 0.12320808 0.24808614 140 163 46
-0.22907116 0.12274691 0.24646945 156 169 79
-0.22679985 0.12566389 0.24494810 161 178 86
-0.21362491 0.12612559 0.24062954 115 144 0
-0.20397022 0.15623821 0.21989568 114 134 1
-0.20584930 0.13333316 0.23820624 127 136 83
-0.20582493 0.13351709 0.23792133 175 189 104
-0.23372202 0.12707949 0.24554381 89 117 7
-0.18983400 0.15863605 0.19654667 123 134 29
-0.19023219 0.15783273 0.19795935 121 131 16
-0.22577198 0.13255864 0.24015623 121 144 4
-0.19629683 0.14686045 0.21166417 153 169 37
-0.19462866 0.15146168 0.20726372 151 170 1
-0.19644153 0.15187466 0.20884080 99 122 5
-0.19698869 0.15006877 0.21054478 130 153 10
-0.19123034 0.16012113 0.19517940 107 116 9
-0.24899292 0.11494914 0.25495937 139 163 53
-0.25121558 0.11284764 0.25494310 134 163 45
-0.23479423 0.12676324 0.24719550 105 133 10
-0.23904982 0.11976239 0.24795958 107 137 3
-0.18367104 0.16663052 0.18056642 115 122 10
-0.18470091 0.16314791 0.18489768 129 131 4
-0.18531011 0.16327631 0.18662557 130 132 9
-0.18324433 0.16622217 0.17947751 129 136 7
-0.20095943 0.14135157 0.22279696 120 141 12
-0.18745501 0.16863643 0.19049971 159 168 25
-0.20086549 0.14468701 0.22028898 132 149 17
-0.19935367 0.14723085 0.21666171 143 162 37
-0.20228104 0.14319602 0.22293290 133 154 17
-0.20030111 0.14744341 0.21732451 110 129 13
-0.20448007 0.14374749 0.22323403 102 124 0
-0.18709856 0.16427298 0.19115014 117 125 6
-0.18784004 0.16357458 0.19257204 115 123 4
-0.18976066 0.16267346 0.19576202 122 131 4
-0.20951453 0.14701565 0.22744404 165 190 0
-0.21040472 0.14600295 0.22841097 164 191 2
-0.19754593 0.14816913 0.21363515 145 162 32
-0.19737571 0.14722018 0.21412490 152 169 39
-0.23331369 0.12017970 0.24971978 157 178 73
-0.23262131 0.12259403 0.24936233 162 185 55
-0.23499325 0.12097903 0.25147384 151 174 40
-0.21733096 0.14422010 0.23170738 132 158 0
-0.19655423 0.14691862 0.21282953 148 165 37
-0.21409124 0.14497791 0.23097065 179 200 1
-0.24095480 0.11763552 0.24878371 117 154 12
-0.23978879 0.12164506 0.24956724 88 115 8
-0.23944041 0.12267316 0.25019136 73 99 0
-0.23497544 0.11307777 0.24551152 68 103 3
-0.24613859 0.11956048 0.25424454 114 114 64
-0.20197313 0.14254420 0.22313555 143 164 25
-0.18575886 0.16259754 0.18812108 124 129 3
-0.18717936 0.16108002 0.19226590 128 132 12
-0.18541397 0.16249868 0.18721980 131 133 6
-0.20165619 0.14291693 0.22248898 147 168 31
-0.20381208 0.13862011 0.22871077 122 142 8
-0.20279539 0.14170307 0.22484013 132 149 8
-0.20459975 0.13353464 0.23393282 128 148 0
-0.20508936 0.13737911 0.23095630 121 137 2
-0.18730977 0.16865365 0.19095084 150 157 25
-0.23514251 0.12512814 0.24647611 103 132 4
-0.20302568 0.15762152 0.22015093 98 121 4
-0.20313650 0.15823840 0.21948963 102 123 4
-0.23577094 0.12693603 0.25048420 102 131 15
-0.20335698 0.15556777 0.22152348 106 127 0
-0.20726286 0.15466803 0.22672987 142 167 47
-0.20699754 0.15502557 0.22659184 138 164 41
-0.24267076 0.11799694 0.25648549 157 178 59
-0.24562584 0.11641325 0.25583321 160 184 64
-0.20980725 0.15073617 0.22779790 151 175 39
-0.20704027 0.15586504 0.22676665 141 161 38
-0.20474777 0.15686141 0.22446531 146 156 34
-0.23479968 0.12828094 0.24781959 126 154 9
-0.23583771 0.12815326 0.24885419 116 142 7
-0.24501255 0.11941038 0.25587413 151 154 75
-0.24578460 0.11856034 0.25566342 172 187 82
-0.24320726 0.12161513 0.25620937 120 133 51
-0.20259035 0.14687228 0.21906957 115 140 13
-0.19448039 0.15400608 0.20643659 97 121 0
-0.19666570 0.15988345 0.20580450 142 151 10
-0.21113546 0.12676294 0.23908959 114 141 2
-0.24035557 0.11929358 0.25596312 148 169 38
-0.23862709 0.12023771 0.25530598 157 182 38
-0.24923365 0.11392987 0.25550491 133 161 50
-0.25027606 0.11219525 0.25528449 140 161 40
-0.24202192 0.11357746 0.24971345 172 208 14
-0.24739859 0.11027063 0.25303227 150 181 2
-0.21536222 0.12875418 0.23896174 120 147 4
-0.24015576 0.11074796 0.25180176 104 135 15
-0.24158271 0.11183289 0.25076663 165 203 6
-0.21894145 0.12951396 0.24020638 101 129 0
-0.22107440 0.12825507 0.24054955 78 105 2
-0.23913315 0.11156161 0.24915951 91 124 9
-0.24766584 0.11299777 0.25567496 168 189 34
-0.23051126 0.13154478 0.24313663 70 95 0
-0.21230711 0.13480124 0.23458335 115 139 1
-0.20250510 0.15374503 0.21974194 141 166 4
-0.21226208 0.12878157 0.23875146 134 154 7
-0.21100925 0.12976445 0.23789914 77 104 0
-0.20914374 0.14212359 0.22726879 123 148 30
-0.21071234 0.14181040 0.22784811 112 139 0
-0.23956898 0.11315031 0.25237808 150 171 70
-0.23700692 0.11660066 0.25189787 162 183 66
-0.23611893 0.11655048 0.25112048 147 164 68
-0.23385252 0.11783294 0.24982792 168 182 97
-0.19851615 0.14870538 0.21302387 134 159 3
-0.20214282 0.14881255 0.21683899 115 138 6
-0.19792052 0.15265013 0.20994341 114 134 11
-0.24117742 0.11274697 0.25343615 161 182 55
-0.23998266 0.11646769 0.25402752 153 174 35
-0.20663519 0.13694358 0.23168609 106 126 3
-0.23626126 0.12162858 0.25239536 141 167 32
-0.23380958 0.12267198 0.25053331 143 169 36
-0.19801009 0.14696294 0.21369071 159 182 4
-0.21976192 0.13886899 0.23496124 118 140 0
-0.24757737 0.11120167 0.25545374 140 162 36
-0.24570139 0.11141238 0.25480065 164 188 38
-0.24381079 0.11250260 0.25446913 176 197 44
-0.21953487 0.12592329 0.24083126 133 161 1
-0.23784688 0.11289725 0.25185341 142 160 61
-0.23576230 0.11223240 0.25154093 143 164 45
-0.23536052 0.11540170 0.25048018 140 157 63
-0.21890923 0.13790339 0.23594354 131 158 3
-0.20654614 0.13354920 0.23495443 95 119 23
-0.21460505 0.12912717 0.23842607 102 127 0
-0.18927915 0.16274975 0.19134995 100 108 7
-0.20714797 0.13969047 0.22944032 139 163 7
-0.20627828 0.13775179 0.23093586 111 132 0
-0.23921655 0.12435714 0.25557077 97 125 4
-0.20435923 0.14781298 0.21968138 113 136 4
-0.20716070 0.14636767 0.22370923 140 172 0
-0.20607802 0.14785811 0.22270702 145 173 1
-0.20776878 0.14769083 0.22549325 159 184 4
-0.20902778 0.14494619 0.22604309 141 173 4
-0.22462162 0.13378376 0.23936911 115 136 5
-0.20626581 0.15287949 0.22335286 155 182 5
-0.20676008 0.15284556 0.22367018 159 187 7
-0.19542779 0.14958937 0.20878883 156 175 5
-0.18926586 0.16699573 0.19424273 179 185 25
-0.21637940 0.13555716 0.23419343 115 140 22
-0.21743317 0.12572996 0.24103637 135 167 8
-0.20475656 0.14031014 0.22751710 162 181 12
-0.19131732 0.16432080 0.19675811 178 185 17
-0.20371181 0.15811707 0.22269666 110 126 4
-0.20383060 0.15748408 0.21773815 126 147 6
-0.18934919 0.16435452 0.19264898 150 159 18
-0.23728864 0.11803167 0.24588461 168 193 3
-0.21939169 0.13369632 0.23701635 105 132 1
-0.20305958 0.15212871 0.22039990 158 181 2
-0.21373294 0.14176610 0.23084763 150 182 0
-0.21177299 0.14264901 0.22945142 151 181 5
-0.21644048 0.14142951 0.23298387 162 187 8
-0.23960501 0.10814159 0.25252461 117 156 5
-0.22050390 0.13156456 0.23828422 89 113 0
-0.21833241 0.14092268 0.23334114 148 167 0
-0.20540348 0.13370577 0.23569296 101 115 27
-0.21386437 0.14377500 0.23106280 174 195 6
-0.21919441 0.12363933 0.24209322 138 170 1
-0.23043962 0.12766857 0.24226280 139 161 0
-0.23082961 0.12760440 0.24253537 146 168 0
-0.23305573 0.12354260 0.24295142 129 160 0
-0.23146130 0.13084397 0.24412248 76 100 2
-0.21634781 0.12418032 0.24184938 160 190 4
-0.21459033 0.13762893 0.23234092 98 122 0
-0.18886976 0.15596132 0.20012039 130 145 0
-0.20118602 0.15361817 0.21696332 157 177 2
-0.18778662 0.16498008 0.18811077 101 108 15
-0.18819387 0.16443467 0.18895622 99 106 11
-0.18821459 0.16357528 0.18843704 110 119 10
-0.18918040 0.16684318 0.19491155 130 132 22
-0.20753731 0.13083191 0.23662764 87 105 43
-0.19005205 0.16521899 0.19518246 168 175 10
-0.20933054 0.13714291 0.23178543 123 144 3
-0.20943682 0.13844121 0.23114194 119 143 5
-0.22856113 0.12780115 0.24528898 130 156 33
-0.22890663 0.12856196 0.24519745 126 151 33
-0.22978812 0.12524687 0.24714968 162 183 62
-0.22798471 0.12709598 0.24520712 153 178 61
-0.18700747 0.16716704 0.18879488 139 150 12
-0.18571375 0.16763933 0.18393040 133 141 19
-0.18523951 0.16880947 0.18757537 131 137 11
-0.18688706 0.16737151 0.18920392 139 147 10
-0.22367559 0.12735288 0.24057998 96 124 13
-0.22255401 0.12611784 0.24087472 77 107 0
-0.24835290 0.10801253 0.25435776 168 203 12
-0.18788411 0.16531858 0.19256066 114 124 0
-0.20491351 0.13768193 0.23056158 133 154 0
-0.24674667 0.11506836 0.25119093 120 121 63
-0.19120811 0.16271736 0.19809206 133 144 5
-0.18778546 0.16497479 0.19225106 121 130 3
-0.19075051 0.16319491 0.19732995 130 141 2
-0.21674353 0.13212086 0.23804067 104 131 2
-0.20770881 0.15459508 0.22535129 107 87 60
-0.20808247 0.15399651 0.22534183 86 76 40
-0.20627584 0.15641983 0.22497357 120 107 11
-0.25291529 0.10773430 0.25411168 155 185 12
-0.23403963 0.12501001 0.25014886 157 180 28
-0.23226239 0.12517218 0.24883585 124 152 29
-0.23170133 0.12785491 0.24740098 144 165 10
-0.18843397 0.15868416 0.19543596 138 145 39
-0.19415359 0.16163023 0.20015647 160 172 2
-0.20660801 0.13194963 0.23911357 148 156 107
-0.19616793 0.14690311 0.21055500 153 181 0
-0.23260437 0.11841156 0.24315302 130 168 5
-0.20539005 0.14987473 0.22277720 169 194 4
-0.20403931 0.15063603 0.22106719 151 175 0
-0.20484783 0.14466901 0.22240178 107 133 10
-0.20571336 0.14534451 0.22221720 127 146 28
-0.23060311 0.13026488 0.24561052 118 137 0
-0.23201288 0.12927394 0.24697281 104 126 2
-0.23224965 0.13022536 0.24662578 93 117 7
-0.20981771 0.14018993 0.22964260 105 131 24
-0.20958474 0.14002007 0.22977890 87 116 0
-0.23313616 0.12665406 0.24439354 132 157 4
-0.21451974 0.14124608 0.23168643 154 184 2
-0.19365865 0.15654898 0.20206524 120 140 17
-0.19901556 0.14421947 0.21650778 134 159 6
-0.21531577 0.13540991 0.23449728 95 119 23
-0.23957461 0.11533460 0.24774224 182 207 4
-0.21770616 0.13655956 0.23525782 143 173 0
-0.21871865 0.13695145 0.23622163 136 167 3
-0.24717997 0.11375212 0.25153750 138 176 5
-0.19231418 0.15048049 0.20549040 176 196 0
-0.19572642 0.15831551 0.20467700 146 164 2
-0.19552507 0.15678342 0.20458840 131 149 11
-0.19589873 0.15771461 0.20519228 140 157 0
-0.19582503 0.15640354 0.20533231 95 115 0
-0.25013947 0.10985466 0.25394037 170 200 8
-0.19178070 0.15567787 0.20233953 128 142 5
-0.24209979 0.12081840 0.25112048 144 149 65
-0.24422185 0.12149610 0.25338498 109 113 62
-0.20169117 0.15262327 0.21799588 152 176 2
-0.21463847 0.13308746 0.23674089 111 135 0
-0.21414416 0.13139103 0.23723455 118 143 0
-0.24060124 0.12230200 0.25773725 148 169 38
-0.23037922 0.13102649 0.24314126 85 114 0
-0.24271931 0.12265766 0.25344726 111 116 32
-0.24054606 0.12380117 0.25244483 123 143 20
-0.18626523 0.16576141 0.18946634 117 125 3
-0.18453373 0.16747949 0.18471596 126 132 6
-0.18463840 0.16806719 0.18574697 135 142 13
-0.18390590 0.16737868 0.18221505 121 129 10
-0.23392609 0.12200303 0.24307865 128 156 0
-0.22949588 0.13138528 0.24425362 116 137 0
-0.20771991 0.14313298 0.22578438 122 147 27
-0.20570558 0.14342926 0.22443658 97 123 0
-0.19097634 0.16260146 0.19468546 155 166 10
-0.19218633 0.16213800 0.19687368 169 178 11
-0.18665370 0.16648550 0.19143179 118 123 5
-0.24412489 0.11644623 0.25027388 136 127 88
-0.24438773 0.11819853 0.25066173 158 155 104
-0.21149394 0.14156096 0.22853804 123 152 0
-0.23861273 0.11706211 0.24665545 181 204 2
-0.23833482 0.12311248 0.25493383 123 149 22
-0.23788959 0.12261476 0.25428239 122 147 27
-0.23691165 0.12164420 0.25284904 163 187 39
-0.24651693 0.11846094 0.25193748 125 114 92
-0.24481116 0.11891625 0.25120118 118 112 80
-0.21110463 0.12874903 0.23844635 97 125 2
-0.22882956 0.12335157 0.24123923 138 174 2
-0.23112187 0.12260388 0.24177368 144 177 2
-0.20118439 0.14330743 0.22157359 159 183 1
-0.24660020 0.11246312 0.25156000 124 166 0
-0.23955606 0.11243386 0.24848478 127 170 2
-0.21635540 0.14208946 0.23266293 159 183 0
-0.22406444 0.13585649 0.23703642 83 102 0
-0.22351941 0.13590989 0.23718423 106 125 9
-0.21371090 0.13159700 0.23687945 113 138 0
-0.21406108 0.13232924 0.23673178 128 152 12
-0.22059804 0.13007458 0.23978773 75 103 0
-0.19825730 0.14701982 0.21412769 161 185 0
-0.20389697 0.15519185 0.22132967 112 134 0
-0.24454644 0.11200099 0.25116524 176 209 6
-0.24540105 0.10969367 0.25276476 176 207 7
-0.23555413 0.12335274 0.24656570 118 148 2
-0.19981264 0.14421439 0.21816333 135 161 0
-0.20344590 0.14264445 0.22475179 153 176 0
-0.20322944 0.14118758 0.22551960 146 170 0
-0.23677841 0.12814154 0.25073805 105 129 17
-0.22002219 0.14148848 0.23343849 120 139 24
-0.23819634 0.12497066 0.25060794 88 114 4
-0.23567672 0.12648696 0.24827209 119 151 6
-0.20227417 0.14612509 0.21954219 101 127 0
-0.22791171 0.13208058 0.24249956 129 148 7
-0.23414347 0.11692151 0.24388079 126 167 3
-0.19816613 0.14823739 0.21330296 148 172 0
-0.20021412 0.14760590 0.21694177 105 135 1
-0.20945841 0.13122828 0.23664854 70 95 3
-0.19309282 0.15105054 0.20605247 160 179 0
-0.23226510 0.12050749 0.24248448 152 188 4
-0.23290563 0.12060990 0.24256246 138 172 0
-0.22648615 0.12498634 0.24072340 102 133 4
-0.22464880 0.12711161 0.24055848 82 111 0
-0.22634453 0.13001002 0.24019350 112 138 2
-0.20188829 0.15646519 0.21662037 122 146 0
-0.25000077 0.11408494 0.25312325 114 150 2
-0.19292977 0.15813676 0.19963978 114 128 15
-0.21365856 0.13925390 0.23102607 105 128 0
-0.19869718 0.15285963 0.21129607 104 125 0
-0.20034175 0.15088116 0.21373345 118 138 15
-0.19038326 0.15961470 0.19527206 117 129 31
-0.19046383 0.15930596 0.19601257 127 139 39
-0.23200288 0.13095920 0.24483034 94 120 11
-0.22358124 0.13050210 0.24004717 135 170 5
-0.20883657 0.15281190 0.22544920 158 189 0
-0.21076800 0.15080784 0.22825536 149 173 35
-0.20795266 0.15103135 0.22495122 174 202 4
-0.20714684 0.13050191 0.23894300 122 101 70
-0.20621970 0.13135938 0.23767932 91 86 67
-0.20705211 0.12960795 0.23788229 75 76 62
-0.21960744 0.13381098 0.23718028 135 165 5
-0.20106478 0.14468439 0.22119202 158 182 0
-0.05252184 0.12649268 0.18069400 75 99 25
-0.05319167 0.12640515 0.18076545 78 102 28
-0.04827049 0.12958324 0.17494416 47 70 0
-0.04921284 0.12982419 0.17498742 45 71 0
-0.04457963 0.12577038 0.16877532 97 109 23
-0.04751745 0.12582392 0.17485017 98 117 25
-0.04971871 0.12580985 0.17587736 92 109 3
-0.05108916 0.12573454 0.17684005 89 106 12
-0.04573774 0.12745994 0.16961604 86 101 8
-0.04626942 0.12695584 0.17039286 92 102 16
-0.05289442 0.12762474 0.17704651 99 114 11
-0.05566837 0.12860450 0.17952621 100 114 16
-0.04652146 0.12724383 0.17065278 95 105 18
-0.04905340 0.12713447 0.17332803 83 95 13
-0.05221955 0.12859541 0.17616197 87 99 15
-0.05343209 0.12840872 0.17737769 90 102 20
-0.04708023 0.12877271 0.17366880 41 68 1
-0.13365690 0.15677775 0.18386696 64 77 8
-0.13031317 0.15495424 0.18620646 83 96 17
-0.14175892 0.16344105 0.17855769 59 82 0
-0.14469323 0.15905248 0.17795964 49 65 3
-0.14660348 0.16527256 0.17582320 78 97 18
-0.14477466 0.16465041 0.17674817 70 91 0
-0.12010416 0.14950357 0.19270143 29 64 6
-0.12196183 0.15125059 0.19166729 15 47 0
-0.14346226 0.16023973 0.17808299 50 65 6
-0.15424532 0.16247587 0.17340776 37 50 6
-0.15282635 0.16265230 0.17379083 37 51 0
-0.12239441 0.14786853 0.19248152 18 48 0
-0.12574607 0.15067551 0.19007397 38 69 2
-0.14731967 0.16257800 0.17593548 41 52 18
-0.14859079 0.16440110 0.17522597 73 81 22
-0.15875745 0.16317901 0.16791494 65 86 7
-0.13003859 0.15300894 0.18699336 68 92 8
-0.13776945 0.15698454 0.18149070 85 106 13
-0.14119709 0.15786962 0.17953350 58 78 6
-0.13153054 0.16024943 0.18438289 58 72 10
-0.12154140 0.15251598 0.19003506 44 71 38
-0.15595031 0.16612366 0.16901532 105 111 67
-0.13887829 0.16450678 0.17969961 71 91 20
-0.13809316 0.16181135 0.18097933 70 87 9
-0.11832479 0.14677465 0.19384435 18 57 13
-0.11724024 0.14544766 0.19404793 30 58 0
-0.11790561 0.14435890 0.19398707 58 80 0
-0.10779236 0.14454503 0.19334710 59 91 15
-0.11122665 0.14643177 0.19295029 51 81 7
-0.15840077 0.16463748 0.16899647 61 71 11
-0.15773998 0.16470107 0.16925213 64 74 11
-0.16751207 0.17265429 0.15512060 93 106 37
-0.13495065 0.15527509 0.18343495 74 93 11
-0.13450189 0.15542570 0.18365705 77 97 10
-0.16241537 0.16896664 0.16152436 114 116 67
-0.16046469 0.16669859 0.16485621 77 89 25
-0.16275701 0.16747239 0.16233565 78 95 17
-0.12527163 0.15506765 0.18830237 82 81 50
-0.12239353 0.15349379 0.18930371 60 66 40
-0.12678690 0.15610878 0.18759738 44 49 8
-0.13096891 0.15190981 0.18649483 35 56 0
-0.13217859 0.15271799 0.18559943 41 61 0
-0.15753525 0.16740640 0.16624123 130 125 87
-0.11516253 0.15219580 0.18959969 39 44 22
-0.11756092 0.15232055 0.18975787 33 33 21
-0.16940804 0.17469251 0.15503731 77 92 0
-0.12691425 0.14947119 0.18984729 27 55 0
-0.12507510 0.14895998 0.19123037 23 52 0
-0.13671961 0.16038737 0.18210131 48 61 7
-0.13755068 0.16062114 0.18157147 50 63 10
-0.14985706 0.16092642 0.17673585 39 52 8
-0.16344413 0.17051417 0.15985869 106 111 47
-0.16389936 0.17051996 0.15933467 105 110 43
-0.16500452 0.17191353 0.16007632 25 48 0
-0.16465467 0.16961691 0.15899402 94 106 34
-0.15746109 0.16305773 0.17013770 58 74 12
-0.15423040 0.16204543 0.17383222 46 64 6
-0.16187128 0.16960725 0.16173458 104 107 52
-0.15369859 0.16392162 0.17177653 42 56 3
-0.15363075 0.16345555 0.17246619 43 58 1
-0.11565752 0.14622718 0.19385180 7 38 0
-0.10817301 0.14459087 0.19339125 52 86 9
-0.11118041 0.14462170 0.19374833 53 85 0
-0.11432495 0.14503041 0.19401835 73 98 6
-0.15853131 0.16933210 0.16688602 132 139 62
-0.14238581 0.15772967 0.18044938 105 128 48
-0.14326595 0.15811287 0.18000506 101 122 47
-0.16199851 0.17151701 0.16189998 20 34 0
-0.16656123 0.16832933 0.15863569 113 126 36
-0.16032231 0.16620444 0.16579901 78 92 30
-0.15441865 0.16985118 0.16976768 106 118 32
-0.12289637 0.15290681 0.18944095 53 79 42
-0.12177787 0.15573075 0.18819955 74 90 28
-0.12185685 0.15537177 0.18821201 84 97 41
-0.16132912 0.17089787 0.16393071 44 62 2
-0.12102175 0.15166198 0.19112431 9 42 0
-0.11167345 0.14860663 0.19143406 20 60 0
-0.11410269 0.15140939 0.19000871 33 38 31
-0.11190738 0.14731240 0.19252574 46 86 0
-0.13472201 0.15356448 0.18447140 73 96 14
-0.12639853 0.15864986 0.18722998 64 76 12
-0.12713572 0.15871912 0.18671717 70 82 18
-0.16714378 0.17387402 0.15612984 48 64 2
-0.15289503 0.16512118 0.17079848 115 116 84
-0.14016791 0.15683171 0.18159331 105 127 52
-0.14433323 0.16135348 0.17758270 47 60 17
-0.14112769 0.16114748 0.17937189 50 61 18
-0.15200531 0.16710678 0.17221034 105 116 37
-0.15378109 0.16723716 0.17024678 110 123 43
-0.13939163 0.16189848 0.18036288 66 84 2
-0.13870367 0.16148832 0.18082958 56 72 1
-0.15276138 0.16888621 0.17126808 109 121 37
-0.14943278 0.16624629 0.17448930 101 110 29
-0.15067597 0.16449228 0.17281429 125 122 91
-0.15140076 0.16470353 0.17197840 130 126 97
-0.12731598 0.15285081 0.18856198 28 61 4
-0.11688755 0.14864179 0.19278166 13 50 0
-0.18068689 0.17708646 0.13179898 168 152 90
-0.17909028 0.17786250 0.13592021 95 101 11
-0.17258011 0.17617548 0.13762480 99 98 34
-0.17219093 0.17571425 0.13163154 124 124 50
-0.17275551 0.17667137 0.13191147 94 95 25
-0.17383730 0.17764826 0.13221236 95 96 30
-0.17537284 0.17804274 0.13330662 83 84 14
-0.17692950 0.17999060 0.12328313 106 104 53
-0.17766380 0.18085028 0.12554979 89 87 28
-0.17387150 0.17833279 0.12521854 103 104 34
-0.17345062 0.17841363 0.12110576 105 107 23
-0.17464480 0.17873627 0.12522577 96 102 30
-0.17386186 0.17566384 0.14707781 76 79 24
-0.17476390 0.17663983 0.14302462 80 81 23
-0.17332713 0.17602766 0.12605909 169 162 94
-0.17333072 0.17707865 0.12571408 114 115 35
-0.17695566 0.17539755 0.15012231 77 73 0
-0.17522337 0.17528731 0.15286402 94 91 20
-0.17541546 0.17560844 0.14991903 66 61 3
-0.17881778 0.17376086 0.15966921 118 121 4
-0.18102333 0.17203091 0.16027121 112 115 2
-0.17911449 0.17459229 0.15119624 100 98 0
-0.17645811 0.17480773 0.15414119 83 82 0
-0.17751320 0.17472070 0.15942809 120 125 0
-0.17776516 0.17419453 0.15806863 114 118 0
-0.17887421 0.17392083 0.15482868 106 108 1
-0.17919637 0.17397614 0.15367776 107 109 0
-0.17562699 0.17516424 0.15429562 88 87 4
-0.17622487 0.17507796 0.15636478 99 102 0
-0.18205556 0.17791241 0.13378710 162 153 88
-0.17309058 0.17702986 0.13374387 104 105 39
-0.17345594 0.17690828 0.13585173 103 102 38
-0.17401393 0.17666106 0.13948417 87 88 22
-0.17529823 0.17875467 0.12736391 89 90 20
-0.17472602 0.17818077 0.12990689 85 86 18
-0.18462841 0.18152624 0.13473533 128 128 56
-0.18635093 0.18239789 0.13817450 121 128 58
-0.17206971 0.17485590 0.12923904 218 203 170
-0.18475176 0.17936328 0.13420215 152 156 80
-0.18634467 0.18262899 0.13738656 134 135 67
-0.18727657 0.18330212 0.13926812 128 134 70
-0.18120225 0.18058510 0.12884365 121 121 51
-0.17963523 0.18128452 0.12856351 126 124 50
-0.18133961 0.17888089 0.12729624 144 139 73
-0.18255833 0.17832807 0.13184653 214 207 152
-0.17796403 0.18018982 0.12912257 78 83 1
-0.18044828 0.17886767 0.12932639 121 123 40
-0.18523160 0.18005535 0.13526386 149 155 83
-0.18693596 0.18123063 0.13761008 152 158 88
-0.17881425 0.17555271 0.14203374 104 100 0
-0.17902973 0.17492899 0.14544189 103 101 0
-0.17876391 0.17629623 0.14346701 103 98 4
-0.17869641 0.17671096 0.14161736 95 92 0
-0.17892447 0.17459244 0.13962212 148 141 53
-0.17765586 0.17257236 0.14479281 157 152 58
-0.17813550 0.17303133 0.14433298 164 159 67
-0.17695725 0.17209935 0.14891689 198 191 85
-0.17701454 0.17229253 0.15130682 184 177 44
-0.17923889 0.17169957 0.15568349 171 163 39
-0.17866726 0.17261951 0.15330526 143 133 20
-0.17628105 0.17155199 0.15269022 186 176 53
-0.17893034 0.17588057 0.12357925 145 143 43
-0.17977211 0.17635961 0.13388915 154 148 60
-0.17876664 0.17393094 0.13968143 151 141 56
-0.17845227 0.17552675 0.12723143 141 139 39
-0.17568941 0.17435420 0.12928875 162 160 59
-0.17590426 0.17465113 0.12768064 160 158 55
-0.17351165 0.17504299 0.12616669 145 152 36
-0.17373653 0.17354551 0.13412482 167 169 70
-0.17303307 0.17456567 0.12896375 160 160 62
-0.18033627 0.17642783 0.13163927 144 137 59
-0.17879388 0.17704533 0.13987289 92 93 0
-0.17651233 0.17633797 0.14592344 73 72 8
-0.17581603 0.17733827 0.14036562 83 84 16
-0.17439350 0.17650072 0.14243279 95 95 35
-0.17424180 0.17636855 0.14286837 96 97 39
-0.17833565 0.17520410 0.13081086 155 152 55
-0.17805064 0.17493778 0.13249661 157 153 54
-0.17672786 0.17436907 0.13303193 159 157 57
-0.17682958 0.17834169 0.13390647 77 81 5
-0.17651118 0.17802203 0.13601497 76 78 3
-0.17951277 0.17805420 0.13154462 87 93 3
-0.17808822 0.18118258 0.12611443 94 94 30
-0.17844145 0.18073925 0.12536977 92 90 29
-0.31814131 -0.02092119 0.23106824 168 172 137
-0.31647721 -0.02044147 0.23313682 134 150 105
-0.31726694 -0.01798292 0.23261896 151 162 120
-0.31752887 -0.01942793 0.23265198 161 167 129
-0.31234565 -0.00727718 0.23674287 104 115 55
-0.31333113 -0.01063375 0.23550694 118 129 89
-0.31188822 -0.00477326 0.23833318 96 115 36
-0.31578317 -0.01789335 0.23435371 124 141 89
-0.31367868 -0.01335267 0.23509510 131 144 101
-0.31517079 -0.01687720 0.23435377 138 150 114
-0.31449702 -0.01899238 0.23191573 171 173 126
-0.31563398 -0.01978390 0.23367828 139 152 99
-0.31256467 -0.00779100 0.23555815 111 121 69
-0.30319145 0.01628058 0.24619423 149 166 70
-0.30580524 0.01099240 0.24370413 136 156 71
-0.30316386 0.01480666 0.24494138 163 182 90
-0.30346882 0.01826825 0.24782814 159 176 70
-0.30658078 0.01234780 0.24495400 144 167 76
-0.31018096 -0.00201164 0.23921967 99 116 46
-0.30928671 0.00049918 0.23988366 107 126 62
-0.31031802 -0.00428524 0.23956844 85 107 34
-0.31237665 -0.00987929 0.23694433 75 91 29
-0.31404468 -0.01152621 0.23506422 88 96 47
-0.31295109 -0.00781254 0.23602761 82 93 37
-0.30330285 0.02026842 0.24796000 156 176 61
-0.30470583 0.01883935 0.24707344 137 168 48
-0.30627984 0.01606604 0.24607502 145 174 55
-0.31474039 -0.01165791 0.23369591 111 115 78
-0.31430334 -0.01903198 0.23132609 188 176 150
-0.30378485 0.01465666 0.24178176 113 150 36
-0.30026689 0.02089995 0.24402364 124 160 24
-0.30199704 0.01913272 0.24379000 133 167 28
-0.30012047 0.02071669 0.24382827 124 160 24
-0.30371931 0.01281838 0.24146585 125 151 88
-0.30686235 0.00805543 0.23981528 123 148 64
-0.30756548 0.00803859 0.24087961 128 160 61
-0.30613261 0.01183694 0.24176037 141 170 77
-0.30607703 0.01102806 0.24093737 136 163 82
-0.30883700 0.00151005 0.23993941 112 131 67
-0.30668929 0.00522104 0.24092567 135 150 91
-0.30589354 0.00820122 0.24026324 125 146 81
-0.30546647 0.00683989 0.24051531 139 148 105
-0.31424627 -0.01254103 0.23333529 140 147 116
-0.30763930 0.01089934 0.24381328 140 162 61
-0.30645439 0.01339812 0.24393395 144 174 44
-0.30423439 0.01786513 0.24413913 147 180 47
-0.30092421 0.02534660 0.24635985 157 190 47
-0.30028042 0.02595443 0.24640170 156 188 45
-0.29681596 0.04060733 0.25093904 133 161 48
-0.29939935 0.03331377 0.25004697 151 182 52
-0.30062765 0.02959888 0.24939862 155 185 55
-0.30283767 0.02476286 0.24945080 172 198 88
-0.30212027 0.02756183 0.24958718 163 189 62
-0.30224496 0.02563527 0.24752519 146 176 52
-0.30412775 0.02085257 0.24600811 144 175 56
-0.30307293 0.02440771 0.24743645 160 190 58
-0.30607438 0.01519649 0.24492155 144 172 49
-0.30544218 0.01733435 0.24546111 142 170 57
-0.30281690 0.02429640 0.24963500 155 179 67
-0.31630194 -0.01600230 0.23080964 166 166 138
-0.31272903 -0.00658209 0.23616414 79 95 24
-0.31549031 -0.02049677 0.23033167 216 204 178
-0.31826213 -0.02103153 0.23001416 181 175 141
-0.30227926 0.02379489 0.24966723 181 201 67
-0.09562310 0.01441910 0.26560596 129 151 66
-0.09892202 0.02389736 0.26623762 112 136 14
-0.09932004 0.02918043 0.26492625 103 125 17
-0.09831356 0.02626311 0.26450062 90 111 10
-0.09811316 0.02186845 0.26618952 127 139 53
-0.09680896 0.01667032 0.26650077 113 134 41
-0.09720577 0.02217498 0.26519224 94 113 23
-0.09817268 0.03200364 0.26506534 92 109 17
-0.09847260 0.03320286 0.26406503 66 88 6
-0.09810500 0.03525846 0.26629514 118 140 31
-0.09814278 0.03076693 0.26680312 143 160 66
-0.09977710 0.03966741 0.26521409 111 134 54
-0.09908646 0.03654050 0.26609546 109 128 47
-0.09816886 0.01929700 0.26666194 115 133 34
-0.09955814 0.03584924 0.26572683 99 118 54
-0.09918801 0.03367297 0.26509586 83 104 35
-0.09903778 0.02922675 0.26608121 95 109 32
-0.09874968 0.02939828 0.26682165 108 112 51
-0.09874343 0.03288451 0.26632565 110 127 57
-0.09847585 0.01869349 0.26604417 117 139 28
-0.09843060 0.02073451 0.26608327 100 122 13
-0.18608125 0.17884281 0.11345606 187 161 128
-0.18463336 0.17839052 0.11326730 189 165 129
-0.18233812 0.17481680 0.11438482 210 183 153
-0.18151572 0.17431089 0.11453523 199 173 138
-0.18083733 0.18055587 0.11403748 91 87 24
-0.17980431 0.18141361 0.11392567 85 81 20
-0.17808814 0.18016310 0.12097991 89 84 28
-0.17968588 0.18005982 0.12122034 95 90 32
-0.18042816 0.17866735 0.11854126 110 106 32
-0.17908183 0.18090139 0.11705294 85 84 19
-0.17873393 0.18061978 0.11835235 86 83 16
-0.18018784 0.17885518 0.12086458 107 107 33
-0.18035169 0.17859194 0.12305710 113 109 45
-0.17788632 0.17441118 0.11348459 193 171 113
-0.17586720 0.17586471 0.11503842 187 172 113
-0.15526557 0.26308158 0.11383411 132 114 104
-0.15540631 0.26308280 0.11372145 170 152 140
-0.15448849 0.26285088 0.11319806 209 192 176
-0.15192926 0.26261890 0.11434557 98 83 78
-0.15685199 0.26374754 0.11631022 45 36 31
-0.15340661 0.26323301 0.11728106 47 38 33
-0.15439576 0.26325253 0.11591024 49 37 37
-0.17718616 0.17550735 0.11685120 188 174 109
-0.17704245 0.17551233 0.11835141 161 150 70
-0.17416774 0.17627105 0.11899080 137 137 41
-0.17375574 0.17607263 0.12136721 129 132 41
-0.17584711 0.17571551 0.11952891 154 152 51
-0.17552312 0.17569898 0.11976931 154 152 51
-0.17551492 0.17561410 0.12084510 154 156 47
-0.17707749 0.18045968 0.11906561 114 115 55
-0.17581284 0.17973550 0.11368313 88 89 11
-0.17773788 0.18113643 0.11550597 94 90 26
-0.17462105 0.17766266 0.11416230 121 124 21
-0.17465203 0.17790870 0.11352508 117 120 17
-0.17568444 0.17960426 0.12023613 113 113 51
-0.17511909 0.17931935 0.11498906 86 86 12
-0.18097170 0.17414668 0.11542104 198 171 126
-0.18040873 0.17794028 0.11973719 121 119 44
-0.17727038 0.17541027 0.12281596 157 159 52
-0.17977418 0.17622435 0.11449275 141 132 63
-0.18055031 0.17513666 0.11696905 194 176 128
-0.18031292 0.17541291 0.11616535 198 174 130
-0.12862192 0.08307942 0.25772229 206 210 74
-0.12935981 0.08435263 0.25700384 143 163 4
-0.12788635 0.08026386 0.25673732 236 244 141
-0.12559812 0.07742552 0.25635019 178 185 71
-0.12458653 0.07712039 0.25707996 157 175 53
-0.10774281 0.06735861 0.26138940 123 155 54
-0.10764110 0.06803894 0.26126969 132 162 62
-0.10897351 0.06697199 0.26130041 111 141 51
-0.10787243 0.07050277 0.26076490 119 148 58
-0.11052030 0.07499389 0.26003760 136 163 58
-0.10545760 0.06764599 0.26133066 121 153 46
-0.10381338 0.06021902 0.26328483 119 146 49
-0.11562978 0.07556694 0.25906888 136 165 72
-0.11769782 0.07724352 0.25881013 145 176 73
-0.10458732 0.06891257 0.26023513 99 137 18
-0.11081914 0.07597321 0.25969321 134 160 59
-0.11019233 0.07478628 0.26002026 132 160 57
-0.10912314 0.07332339 0.26031008 125 151 60
-0.12951037 0.08469839 0.25748196 117 128 6
-0.11753237 0.07603046 0.25889346 145 175 75
-0.11523602 0.07012264 0.25874111 133 153 68
-0.12057569 0.08277983 0.25802535 151 176 74
-0.12297308 0.08508176 0.25799099 153 173 60
-0.12335457 0.08572569 0.25795516 151 172 55
-0.11438394 0.07430237 0.25941917 142 171 79
-0.11365151 0.07549471 0.25953045 138 166 79
-0.11280888 0.07522056 0.25973079 127 152 68
-0.12963621 0.08905097 0.25941095 182 191 64
-0.13203579 0.09054989 0.25936443 205 213 112
-0.13408101 0.09231728 0.25867218 126 144 0
-0.13428585 0.09414281 0.25854796 144 161 23
-0.13032754 0.08659548 0.25838664 141 150 25
-0.10085320 0.05250438 0.26281711 134 158 20
-0.10014734 0.05043571 0.26284266 144 167 50
-0.10123871 0.05249205 0.26175770 88 119 0
-0.10384133 0.05010296 0.25971308 72 98 1
-0.10395412 0.05072700 0.26014283 81 109 0
-0.10106128 0.04946384 0.26186287 83 111 1
-0.10505790 0.05254044 0.25641358 68 95 0
-0.10144381 0.04290181 0.25809345 104 132 0
-0.10384022 0.05814259 0.26324022 125 153 51
-0.10186875 0.05340714 0.26391101 120 141 48
-0.10375511 0.05878359 0.26337460 128 157 51
-0.09887370 0.03720629 0.25906685 72 92 20
-0.09686241 0.01810395 0.26542562 111 133 25
-0.10429318 0.05260202 0.26232406 113 141 57
-0.10152224 0.04427086 0.26433912 112 131 50
-0.10146665 0.04317797 0.26450926 109 131 58
-0.12654209 0.09804365 0.25516126 151 169 57
-0.12356506 0.09301575 0.25641245 147 167 54
-0.12433843 0.09560721 0.25550318 159 176 74
-0.12715729 0.09461220 0.25693470 153 170 42
-0.12221432 0.08994055 0.25734103 154 176 67
-0.09818172 0.02956836 0.26220632 107 129 21
-0.10995369 0.05809294 0.25604057 82 106 8
-0.10540293 0.04972496 0.25818303 96 121 30
-0.09739427 0.02878658 0.26198721 116 138 65
-0.10261633 0.04505455 0.25933287 88 112 26
-0.10164638 0.04310629 0.25676575 112 137 0
-0.09859231 0.03519299 0.25970101 73 95 0
-0.10315757 0.04594608 0.25870773 86 111 17
-0.10363016 0.04689521 0.25547048 100 118 0
-0.10444503 0.04911539 0.25623471 80 101 6
-0.10708482 0.05415285 0.25744459 88 113 19
-0.10718250 0.05378594 0.25830415 94 120 33
-0.09914494 0.03225380 0.26187626 107 133 10
-0.10963931 0.05874747 0.25520328 78 104 3
-0.10236331 0.04343881 0.26075274 92 119 42
-0.10105415 0.03899913 0.26195043 94 120 49
-0.10550602 0.05165010 0.25620344 78 105 2
-0.10032199 0.03709998 0.26089516 97 125 15
-0.10792123 0.05572103 0.25600195 74 100 3
-0.12399817 0.08791862 0.25779989 152 171 56
-0.12678419 0.09119423 0.25781450 176 190 51
-0.12672606 0.09136572 0.25779593 184 196 58
-0.12824054 0.08984349 0.25849205 191 206 65
-0.12932904 0.09208892 0.25883999 184 196 68
-0.13146383 0.09331035 0.25958887 175 184 65
-0.13045360 0.09488524 0.25815713 164 175 47
-0.12713613 0.09162769 0.25781935 183 198 57
-0.10547577 0.05330119 0.25572589 70 94 10
-0.12445316 0.08181994 0.25849134 167 187 66
-0.12404027 0.08222026 0.25853604 162 183 66
-0.13488433 0.09617092 0.25858930 122 139 7
-0.13612095 0.09644698 0.25778788 123 141 21
-0.09754213 0.02055415 0.26464799 103 128 10
-0.09776832 0.01810008 0.26566803 114 136 25
-0.09563819 0.01445414 0.26544243 131 151 54
-0.11907807 0.08123250 0.25828257 147 177 65
-0.11893095 0.08298588 0.25804922 146 172 75
-0.12019678 0.08346101 0.25792921 148 173 71
-0.11378977 0.07835553 0.25926414 138 163 79
-0.11385555 0.07780997 0.25929156 128 154 67
-0.11253160 0.08134438 0.25778484 120 146 49
-0.11186156 0.08090737 0.25773689 106 132 45
-0.11846421 0.08667625 0.25751173 153 177 81
-0.11409593 0.07990937 0.25906789 121 150 60
-0.12650141 0.08651012 0.25852540 183 194 66
-0.12488228 0.08632430 0.25812790 178 197 56
-0.11717542 0.06747274 0.25368944 107 121 10
-0.10712992 0.05557051 0.25749061 101 126 0
-0.11924332 0.06979729 0.25304386 109 122 16
-0.11939589 0.07080436 0.25297362 153 191 0
-0.11530098 0.07157158 0.25413176 161 205 6
-0.13278499 0.09245570 0.26003999 188 197 88
-0.13409941 0.09615538 0.25882646 143 161 25
-0.11510322 0.07439704 0.25327238 123 170 0
-0.11658651 0.07439861 0.25312397 132 180 0
-0.12816052 0.09648931 0.25629404 156 173 41
-0.12864944 0.09974680 0.25477788 144 159 42
-0.12730347 0.09900857 0.25484949 158 179 60
-0.11454197 0.06468394 0.25491244 76 100 2
-0.11415902 0.06351419 0.25569439 90 116 15
-0.11168107 0.06031455 0.25578767 77 102 1
-0.13102543 0.08824687 0.25759667 160 173 5
-0.10375970 0.06565758 0.25902313 128 153 7
-0.10294224 0.06584103 0.26034501 123 146 12
-0.12063217 0.06961677 0.25343472 138 155 40
-0.12029816 0.07338822 0.25280425 166 198 11
-0.12987608 0.09524269 0.25477728 172 193 2
-0.10803240 0.05956944 0.25958306 118 151 0
-0.10525812 0.05600917 0.26133016 81 108 1
-0.10331275 0.06179425 0.26150006 134 158 8
-0.10627765 0.05812073 0.26065725 85 113 0
-0.10307784 0.05697464 0.26172268 98 124 0
-0.10283428 0.06393532 0.26164570 105 135 11
-0.12986450 0.09557239 0.25738776 147 161 38
-0.13156031 0.09790757 0.25679258 135 152 22
-0.10326502 0.05915088 0.26249921 141 167 31
-0.13442202 0.10227539 0.25382310 123 140 8
-0.13675189 0.10337821 0.25276193 138 150 22
-0.13475506 0.10239888 0.25370646 123 140 8
-0.10331987 0.05464958 0.26167515 100 131 2
-0.10209525 0.05528332 0.26227131 98 125 0
-0.12871040 0.08512308 0.25499070 123 146 4
-0.10386496 0.05157761 0.26099113 80 105 3
-0.10385246 0.05183393 0.26116589 78 102 4
-0.12142991 0.07019050 0.25420129 110 129 22
-0.11972862 0.06924953 0.25483567 100 126 17
-0.12206684 0.07747140 0.25284678 118 125 29
-0.12034806 0.08159865 0.25174361 174 207 12
-0.12476335 0.07603277 0.25585458 158 168 69
-0.12443947 0.07569104 0.25559190 178 184 88
-0.12653482 0.07991111 0.25371733 112 136 0
-0.12577665 0.07654858 0.25368530 102 129 0
-0.12075187 0.06950951 0.25416997 109 131 23
-0.12798542 0.09236377 0.25434899 128 159 3
-0.12829676 0.09208293 0.25488332 114 139 0
-0.12915258 0.09319861 0.25556317 172 188 4
-0.11746065 0.07004378 0.25766280 135 155 56
-0.12097976 0.07283460 0.25668707 142 160 58
-0.11682119 0.06883547 0.25717714 131 152 61
-0.10454886 0.05062328 0.26122832 104 128 54
-0.10213793 0.04362600 0.26253659 87 110 42
-0.10367767 0.04788900 0.26123908 94 121 42
-0.10307074 0.04696306 0.26344404 106 129 49
-0.13151990 0.08994728 0.25788420 154 168 10
-0.13540691 0.09572360 0.25753242 149 163 16
-0.10980769 0.06049424 0.25993812 124 149 66
-0.10689675 0.05638096 0.26117000 122 146 68
-0.10866419 0.05727795 0.25912416 109 135 61
-0.11821331 0.07187586 0.25788975 141 159 57
-0.12229478 0.07436413 0.25663483 131 150 43
-0.12152709 0.07527918 0.25718671 170 188 78
-0.12022907 0.07354330 0.25737011 140 156 58
-0.12047259 0.07425668 0.25742424 151 172 67
-0.13799152 0.10106291 0.25391594 117 137 4
-0.13831539 0.09817073 0.25572133 120 133 15
-0.13540553 0.09983058 0.25631255 109 129 4
-0.13841346 0.10132127 0.25346968 112 134 0
-0.13860963 0.10102177 0.25193885 124 140 8
-0.11216702 0.06800674 0.25549972 138 176 3
-0.11156645 0.07132375 0.25448406 163 196 3
-0.13218468 0.09652912 0.25577065 124 138 0
-0.12955904 0.08728994 0.25654438 121 143 0
-0.12255306 0.07246627 0.25357813 137 154 13
-0.12229333 0.07148188 0.25370318 142 161 19
-0.10498264 0.05024460 0.25999680 99 124 43
-0.10406230 0.04831133 0.26049495 92 117 34
-0.10626678 0.05388549 0.26018488 106 132 58
-0.10839438 0.05694844 0.25928071 108 134 60
-0.11414000 0.07237576 0.25952432 140 169 76
-0.11453900 0.07233908 0.25931481 139 165 74
-0.10702126 0.05829772 0.26134729 112 140 56
-0.11298775 0.06612808 0.25918597 127 151 67
-0.11352784 0.06780376 0.25910419 130 156 69
-0.10983060 0.06186309 0.26031530 126 154 69
-0.10570730 0.05554273 0.26173246 115 142 63
-0.10734334 0.06273676 0.26179352 105 138 34
-0.10921594 0.06646236 0.26120999 120 150 60
-0.10703680 0.06200305 0.26187110 110 139 47
-0.10132457 0.04181364 0.26439390 110 133 61
-0.10068239 0.03784914 0.26294166 83 109 38
-0.10110445 0.04060796 0.26407579 82 104 40
-0.12293117 0.07642873 0.25710076 154 174 53
-0.12541987 0.08044659 0.25815287 176 189 57
-0.12767036 0.08277293 0.25409368 128 154 5
-0.12804623 0.08537944 0.25432846 114 141 0
-0.13602757 0.09895154 0.25227359 173 186 11
-0.13213193 0.09403885 0.25759014 150 167 11
-0.13252136 0.09468181 0.25762838 154 171 15
-0.12340906 0.07810418 0.25310299 145 163 15
-0.12283970 0.07763885 0.25300482 127 137 15
-0.12263908 0.07256350 0.25492337 128 146 47
-0.12357754 0.07429080 0.25487807 166 181 80
-0.13754609 0.09859905 0.25326720 165 179 8
-0.09711434 0.02221585 0.26456782 94 110 22
-0.12704273 0.09569884 0.25221610 117 149 0
-0.12845117 0.09603170 0.25263852 134 161 6
-0.10830592 0.06020407 0.25929046 124 157 4
-0.09764344 0.02663511 0.26447195 91 110 44
-0.11285438 0.06527574 0.25519991 110 144 5
-0.10972104 0.05996139 0.25640228 99 123 3
-0.10948302 0.05965972 0.25648203 100 124 4
-0.11161942 0.06370273 0.25628120 117 149 4
-0.13556781 0.09828061 0.25446883 145 163 3
-0.11654201 0.06690833 0.25381389 126 147 26
-0.09765418 0.03115466 0.26151523 92 114 39
-0.09830970 0.03464834 0.26131845 76 105 23
-0.09758651 0.02687739 0.26389131 81 98 30
-0.10342936 0.04949584 0.25675619 65 90 0
-0.09737141 0.02613306 0.26260999 84 103 11
-0.10729252 0.05607402 0.25836876 76 101 0
-0.10912310 0.05998055 0.25840238 95 121 0
-0.10220806 0.04595466 0.25844783 74 97 9
-0.11428867 0.06706404 0.25831214 123 150 55
-0.11379407 0.06414827 0.25700134 110 135 31
-0.11166725 0.06142891 0.25784355 107 132 40
-0.11424109 0.06898574 0.25496909 165 208 7
-0.11340561 0.06695464 0.25564516 111 152 0
-0.10261888 0.04839038 0.25608239 61 85 9
-0.10287526 0.04876316 0.25637105 59 84 1
-0.09934233 0.04063487 0.25749341 52 62 0
-0.09989243 0.04805053 0.26386744 121 137 49
-0.29786599 0.02034576 0.24303623 118 144 19
-0.31038511 -0.00363925 0.24025470 93 118 35
-0.31044900 -0.00070662 0.24173921 147 168 67
-0.30940470 0.00256383 0.24323423 130 158 56
-0.30894053 0.00198718 0.24228597 123 146 66
-0.30664662 0.00759083 0.24249890 127 152 71
-0.30800816 0.00485616 0.24262622 124 151 72
-0.30814847 0.00486406 0.24286358 129 157 73
-0.29933619 0.01791468 0.24438217 162 178 79
-0.29280818 0.02339304 0.24643178 157 187 73
-0.29311126 0.02541484 0.24803039 148 178 64
-0.30246270 0.01215578 0.24208549 147 156 109
-0.29618397 0.02509418 0.24903344 158 182 68
-0.29697502 0.02286469 0.24736850 160 178 66
-0.29770240 0.02264086 0.24769266 165 184 69
-0.29498777 0.02606803 0.24911568 154 183 65
-0.30041569 0.02064126 0.24772364 160 177 65
-0.30195054 0.01531073 0.24445382 158 176 90
-0.31090081 0.00050769 0.24214445 136 150 53
-0.31019109 0.00222755 0.24282278 180 194 115
-0.30905589 0.00779446 0.24293411 143 171 48
-0.30471227 0.00919945 0.24183598 141 159 85
-0.29759029 0.01926574 0.24263778 171 192 89
-0.30117020 0.01523501 0.24260877 176 187 145
-0.30062482 0.01694634 0.24301758 152 180 80
-0.29675215 0.02088224 0.24442562 158 170 70
-0.29095939 0.02810486 0.24956535 144 174 62
-0.29004669 0.02605130 0.24778441 140 168 45
-0.29126677 0.02698382 0.24878477 153 182 64
-0.31156266 0.00166929 0.24139117 107 131 37
-0.31097996 0.00316374 0.24194552 133 155 55
-0.30915737 0.00777667 0.24373837 149 174 44
-0.30810410 0.00770581 0.24419984 136 166 70
-0.31081817 -0.00188402 0.23836806 100 118 36
-0.30971113 0.00266190 0.24000004 108 134 25
-0.18994333 0.17552009 0.11700662 225 196 166
-0.18295968 0.17375988 0.11502057 216 186 150
-0.18409243 0.17338742 0.11610170 221 191 153
-0.18363720 0.17478111 0.11474060 210 183 153
