0.02871894 0.11082742 0.18803892 102 96 0
0.02681157 0.10901860 0.18899019 126 125 19
0.02698838 0.10952599 0.18784374 116 113 0
0.03126141 0.11184893 0.17741415 129 125 28
0.03020879 0.11259287 0.17629115 103 99 0
0.03079896 0.11219824 0.17683205 107 102 8
0.03339888 0.11159151 0.16283794 186 176 89
0.03337776 0.11164608 0.15985361 188 179 86
0.03102509 0.11086673 0.18109514 118 115 0
0.03123242 0.11130089 0.17937858 115 113 2
0.02999100 0.11307642 0.16099352 99 88 22
0.02976973 0.11328430 0.16046819 134 125 48
0.02950484 0.11318976 0.16223963 134 132 49
0.03009553 0.11332078 0.15884715 191 182 107
0.03381259 0.11438897 0.15487254 141 139 30
0.03344990 0.11446213 0.15692431 120 117 10
0.05440444 0.04969510 0.20593858 142 171 78
0.05488927 0.05031519 0.20616350 146 176 76
0.05957286 0.05077146 0.20524369 99 90 21
0.05980600 0.04849311 0.20614061 123 94 24
0.05727486 0.05500333 0.20441224 137 125 113
0.04289025 0.07397082 0.20516530 123 151 48
0.04975319 0.07648257 0.20214683 115 129 34
0.04152871 0.07618959 0.20469645 112 141 61
0.05486361 0.06087520 0.20304392 170 145 148
0.05494203 0.05861742 0.20281327 162 137 141
0.05562854 0.05957575 0.20309785 142 117 120
0.05510271 0.05568345 0.20265348 195 167 163
0.05538920 0.05659302 0.20283227 192 168 164
0.05717073 0.05482997 0.20355068 172 144 141
0.05730287 0.05365387 0.20354111 193 149 146
0.05730344 0.05444620 0.20358853 177 149 146
0.05549857 0.05361864 0.20594782 150 176 77
0.04336296 0.07622535 0.20117846 145 108 81
0.04382608 0.07220955 0.20543301 105 138 49
0.04385388 0.07294602 0.20512958 106 139 52
0.04735849 0.07435809 0.20328802 131 158 63
0.04518925 0.07420628 0.20340399 108 141 54
0.04487713 0.07274418 0.20419145 102 135 44
0.04439328 0.07173894 0.20509680 104 137 50
0.05743946 0.04341568 0.20245408 169 130 125
0.05827596 0.04119745 0.20218983 167 127 125
0.05737070 0.03770572 0.20221910 202 174 171
0.05865693 0.02516110 0.19862315 170 137 122
0.05828079 0.02727528 0.19887902 191 154 135
0.04188448 0.07790989 0.20330425 89 121 20
0.05853974 0.03710258 0.20164701 162 152 117
0.05884083 0.03724743 0.20148814 166 155 123
0.05849088 0.03838356 0.20197885 167 158 117
0.04593282 0.08302844 0.20099953 112 144 33
0.04596119 0.08071639 0.20168626 116 145 39
0.05347830 0.04268752 0.20390961 211 180 178
0.05338870 0.04199255 0.20456725 163 144 114
0.05374204 0.04147147 0.20376609 220 191 177
0.05336095 0.06473755 0.20529833 158 201 96
0.05849053 0.03273379 0.20014417 184 173 84
0.05820516 0.03034616 0.19927274 211 190 135
0.05835882 0.03285208 0.20028107 171 161 64
0.05581018 0.03639235 0.20293872 140 134 14
0.05390681 0.04107795 0.20364268 219 196 165
0.05576976 0.03595827 0.20305249 131 130 22
0.05428747 0.04020170 0.20349061 223 189 161
0.04365364 0.07496998 0.20438983 112 141 57
0.04397533 0.07474113 0.20412347 99 131 46
0.05492945 0.06125681 0.20312983 167 145 147
0.05581834 0.04399750 0.20285001 180 145 139
0.05685331 0.03827683 0.20235410 203 172 177
0.05694336 0.04329323 0.20255356 175 140 134
0.05648500 0.04265558 0.20263366 178 147 142
0.05701221 0.04016983 0.20239989 187 160 153
0.05623111 0.04096061 0.20261900 196 165 163
0.05545487 0.04178670 0.20283851 199 168 165
0.05275637 0.06346919 0.20528764 149 185 79
0.05257973 0.06343994 0.20524989 149 185 79
0.05225391 0.06451113 0.20526159 148 183 81
0.05761911 0.05478862 0.20379587 167 143 139
0.05816700 0.05257650 0.20402931 189 129 129
0.04308032 0.08221608 0.20020211 123 147 49
0.04366778 0.08116190 0.20072936 117 142 40
0.05578204 0.03188182 0.20213178 93 103 6
0.05594750 0.03040887 0.20154487 98 106 5
0.05580918 0.03198867 0.20214321 94 103 10
0.05728489 0.02714622 0.19969133 110 102 17
0.05733972 0.05023661 0.20331548 174 93 92
0.05709136 0.04635867 0.20272990 160 101 97
0.05508539 0.05357893 0.20248252 188 161 154
0.05602937 0.05016732 0.20259732 164 99 95
0.04236348 0.07836378 0.20259024 100 135 33
0.05651629 0.05489025 0.20519380 157 174 78
0.04297677 0.08061318 0.20108745 104 131 28
0.04312184 0.07833303 0.20244420 93 128 26
0.04879109 0.07621396 0.20310035 132 158 57
0.03995321 0.07865461 0.20198795 136 148 86
0.04058838 0.07780925 0.20324260 141 170 86
0.06024716 0.04172172 0.20345284 140 117 101
0.06008934 0.04111222 0.20320554 131 105 92
0.05547682 0.05682389 0.20498914 142 162 75
0.05619165 0.03011965 0.20127183 97 105 2
0.05693794 0.03416875 0.20192660 126 126 14
0.05672723 0.05302957 0.20581105 136 162 61
0.03974888 0.08264577 0.20004068 101 129 29
0.03965137 0.07929899 0.20126492 124 121 66
0.03895411 0.08278009 0.19979765 102 128 31
0.05769089 0.04891306 0.20673433 157 183 60
0.05323803 0.05738925 0.20559411 145 175 79
0.04814753 0.08049431 0.20282483 151 177 50
0.05479056 0.05265483 0.20245911 186 155 150
0.05357482 0.04767349 0.20317923 189 158 153
0.05458313 0.04955931 0.20277932 176 132 129
0.05530459 0.04857248 0.20269848 171 134 128
0.05472507 0.04916437 0.20278107 175 134 128
0.05673528 0.04641398 0.20255588 167 118 113
0.05539647 0.04882186 0.20265523 171 132 125
0.04403337 0.08412134 0.19993472 125 150 48
0.04265827 0.08511476 0.19909976 127 146 54
0.04418522 0.08211445 0.20060796 118 143 42
0.04447349 0.08131603 0.20096374 114 139 37
0.04970985 0.07694997 0.20254679 158 171 92
0.03994763 0.08287213 0.19985946 111 135 41
0.04095443 0.08370277 0.19949192 115 137 39
0.04116664 0.08412372 0.19928508 114 133 41
0.04483446 0.07651097 0.20259018 108 138 50
0.04480853 0.07434273 0.20343746 104 137 50
0.05994671 0.04563350 0.20392959 181 143 134
0.05823596 0.04912299 0.20361403 208 156 158
0.05791620 0.04830836 0.20336676 195 141 141
0.05581576 0.06067765 0.20427875 176 180 130
0.05568548 0.05827939 0.20441023 162 179 65
0.05717936 0.03364253 0.20150696 126 130 10
0.05753734 0.03197040 0.20056960 113 120 14
0.05738142 0.02989901 0.20016308 106 115 6
0.04399518 0.07968500 0.20144854 112 136 42
0.04341943 0.07753976 0.20270698 95 130 28
0.05340551 0.06552691 0.20539956 174 213 107
0.05502972 0.06224820 0.20443192 194 210 85
0.04553394 0.07881656 0.20193975 115 143 43
0.04555198 0.07948568 0.20183796 114 142 39
0.04677929 0.08183265 0.20193356 116 149 34
0.04145135 0.07722338 0.20206484 120 132 70
0.04626214 0.07711391 0.20244354 115 141 50
0.04675960 0.07743154 0.20255780 119 145 54
0.04118326 0.07976531 0.19977970 97 76 29
0.04153391 0.07896972 0.20027088 154 120 82
0.05739724 0.04442498 0.20254067 171 113 111
0.05770277 0.04409463 0.20257841 169 114 111
0.05918449 0.04192954 0.20260602 157 94 85
0.05913334 0.04429270 0.20323685 191 135 134
0.04238677 0.07466808 0.20345761 83 124 30
0.04714691 0.07995127 0.20256196 131 159 48
0.04030474 0.07990924 0.20015994 115 94 41
0.03969046 0.07912689 0.20117387 126 116 65
0.05946903 0.04775836 0.20406283 198 146 158
0.05930578 0.04846988 0.20412771 207 166 174
0.04798327 0.07879679 0.20262820 132 160 50
0.04809241 0.07838000 0.20270267 133 161 51
0.04255058 0.07581131 0.20475900 106 134 34
0.04145835 0.07712182 0.20431633 128 158 58
0.05032465 0.06337274 0.20491116 138 171 84
0.05610833 0.04394072 0.20515943 150 177 74
0.05435803 0.04659390 0.20555258 147 177 79
0.05493601 0.04737381 0.20572580 149 178 85
0.05564352 0.04674460 0.20576455 150 180 84
0.05588768 0.04572284 0.20551679 151 179 79
0.04968700 0.05645075 0.20819156 106 135 43
0.04920628 0.05824038 0.20763604 92 125 38
0.04950259 0.05753436 0.20776692 96 129 42
0.04808613 0.05835143 0.20878950 118 143 41
0.04880529 0.05823014 0.20806703 102 135 46
0.05950946 0.04418175 0.20531957 241 239 156
0.05909526 0.05119062 0.20534341 115 106 15
0.04944755 0.06224250 0.20567597 127 157 71
0.05136996 0.05621820 0.20655453 117 143 54
0.05108695 0.05401526 0.20682918 130 157 50
0.04905813 0.06104508 0.20632334 116 146 60
0.05105922 0.05891762 0.20582210 120 148 64
0.05994986 0.04627056 0.20545958 155 133 60
0.05779518 0.04707639 0.20652439 181 199 79
0.05936347 0.04693075 0.20667739 129 103 42
0.05088269 0.05215053 0.20686540 138 166 66
0.05792722 0.05008242 0.20664570 195 208 92
0.05437632 0.05559403 0.20599978 140 170 74
0.05597526 0.04196467 0.20475581 154 178 80
0.05735834 0.02843606 0.20077795 131 139 56
0.05986507 0.02757982 0.19905651 182 166 89
0.04916030 0.05289086 0.20772056 149 171 60
0.04917600 0.05353603 0.20785022 158 177 70
0.05868372 0.04191328 0.20460419 180 199 81
0.05829374 0.04098330 0.20438881 175 195 84
0.05698838 0.04209558 0.20471235 149 173 61
0.05894830 0.04569369 0.20621443 205 209 96
0.05639445 0.05832357 0.20414014 159 151 112
0.05587969 0.05975172 0.20359832 116 105 99
0.06003149 0.04457954 0.20516947 171 146 92
0.05884455 0.04109700 0.20429392 180 194 81
0.04146455 0.07574280 0.20400709 98 139 45
0.04848174 0.08056816 0.20150110 93 111 12
0.04897732 0.07843194 0.20150305 102 113 55
0.05971405 0.04123371 0.20390511 190 191 89
0.05565921 0.05016353 0.20638299 142 173 69
0.06039484 0.04204791 0.20401716 54 68 43
0.05677004 0.04867629 0.20652711 153 187 75
0.05205768 0.05122091 0.20636691 136 169 65
0.05794095 0.04507175 0.20563920 178 197 72
0.05325978 0.05830684 0.20539016 142 172 74
0.05334268 0.05893794 0.20528384 141 171 71
0.05409296 0.06261249 0.20473477 164 195 78
0.04823034 0.08212269 0.20160025 73 88 19
0.05568981 0.04087070 0.20460455 146 167 72
0.05918910 0.02981545 0.19965595 145 144 61
0.04774133 0.08230558 0.20137742 60 78 18
0.06016428 0.02829780 0.19916169 248 212 162
0.05522471 0.04114491 0.20472775 137 161 65
0.05918491 0.02937875 0.19954963 171 164 83
0.05530452 0.04333542 0.20515008 149 175 78
0.05912044 0.02885572 0.19949366 166 158 77
0.06095552 0.02577291 0.19889022 168 151 97
0.05621820 0.03762529 0.20389739 134 157 67
0.05620368 0.03950231 0.20434850 147 167 72
0.05967702 0.02809879 0.19842817 171 124 108
0.05945136 0.03180448 0.20022760 147 140 52
0.05941997 0.03027334 0.19932821 112 76 44
0.06048977 0.02561802 0.19788113 162 125 107
0.05846765 0.03704875 0.20312878 140 158 72
0.05779614 0.03777391 0.20350856 143 163 74
0.06070098 0.02625441 0.19846956 109 74 44
0.05940031 0.03805967 0.20171270 163 154 111
0.05974981 0.03755050 0.20186697 164 149 116
0.05880577 0.02755374 0.19959533 150 145 64
0.05842559 0.03460599 0.20224337 127 146 54
0.05859137 0.03628742 0.20282844 140 154 66
0.05924411 0.03591083 0.20145531 176 163 144
0.05490361 0.05602964 0.20564179 153 183 83
0.05767282 0.03915953 0.20390822 155 171 83
0.04961045 0.07527855 0.20314986 132 159 62
0.05860065 0.05144847 0.20559773 132 111 54
0.05807398 0.05387845 0.20438835 150 126 116
0.05528999 0.05608541 0.20543282 139 166 73
0.05320739 0.05357235 0.20599113 143 168 76
0.04981560 0.05237242 0.20737286 145 172 65
0.04975299 0.05579256 0.20815323 113 138 44
0.06048769 0.02458761 0.19797933 166 138 124
0.05846059 0.02911920 0.19868557 201 155 132
0.05892325 0.02786449 0.19846830 180 131 116
0.05236848 0.05347757 0.20630577 133 157 61
0.05293390 0.05322277 0.20610508 138 164 73
0.04823716 0.06748021 0.20451979 140 168 81
0.04829275 0.06799261 0.20450148 145 171 82
0.05043842 0.06917106 0.20460875 155 185 85
0.05006868 0.06636039 0.20472060 143 179 81
0.05128612 0.06782133 0.20493092 147 179 78
0.05303495 0.06596937 0.20551130 167 204 99
0.05455073 0.05988732 0.20473769 148 174 67
0.05515231 0.05207591 0.20615071 142 180 71
0.04679903 0.05522932 0.20813182 95 112 32
0.04731729 0.05793839 0.20877184 121 110 65
0.05215672 0.05944924 0.20549682 138 167 75
0.05092233 0.06087678 0.20524622 144 171 90
0.04898107 0.07313383 0.20362340 140 166 75
0.05007783 0.07234516 0.20388439 124 150 61
0.05320844 0.05103209 0.20601527 137 169 72
0.05157775 0.06885577 0.20508236 149 180 76
0.05241708 0.06694934 0.20530538 142 177 73
0.05057748 0.07228401 0.20385252 124 151 58
0.04729373 0.06983286 0.20426515 136 164 77
0.04987615 0.07042829 0.20428006 154 184 86
0.04799908 0.07200145 0.20381880 134 160 69
0.05742223 0.05089432 0.20642664 153 182 54
0.04701229 0.07172535 0.20389396 130 158 73
0.04560136 0.07239372 0.20383722 101 131 43
0.05602233 0.05213645 0.20615377 148 176 76
-0.00877469 0.10075177 0.24786288 129 144 3
-0.01054853 0.10003652 0.24920455 122 137 18
-0.01103002 0.10069187 0.24878551 151 159 22
-0.02419169 0.08644665 0.26258594 178 183 81
-0.02396522 0.08680099 0.26161754 121 107 62
-0.00160145 0.10066593 0.24376732 97 120 3
-0.00193144 0.10114329 0.24360323 106 125 7
-0.00185605 0.09984403 0.24467307 102 122 9
-0.00072410 0.09898771 0.24455841 100 117 5
-0.00906465 0.09425993 0.26310903 99 119 8
-0.01231919 0.08882530 0.26367709 167 168 90
-0.01287483 0.08866105 0.26462331 167 168 88
-0.01203763 0.08897851 0.26351166 165 166 86
-0.00102336 0.10375455 0.24162367 130 143 1
0.00037957 0.10373557 0.24053107 137 147 0
-0.00047844 0.10297869 0.24151750 128 139 1
-0.00175773 0.10262164 0.24267064 130 141 2
-0.00260457 0.10294023 0.24320433 133 145 1
0.00500967 0.10966307 0.23403621 135 136 6
0.00411409 0.10831272 0.23523319 110 118 7
0.00543866 0.10919110 0.23353060 143 148 2
-0.01420221 0.09353878 0.25850073 94 118 4
-0.01006435 0.09568679 0.25415891 104 122 2
-0.01336062 0.09587494 0.25438565 104 123 8
-0.01170824 0.09516729 0.25531572 94 114 3
-0.01350825 0.09447103 0.25679916 93 116 12
-0.00348322 0.09476119 0.25661570 95 115 0
-0.00335424 0.09483186 0.25454199 111 130 2
-0.01576076 0.08859923 0.27168098 94 112 0
-0.01623317 0.08730548 0.27161163 143 144 24
-0.00492771 0.10379224 0.24424620 148 153 1
-0.00366099 0.10278624 0.24400279 130 143 1
-0.00533431 0.10369676 0.24453774 150 155 0
-0.01539359 0.09077818 0.26864836 97 121 1
-0.01510157 0.09126876 0.26727745 94 119 0
-0.02414883 0.08752090 0.27194464 84 102 3
-0.02353479 0.08805485 0.27086538 84 100 1
-0.02493912 0.08723845 0.27254495 86 100 2
-0.02298626 0.08773456 0.27145490 88 106 4
-0.02164409 0.08849079 0.26989654 81 99 0
-0.02164053 0.08903132 0.26884300 81 102 0
-0.01820839 0.08445743 0.26807871 156 160 76
-0.01598435 0.08916372 0.27142003 102 120 2
-0.01728407 0.08861240 0.27161956 103 124 3
-0.01773440 0.08915456 0.26979050 100 119 1
-0.00961537 0.10221769 0.24729346 152 164 6
-0.00882225 0.10183364 0.24719884 146 162 1
-0.00912237 0.10218306 0.24712792 152 167 6
-0.01859202 0.08973832 0.26821131 94 117 1
-0.01827107 0.08977558 0.26830268 94 112 0
-0.01972628 0.08978366 0.26755071 86 108 0
-0.02493337 0.08608478 0.26439917 121 128 35
-0.02462187 0.08576532 0.26436189 125 130 40
-0.00012727 0.10564034 0.24054337 148 153 1
-0.00006366 0.10607289 0.24050942 154 158 3
0.00066747 0.10510637 0.23982258 122 133 0
-0.02242745 0.08686265 0.25966540 82 54 30
-0.02165408 0.08715016 0.25878924 100 50 49
-0.02239106 0.08688465 0.25960419 91 61 37
-0.02183601 0.08717547 0.25877601 107 52 55
-0.01126175 0.09303956 0.26631850 96 115 0
-0.01804374 0.09477086 0.25226158 120 140 17
-0.02317230 0.08399427 0.26570302 145 157 57
-0.02354022 0.08568624 0.26271164 159 169 56
-0.00505635 0.09475838 0.25654244 106 126 5
-0.00491676 0.09475619 0.25670859 113 134 5
-0.01844299 0.09220745 0.26052776 94 116 8
-0.02132858 0.09088438 0.26322353 103 121 9
-0.01853308 0.09193306 0.26142067 84 105 4
-0.01936637 0.09214894 0.26012439 100 120 9
-0.00842380 0.09623520 0.25292018 118 137 12
-0.00573032 0.09748933 0.24973820 105 122 7
-0.00633449 0.09782088 0.24956924 108 122 9
-0.00751867 0.09803277 0.24986885 95 114 7
-0.00729759 0.09696890 0.25128824 113 131 9
-0.01677107 0.09380315 0.25730792 104 122 10
-0.01803626 0.09280243 0.25906003 99 118 11
-0.01733161 0.09292796 0.25908801 102 122 11
-0.01710224 0.09354179 0.25776517 101 119 9
0.00502338 0.10595033 0.23479366 124 131 0
0.00457927 0.10673394 0.23504226 147 149 4
0.00578017 0.10533407 0.23412485 148 156 8
0.00351605 0.10487231 0.23691191 145 153 8
0.00479210 0.10636570 0.23492064 118 127 2
-0.00962592 0.09321979 0.26545262 204 198 120
-0.00811815 0.09045390 0.25887018 165 175 76
-0.00888288 0.09010376 0.25872400 159 169 73
-0.00914788 0.08999516 0.25876236 166 175 82
-0.00685983 0.09093903 0.25847483 163 173 77
0.00045324 0.10615230 0.24009575 155 159 2
0.00050935 0.10626793 0.24007516 156 160 1
-0.00647102 0.10273051 0.24568653 134 150 0
-0.00415827 0.10172677 0.24484016 129 143 0
-0.00691344 0.10341699 0.24560601 145 161 0
-0.02032756 0.08587722 0.26119646 162 178 69
-0.02074754 0.08529798 0.26240966 162 180 68
-0.01751990 0.08683554 0.25844786 168 186 76
-0.01804354 0.08651107 0.25922865 168 185 71
-0.02105741 0.08590925 0.26139367 171 190 65
-0.01112243 0.09379134 0.26554319 83 116 3
-0.01258661 0.08908715 0.26542357 173 170 89
-0.01217861 0.08969530 0.26609665 186 183 86
-0.00255364 0.09505215 0.25310978 108 124 2
-0.00334478 0.09529631 0.25297993 101 120 0
-0.02039775 0.09226184 0.25713742 121 138 8
-0.00656829 0.10021480 0.24739452 117 135 1
-0.00521272 0.09824366 0.24856168 105 122 8
-0.00642637 0.10111880 0.24645683 144 159 4
-0.00542926 0.09983632 0.24715555 108 132 12
-0.02185335 0.08917093 0.26839757 93 111 1
-0.02428643 0.08811773 0.27052790 87 104 2
-0.02500535 0.08795893 0.27066812 84 100 2
-0.02080199 0.08953092 0.26778239 86 108 0
-0.02307404 0.08874742 0.26912963 91 109 1
-0.01157806 0.09355734 0.26509610 116 142 9
-0.01549872 0.09145068 0.26628464 107 129 3
-0.01727640 0.09017789 0.26799592 97 118 1
-0.01661947 0.09090513 0.26683393 98 119 0
-0.01707872 0.09031139 0.26782221 98 119 0
-0.02011992 0.09242915 0.25617406 125 143 9
-0.00618727 0.09375806 0.26186234 187 183 94
-0.00791484 0.09127357 0.26147649 168 171 82
-0.00671599 0.09187758 0.26063693 162 166 79
-0.01246397 0.08857707 0.25891384 159 175 68
-0.01343453 0.08806510 0.26010081 165 175 78
-0.01400592 0.08784494 0.26016939 165 172 76
-0.01558300 0.08724529 0.26029649 181 189 68
-0.01485053 0.08765318 0.25923383 177 188 70
-0.01535635 0.08759433 0.25823924 181 197 72
-0.00245974 0.09619360 0.24972972 115 131 0
-0.00375260 0.09600696 0.25123668 104 123 0
-0.00462711 0.09753801 0.24913965 96 113 0
-0.01169379 0.09400422 0.25875282 94 119 1
-0.01411255 0.09355614 0.25848231 95 119 5
-0.00973338 0.09497104 0.25620171 99 120 1
-0.01010330 0.09475067 0.25685722 104 124 3
-0.00935295 0.09529741 0.25506985 102 123 6
-0.01054384 0.09467507 0.25678036 101 124 7
-0.00523885 0.09697918 0.25044662 114 133 17
-0.00602177 0.09627594 0.25193605 96 115 0
-0.00563617 0.09587096 0.25251091 103 123 0
-0.00508580 0.09709974 0.25018489 119 138 22
-0.00013435 0.09496837 0.24937384 117 132 5
-0.00056953 0.09482350 0.25122881 113 129 5
-0.00287594 0.09487977 0.25394288 112 132 1
-0.00120453 0.10914487 0.23997840 158 153 0
-0.00407101 0.10850305 0.24210255 220 208 100
-0.02453488 0.08934536 0.26525691 111 123 11
-0.02370160 0.08972388 0.26499107 100 115 10
0.00197623 0.10953110 0.23813747 137 129 31
0.00198272 0.10970132 0.23794609 160 152 51
-0.00633361 0.09466734 0.25737175 104 124 1
-0.00907750 0.09421145 0.25933337 113 134 3
-0.01380414 0.08948875 0.26928583 179 174 70
-0.02392325 0.08959722 0.25976011 110 120 7
-0.02360094 0.08994409 0.25862104 127 138 8
-0.02350358 0.09001011 0.25911039 116 127 5
-0.01289169 0.08995005 0.26828751 185 179 85
-0.01274422 0.09344945 0.26034853 98 123 6
-0.01449622 0.09237634 0.26423800 96 124 5
-0.01332857 0.09272455 0.26365885 112 140 4
-0.01387374 0.09290843 0.26202878 105 128 11
-0.01254369 0.09299641 0.26306218 119 141 7
-0.01299328 0.09310345 0.26196256 98 123 5
-0.00266754 0.10811827 0.24184611 134 123 7
-0.00260505 0.10829568 0.24168746 203 180 102
-0.02386033 0.08963436 0.26224366 95 110 5
-0.02345487 0.09003145 0.26145780 101 115 4
-0.00078947 0.10845584 0.24061351 134 130 5
-0.00087202 0.10886202 0.24035454 208 187 96
0.00251194 0.10788269 0.23828843 119 131 5
0.00273016 0.10704012 0.23763441 162 164 3
-0.00077864 0.09490895 0.25131676 114 131 3
-0.00088315 0.09457111 0.25259301 88 107 0
-0.01334240 0.09013338 0.26907408 173 164 71
0.00066950 0.10121446 0.24123415 100 120 0
0.00429772 0.09957154 0.23845999 105 122 7
0.00055436 0.09903561 0.24343927 99 116 1
0.00064020 0.09841396 0.24392664 103 121 3
0.00177124 0.09935056 0.24168706 95 114 0
-0.02779444 0.08653627 0.26911774 98 97 7
-0.02735750 0.08659490 0.26697591 121 121 21
-0.02890513 0.08546002 0.27061298 57 78 0
-0.02783876 0.08650994 0.26924822 106 105 15
-0.00770900 0.09433910 0.26277903 80 104 6
-0.00742143 0.09429279 0.26277253 90 113 0
-0.00370725 0.10809478 0.24240163 204 181 101
-0.00370090 0.10653052 0.24301654 124 129 0
-0.00444197 0.10656541 0.24329914 134 134 0
-0.01706037 0.08551408 0.26706013 155 158 81
-0.01800259 0.08436368 0.26952487 160 164 77
-0.00975065 0.09280416 0.26563549 205 198 117
-0.01673741 0.09214234 0.26187122 101 123 12
-0.01486809 0.09216350 0.26469675 93 121 2
-0.01620955 0.09198391 0.26342428 95 119 5
-0.01781451 0.09095252 0.26565257 105 124 6
-0.01571820 0.09189607 0.26459605 100 123 6
-0.01733145 0.09179458 0.26253983 98 120 9
-0.01494930 0.09225857 0.26413310 99 124 6
-0.00983684 0.09114952 0.26404375 179 176 99
-0.00897220 0.09158762 0.26321274 180 175 94
-0.01557551 0.08775022 0.27067646 180 175 57
-0.00004881 0.10863364 0.23872535 173 167 7
-0.00030458 0.10907500 0.23911084 150 149 0
0.00129468 0.10766746 0.23712447 132 129 0
0.00289694 0.10896230 0.23599142 142 138 2
0.00205250 0.10858484 0.23673354 158 154 3
0.00295188 0.11015669 0.23644316 103 98 0
-0.01873071 0.08739017 0.27233413 78 103 0
-0.01893225 0.08779737 0.27177951 78 103 0
-0.01256696 0.09291720 0.26742601 85 117 6
-0.01162646 0.09334753 0.26351896 97 121 7
-0.01095337 0.09362452 0.26345912 116 139 9
-0.01060304 0.09379573 0.26158932 105 126 5
0.00251098 0.10924350 0.23798531 122 128 6
0.00302260 0.10844146 0.23723325 112 120 0
-0.00719202 0.09862683 0.24908161 106 124 12
-0.00657300 0.09845489 0.24896528 101 119 11
-0.00740273 0.09987705 0.24808010 116 132 8
-0.01962222 0.08972158 0.25466296 79 61 11
-0.01956785 0.08933297 0.25519550 77 57 7
-0.02084693 0.08763377 0.25778854 156 103 97
-0.01986763 0.08835030 0.25661835 99 65 37
-0.01886064 0.08732668 0.25787032 204 210 86
-0.02056886 0.08792071 0.25733984 206 159 153
-0.01594981 0.08637435 0.26656538 175 175 115
-0.01603200 0.08627999 0.26562220 156 160 84
0.00336667 0.09703719 0.24134518 121 134 3
0.00350246 0.09831110 0.24035622 109 123 0
0.00294027 0.09824376 0.24116240 103 119 0
0.00198453 0.09805010 0.24258295 101 119 0
-0.00077564 0.09610600 0.24844337 118 134 2
0.00054744 0.09710146 0.24548893 113 128 1
0.00024775 0.09722102 0.24568366 110 124 1
-0.01584384 0.08647634 0.26713195 166 165 98
-0.01447837 0.08764124 0.26597074 171 171 101
-0.01556191 0.08971781 0.27072516 94 113 0
-0.01458605 0.09081710 0.26982671 89 113 1
-0.01034612 0.09157977 0.26560253 202 190 106
-0.01155623 0.09078369 0.26685464 184 180 89
-0.01183602 0.09694460 0.25269818 102 120 8
-0.01160770 0.09729777 0.25221306 123 141 31
-0.01246555 0.09618882 0.25375128 108 126 16
-0.01158630 0.09644595 0.25332284 105 123 15
-0.00558603 0.09197278 0.25956661 161 166 74
-0.00821109 0.09497745 0.25611025 104 124 0
-0.00895271 0.09500604 0.25622961 104 126 0
-0.00894965 0.09474021 0.25722808 107 129 5
-0.00831307 0.09468357 0.25724632 100 122 0
-0.01431305 0.09079731 0.27018169 87 111 0
-0.00566796 0.09318989 0.26080737 184 177 99
-0.00564243 0.09360461 0.26110160 181 175 91
-0.00660908 0.10509062 0.24413793 181 182 54
-0.01622356 0.09393001 0.25728431 103 124 7
-0.01670167 0.09472077 0.25523716 131 149 13
-0.01602619 0.09456347 0.25595149 109 129 8
-0.01531740 0.09386808 0.25790438 90 113 7
-0.01106485 0.09201650 0.26691115 198 186 110
-0.01275640 0.09126774 0.26814449 167 163 63
-0.02029628 0.09222542 0.25529358 111 130 5
-0.00355184 0.10345452 0.24132128 150 145 1
-0.00680183 0.10225287 0.24292332 138 133 3
-0.02146235 0.09015974 0.26545823 83 103 4
-0.02243719 0.08960519 0.26671898 83 100 6
-0.02126117 0.08982903 0.26660389 86 104 4
-0.02186137 0.09038522 0.26454526 99 118 10
-0.02760101 0.08544227 0.26899287 69 87 5
-0.02635847 0.08595015 0.26672977 91 103 5
-0.02676224 0.08698940 0.26560706 111 113 4
-0.00260018 0.10471147 0.24256586 148 153 0
-0.00287639 0.10583569 0.24269912 122 129 0
-0.00328864 0.10584059 0.24294236 122 129 0
-0.00625919 0.09382983 0.26197398 186 182 93
-0.00635208 0.09544725 0.25389171 100 120 0
-0.00621803 0.09515495 0.25489137 110 127 0
-0.00537374 0.09518345 0.25457564 118 136 0
-0.02270532 0.08966020 0.25612134 96 80 28
-0.02306568 0.08959578 0.25639656 97 80 34
-0.02316379 0.08840339 0.25766903 78 62 13
-0.02244485 0.09110738 0.25685698 130 145 2
-0.01545987 0.09640313 0.25271952 121 135 24
-0.01628128 0.09633439 0.25191623 131 150 22
-0.01223236 0.09925883 0.24995483 129 142 26
-0.01074757 0.09956356 0.24964730 131 142 22
-0.01000566 0.09398416 0.26222023 109 131 4
-0.00969682 0.09410208 0.26163748 105 126 7
-0.00067636 0.09432875 0.25371379 89 108 1
-0.01799765 0.09400197 0.25553545 105 124 8
-0.02033683 0.09224547 0.25927389 134 146 10
-0.01662204 0.08568259 0.26991764 178 178 48
-0.01846734 0.08382225 0.27070120 159 164 72
-0.00021678 0.10400847 0.23870026 163 158 2
-0.00095925 0.10426874 0.23937775 153 151 6
0.00082655 0.10349864 0.23775636 158 157 5
-0.00014151 0.10478647 0.23858610 138 135 0
-0.00141196 0.10440955 0.23979187 140 137 0
-0.00461209 0.09385215 0.25999349 138 146 34
-0.00296229 0.09456939 0.25790519 96 116 1
-0.01994753 0.09092820 0.25368771 117 98 29
-0.01371566 0.08841915 0.26626965 173 171 84
-0.01542958 0.08701251 0.26776513 168 169 67
0.00181704 0.10264684 0.23966569 129 145 21
0.00087170 0.10237420 0.24062319 110 129 4
0.00142921 0.10262151 0.24002892 127 146 21
0.00034931 0.10237039 0.24110207 109 128 3
0.00169723 0.10306109 0.23963352 105 121 0
-0.02330459 0.09013271 0.26183283 100 116 7
-0.02252472 0.09067170 0.26140955 126 141 14
-0.01785365 0.08568028 0.26264271 172 183 89
-0.01789548 0.08516612 0.26517951 158 166 89
-0.01763700 0.08589059 0.26216465 173 185 87
-0.01610933 0.08690880 0.26119322 178 186 74
-0.01696574 0.08694661 0.25859606 178 192 69
-0.01736641 0.08605860 0.26205629 170 183 77
-0.02569316 0.08832511 0.26546159 106 113 10
-0.02485009 0.08866705 0.26308471 102 107 5
-0.02353988 0.08829354 0.25810853 75 57 9
-0.02401441 0.08885636 0.25779980 91 72 30
-0.02425465 0.08859897 0.25876972 92 74 24
0.00068536 0.09736030 0.24488014 109 124 5
0.00111738 0.09643379 0.24529894 117 132 3
-0.02283601 0.09092109 0.25642359 168 159 56
-0.02379761 0.08988986 0.25715095 121 95 46
-0.01849765 0.08465420 0.26632646 166 172 100
-0.00345628 0.10535277 0.24140258 182 174 3
-0.00356580 0.10535144 0.24146062 175 167 4
-0.00367085 0.09459133 0.25856563 99 119 4
-0.00551939 0.09472306 0.25908813 107 129 5
-0.02071317 0.08477565 0.26381063 163 182 75
-0.02137641 0.08460344 0.26411754 167 184 78
-0.02152916 0.08398797 0.26605836 153 173 78
-0.02004088 0.08475056 0.26414794 155 170 87
-0.01964451 0.08494913 0.26365387 153 168 85
-0.01865946 0.08589692 0.26095045 172 185 77
-0.00611320 0.09428244 0.26123643 88 110 1
-0.01501726 0.09631884 0.25313073 129 142 28
-0.01376570 0.09764135 0.25141087 121 134 26
-0.01550173 0.09558441 0.25413966 139 155 23
-0.01357812 0.09765775 0.25141394 122 136 25
-0.01187167 0.09763195 0.25167108 122 138 16
-0.00574639 0.10598626 0.24262601 153 148 2
-0.00611383 0.10586798 0.24285446 143 140 0
-0.02353016 0.08989362 0.26290169 124 139 12
-0.02116609 0.09159910 0.26044968 128 141 10
-0.01730353 0.09512024 0.25306222 128 143 16
-0.00186141 0.10724098 0.24010968 152 152 0
-0.00201681 0.10548649 0.24030280 197 186 6
0.00072853 0.10739380 0.23763716 147 140 0
0.00094359 0.10899733 0.23791412 156 150 2
0.00207722 0.10931610 0.23697522 131 127 1
-0.01995512 0.09182072 0.25414792 112 90 17
-0.01991995 0.09128436 0.25392899 105 86 20
-0.00864466 0.09108695 0.26224247 172 175 86
-0.01320088 0.08900610 0.26657313 178 175 78
-0.01313490 0.08908566 0.26663351 181 179 78
-0.01933917 0.09050483 0.26548246 97 117 2
-0.02049090 0.09032024 0.26545629 77 96 4
-0.01870982 0.09096793 0.26436630 100 120 7
-0.01837844 0.09133945 0.26338014 94 118 8
-0.02101283 0.09073106 0.26390135 95 117 8
-0.02329958 0.08989838 0.25648147 117 98 40
-0.01512425 0.08765341 0.26885426 174 171 38
-0.01495135 0.08790074 0.26929051 183 180 51
-0.00902860 0.09429228 0.26077840 105 129 9
0.00484858 0.10199454 0.23668018 115 129 16
0.00609928 0.10288331 0.23478328 115 127 15
0.00412550 0.10027435 0.23834302 98 112 0
0.00341284 0.10224382 0.23826192 110 127 12
0.00630061 0.10330775 0.23434587 108 121 3
0.00382388 0.10316201 0.23734467 117 134 22
0.00508694 0.10383638 0.23553376 113 127 4
0.00364230 0.10182626 0.23818639 115 129 16
-0.01886562 0.09342960 0.25490364 121 143 9
-0.00261640 0.10423919 0.24083915 146 141 0
-0.00057319 0.10371471 0.23902120 162 160 0
-0.00213683 0.10392281 0.24036549 137 135 0
-0.01211828 0.08884499 0.26298332 170 171 95
-0.01180142 0.08889684 0.26128522 179 184 102
-0.01055255 0.08965727 0.26065481 160 168 85
-0.01226363 0.08849826 0.26024142 159 167 56
-0.01353033 0.08789286 0.26268941 173 177 93
-0.00182784 0.09657384 0.24853735 115 130 3
-0.00189967 0.09593914 0.24971579 124 138 3
-0.00264741 0.09712835 0.24822851 109 128 2
-0.00254296 0.09669520 0.24890737 108 127 1
-0.00214524 0.09785102 0.24664433 106 124 4
-0.00366707 0.10039997 0.24557248 105 124 8
-0.00078924 0.09828950 0.24521877 107 123 1
-0.00249336 0.09960094 0.24537399 107 126 11
-0.00314485 0.09943438 0.24602015 101 121 6
0.00194548 0.09531626 0.24515064 123 135 7
0.00349583 0.09562323 0.24214359 124 137 6
0.00187131 0.09677367 0.24354564 120 136 3
0.00291355 0.09482481 0.24408455 110 124 1
-0.00608818 0.10461920 0.24273688 154 148 2
-0.00717892 0.10396952 0.24323267 153 150 0
-0.00416727 0.10392831 0.24175167 148 141 1
0.03201403 0.11438186 0.16428520 96 94 11
0.03187042 0.11476169 0.16345121 90 88 3
0.03325716 0.11487401 0.15689336 102 99 6
0.03380975 0.11491068 0.15296051 125 122 15
0.03260671 0.11310680 0.16698550 111 109 22
0.03235948 0.11354810 0.16614319 99 97 12
0.02856220 0.11648558 0.15145259 91 91 17
0.03156183 0.11470971 0.16415247 88 86 3
0.03314278 0.11421464 0.16022575 112 108 17
0.02883178 0.11571581 0.15482683 102 99 28
0.02872493 0.11564734 0.15593027 103 100 33
0.02860769 0.11630816 0.15474443 95 89 27
0.02893652 0.11512136 0.15536518 104 101 30
0.02813122 0.11473380 0.15843995 134 125 66
0.02991349 0.11406875 0.15580429 118 113 47
0.02837689 0.11441517 0.15819332 120 111 52
0.02929653 0.11491045 0.15444002 108 108 36
0.02445768 0.11347899 0.16335642 113 112 47
0.02858353 0.11402348 0.15986112 121 117 46
0.02884563 0.11403696 0.15855969 134 125 58
0.02482565 0.11347117 0.16299741 114 114 50
0.02801855 0.11374478 0.16183330 118 115 48
0.02608331 0.11378519 0.16151643 100 105 38
0.02921627 0.11633193 0.16100088 73 75 2
0.03111133 0.11577433 0.16163613 87 85 2
0.03113573 0.11451667 0.16565770 81 80 0
0.02768046 0.11546398 0.15993553 41 40 9
0.02727240 0.11403494 0.16178966 53 68 3
0.03015765 0.11448217 0.16777621 98 96 11
0.03181771 0.11768138 0.15146251 68 72 11
0.02867891 0.11636098 0.15868059 58 62 12
0.02906404 0.11668655 0.15753815 44 53 8
0.03021780 0.11602215 0.16151746 80 78 1
0.02838580 0.11598442 0.15832768 60 60 10
0.02940731 0.11633608 0.16108316 74 76 1
0.02825302 0.11598078 0.16007303 35 46 4
0.03007075 0.11418238 0.16942635 71 65 3
0.03096292 0.11391575 0.16908543 91 89 14
0.03167574 0.11341047 0.17042166 88 92 7
0.03200054 0.11654461 0.15642451 106 101 37
0.03399337 0.11460748 0.15140209 136 137 9
0.03282957 0.11416188 0.15042602 178 167 62
0.02940042 0.11808121 0.15190302 44 47 0
0.03076015 0.11686365 0.15878634 47 54 2
0.03227732 0.11696202 0.15344311 103 100 31
0.03018113 0.11755586 0.15450712 52 56 6
0.02970899 0.11811180 0.15229315 50 56 10
0.03152416 0.11733509 0.15393962 65 65 11
0.03248628 0.11502494 0.15997298 94 89 7
0.03156701 0.11844710 0.14893697 60 59 3
0.03011048 0.11866733 0.14998625 43 46 0
0.02656488 0.11357344 0.16272332 88 97 34
0.03198277 0.11760215 0.15133186 68 68 6
0.02960974 0.11716660 0.15919828 48 56 7
0.03322227 0.11645564 0.15167890 78 79 1
0.03315725 0.11653586 0.15188877 91 92 14
0.03247596 0.11618021 0.15590669 76 73 2
0.03193348 0.11767340 0.15119866 64 66 3
0.03149475 0.11603556 0.16057178 85 82 5
0.02874469 0.11730347 0.15278658 71 66 10
0.03299268 0.11566470 0.15552747 98 96 13
0.02973815 0.11730130 0.15647943 38 44 0
-0.00958966 0.08973647 0.25546387 165 179 40
-0.00814176 0.09018759 0.25532129 148 160 26
0.01133111 0.09671622 0.22447696 118 134 0
0.00771062 0.10883258 0.23083644 143 142 0
0.00701045 0.10800597 0.23131979 186 174 2
0.00717281 0.10853996 0.23131481 142 137 0
0.00768248 0.10298483 0.23014450 103 106 0
0.00774419 0.10230190 0.23015833 108 112 0
0.00747009 0.10406592 0.23028854 127 130 1
0.00786518 0.10309450 0.22986370 102 105 0
-0.00302438 0.09196699 0.25635603 173 180 76
-0.00337957 0.09165039 0.25547665 164 176 68
0.01093413 0.10017851 0.22573248 145 149 3
0.01079176 0.09963393 0.22600983 133 139 3
0.01158856 0.10172074 0.22457516 130 136 2
0.01055705 0.10221431 0.22604159 105 112 0
-0.01349724 0.09615381 0.24791497 88 80 0
-0.01479577 0.09518194 0.24876036 85 76 1
-0.01180609 0.09544694 0.24804437 90 78 2
-0.01275217 0.09573229 0.24804065 93 82 2
0.00985339 0.10921282 0.22912413 154 151 0
0.00319140 0.10229049 0.23551741 113 121 2
0.00333411 0.10226044 0.23536377 115 123 4
0.00283507 0.10082065 0.23662898 112 115 10
0.00502305 0.10196289 0.23351797 107 105 2
0.00614063 0.10112816 0.23259714 104 108 0
0.00252017 0.10657298 0.23577945 183 175 6
0.00291594 0.10652410 0.23533186 179 171 8
0.00421714 0.10596459 0.23388019 142 140 0
0.00181613 0.10646845 0.23658516 186 177 0
0.00146399 0.10585375 0.23701611 166 159 6
0.00473270 0.10634708 0.23327495 149 149 1
0.00189513 0.10675602 0.23648104 198 187 9
0.00858814 0.09782582 0.23104277 138 153 8
0.00986258 0.09680220 0.22703825 103 125 1
-0.00605849 0.09309435 0.24999885 133 139 5
0.00846991 0.09765231 0.23116155 132 147 2
0.00793667 0.09571066 0.23057906 103 124 0
-0.00135652 0.09254509 0.25145286 142 155 47
-0.00354975 0.09164885 0.25418535 158 168 69
-0.00340891 0.09165578 0.25465551 163 171 70
0.00645431 0.09746478 0.23366024 138 142 3
0.00467003 0.09836228 0.23570630 139 140 0
0.00618450 0.09765962 0.23390596 127 128 0
0.01325499 0.10795438 0.22498439 163 157 0
0.01174184 0.10743260 0.22619151 157 154 0
0.01192084 0.10793643 0.22622713 160 156 0
-0.01788109 0.09496126 0.25157788 137 145 23
-0.01146478 0.08906335 0.25702778 173 188 63
-0.01408304 0.08810777 0.25712949 189 208 64
-0.01423273 0.08804158 0.25739959 188 206 68
-0.01319531 0.08837999 0.25827858 174 189 62
0.00665566 0.10508705 0.23123844 161 159 0
0.00466622 0.10439522 0.23349936 158 157 5
0.00549770 0.10526403 0.23246722 172 169 6
0.00614233 0.10260834 0.23216787 99 105 0
0.00375987 0.10284337 0.23471545 119 129 0
0.00588219 0.10187737 0.23255986 119 121 12
-0.00834517 0.09311564 0.25009620 127 116 8
-0.00849536 0.09366231 0.24968605 121 107 8
0.00051513 0.09489646 0.24618497 144 150 14
0.00012575 0.09457684 0.24696288 131 138 6
-0.00330435 0.09416509 0.24915077 130 128 7
-0.00286056 0.09394464 0.24939890 142 145 14
0.00880958 0.09749306 0.22880884 143 150 10
0.00908642 0.09744729 0.22813989 141 145 9
0.00979797 0.09795367 0.22698663 145 148 5
-0.01829327 0.09304641 0.25158098 108 89 20
-0.01930897 0.09133275 0.25283104 111 93 19
-0.01902681 0.09220404 0.25251541 105 86 18
-0.01546631 0.08780738 0.25662661 159 174 69
-0.01585560 0.08827604 0.25584802 137 157 60
-0.01518545 0.08858880 0.25531077 147 165 53
-0.01356156 0.09057447 0.25194991 101 77 3
-0.01056988 0.09041838 0.25215492 141 156 1
-0.01129839 0.09069134 0.25171095 84 67 0
0.01463701 0.10065170 0.22023618 118 113 0
0.01676795 0.10252036 0.21671093 141 133 0
0.01576424 0.10179635 0.21834576 143 140 0
0.01468340 0.10153049 0.22002196 145 141 8
0.01692880 0.10223412 0.21651492 144 137 5
0.00929188 0.09965967 0.22829978 146 150 3
0.00947580 0.09972601 0.22798724 147 151 4
0.00816412 0.09932049 0.23019466 145 149 2
0.00788300 0.10002781 0.23041540 133 138 0
0.00851928 0.09899558 0.22973509 146 151 0
-0.01830802 0.08977152 0.25429255 79 59 9
-0.01766634 0.08926024 0.25486550 81 58 6
-0.01648611 0.08849367 0.25566533 178 193 68
-0.01639799 0.09020265 0.25314465 87 67 8
-0.01615908 0.08891400 0.25496253 202 201 109
-0.01695756 0.08907220 0.25494799 75 48 5
0.00523295 0.09382936 0.24002303 101 118 3
-0.00251487 0.09889979 0.24299353 96 95 5
-0.00221387 0.09832932 0.24346468 114 114 14
-0.00428034 0.09609986 0.24656871 123 117 5
0.01393466 0.10856343 0.22454004 196 188 17
0.01541511 0.10771386 0.22154164 169 161 0
0.01356476 0.10729605 0.22391976 178 169 2
0.01274114 0.10707308 0.22494408 184 177 1
-0.00481978 0.10184471 0.24194384 136 135 0
-0.00499529 0.10120612 0.24238586 122 120 1
-0.00713572 0.10160118 0.24299574 144 134 0
-0.00387954 0.10069261 0.24224766 110 113 0
0.01034235 0.09817906 0.22751789 135 144 1
0.01065297 0.09720697 0.22568361 109 128 2
-0.00304138 0.09262669 0.25123712 141 156 29
-0.00429053 0.09209749 0.25203097 157 170 18
-0.00250854 0.09314908 0.25050080 140 151 29
-0.00211893 0.09238078 0.25150454 137 156 51
0.01031948 0.09636386 0.22486316 122 136 1
-0.00084999 0.10253041 0.23922251 133 134 4
-0.00091501 0.10155366 0.23991810 123 128 2
0.00003175 0.10261297 0.23856089 137 141 5
-0.00160635 0.10060640 0.24102491 110 112 2
0.00090406 0.09667803 0.24282837 138 141 2
0.00066600 0.09677295 0.24286015 138 141 2
0.01343620 0.09743271 0.22194201 130 138 0
0.00324811 0.09389462 0.24322224 105 118 2
0.00484779 0.09449734 0.24015324 116 129 13
0.00503072 0.09475289 0.23861249 107 118 0
-0.01053437 0.09271828 0.25005203 110 97 3
-0.01018918 0.09160468 0.25087762 84 64 5
-0.01005610 0.09698017 0.24676567 101 96 4
-0.01203769 0.09681103 0.24723619 94 87 0
-0.00957325 0.09763102 0.24627076 95 88 0
-0.01016055 0.09994446 0.24493589 133 123 0
-0.00966463 0.09819200 0.24593768 99 93 0
-0.00948712 0.10006806 0.24473475 134 124 3
-0.01538348 0.09765125 0.24878232 126 111 0
-0.01588879 0.09733866 0.25026399 144 156 28
-0.00579985 0.09529122 0.24805397 120 112 5
-0.00722059 0.09393235 0.24978371 130 118 6
0.00489975 0.09908694 0.23478167 123 131 0
0.00641096 0.09876471 0.23289731 145 149 2
0.00493594 0.09919634 0.23470458 123 131 0
0.00604787 0.10005603 0.23301879 129 136 6
-0.00553465 0.09198388 0.25208950 132 144 0
-0.00567218 0.09275895 0.25040632 133 145 1
-0.00562838 0.09175164 0.25248921 149 161 3
-0.00701221 0.09208796 0.25073195 134 146 0
-0.01050636 0.10190953 0.24762265 140 150 2
-0.01152832 0.10195920 0.24718665 133 139 3
-0.00870559 0.10353602 0.24586432 117 139 0
-0.01017596 0.10290937 0.24626608 139 142 1
-0.01507443 0.09724144 0.25122657 146 159 27
-0.00898202 0.10375895 0.24523890 133 133 3
-0.00983766 0.10349856 0.24514480 134 124 11
0.00576662 0.10796584 0.23321033 153 154 0
0.00169382 0.09325783 0.24865618 135 149 35
0.00150365 0.09326940 0.24859281 139 151 39
0.01240597 0.10144896 0.22340459 136 136 4
0.01366358 0.10043089 0.22172077 128 124 0
0.01342378 0.09894770 0.22227874 157 156 4
0.01297246 0.10093734 0.22265360 138 140 0
0.01306475 0.10186266 0.22238877 133 133 3
0.01288889 0.09786896 0.22262794 111 116 0
0.01224172 0.09801438 0.22357981 117 121 0
0.01306988 0.09816530 0.22248490 113 117 0
-0.01479432 0.09142720 0.25146332 98 81 0
-0.01652698 0.09144443 0.25190240 98 81 1
-0.01733138 0.09074236 0.25265673 108 89 20
-0.01604102 0.09069932 0.25235316 106 86 15
0.01247519 0.10470815 0.22400983 115 115 3
0.01152230 0.10444621 0.22518753 113 117 4
0.01134153 0.10522906 0.22581883 128 132 0
0.00259700 0.09639704 0.24127050 130 136 4
0.00246783 0.09609141 0.24190989 119 126 0
0.00236554 0.09682747 0.24100995 148 152 6
0.00711494 0.09497333 0.23199689 117 129 3
0.00732488 0.09613439 0.23179667 119 126 0
0.01625624 0.10982964 0.22329232 173 160 22
0.01442150 0.10644427 0.22192506 146 145 3
0.01407801 0.10617059 0.22230837 138 138 4
0.01503516 0.10636086 0.22097954 134 134 0
0.01340674 0.10630265 0.22336125 144 143 0
0.01305234 0.10399887 0.22283587 108 111 0
0.01038285 0.09797823 0.22607785 137 141 5
0.01049537 0.09792854 0.22591165 137 141 2
0.00516762 0.09653126 0.23683086 143 148 2
0.00522739 0.09641412 0.23691159 150 154 7
-0.01363492 0.10110356 0.24707176 95 87 6
-0.01447113 0.09886773 0.24734056 129 118 3
-0.01380442 0.10101996 0.24745578 106 93 25
0.00145589 0.09401944 0.24874187 82 98 0
0.00656699 0.10845835 0.23219560 154 156 0
0.00830461 0.10818237 0.23045166 175 168 15
0.00055590 0.09243461 0.25267804 198 211 123
0.00851103 0.10310383 0.23089252 123 137 16
0.00832910 0.10090083 0.23135814 113 129 5
0.00951150 0.10029580 0.22959411 133 147 0
0.00813106 0.10264569 0.23151459 111 124 6
0.01020446 0.10203526 0.22838317 96 114 0
0.00786564 0.10117542 0.23204641 101 116 0
0.00733188 0.10381656 0.23264246 116 132 10
0.00738187 0.10370469 0.23257518 115 130 11
0.00794985 0.10338543 0.23173022 122 135 17
0.01175039 0.10223086 0.22599335 106 125 0
0.00907649 0.09919227 0.23035525 136 150 5
0.00366336 0.09722871 0.23843506 139 144 2
0.00351482 0.09872187 0.23719576 121 126 0
0.00361220 0.09793333 0.23782104 141 142 4
-0.00812489 0.09064430 0.25309038 141 153 17
-0.00842353 0.09059882 0.25302014 151 163 19
-0.00952178 0.09046111 0.25265998 135 152 12
-0.01189601 0.10136450 0.24792729 130 139 12
-0.01498232 0.09954916 0.24939397 150 162 38
0.00265415 0.10792512 0.23581114 129 127 0
0.00234749 0.10766822 0.23604710 147 140 0
0.00356945 0.10777606 0.23481715 161 155 9
0.00406833 0.10725719 0.23413697 188 176 6
0.01243733 0.09908009 0.22418581 130 137 0
0.01208518 0.09914101 0.22474937 131 139 1
0.01215834 0.09883889 0.22457917 132 139 0
0.01284864 0.09978554 0.22367007 126 137 0
0.01216039 0.10899513 0.22720385 189 181 44
0.01125250 0.10844710 0.22780100 188 179 38
0.00780919 0.10175470 0.23013398 106 115 0
0.00871743 0.10163545 0.22881618 109 116 2
0.00946800 0.10236261 0.22762872 108 112 0
0.00855437 0.10213839 0.22899537 106 115 0
-0.00542093 0.09565527 0.24753891 122 114 5
0.00128016 0.09249309 0.25141987 192 202 106
0.00090164 0.09221008 0.25218514 183 197 99
0.00989065 0.10717019 0.22892670 147 150 1
0.01050906 0.10386937 0.22781846 127 138 20
0.01096166 0.10335325 0.22710992 119 132 14
0.01135774 0.10430317 0.22656554 130 140 18
0.00744650 0.10461950 0.23246484 130 142 8
0.01183982 0.10432259 0.22584158 128 137 18
0.00974798 0.10481346 0.22901405 123 134 3
0.00801192 0.10479346 0.23162389 134 145 6
0.01166565 0.10963492 0.22843772 183 179 30
-0.00457830 0.09128931 0.25484872 149 163 66
-0.00617089 0.09087333 0.25423914 151 163 35
0.00818380 0.09618391 0.22951429 104 111 5
0.00766974 0.09691272 0.23113558 157 158 4
0.00762786 0.09554939 0.23071028 109 116 2
0.00898610 0.10683484 0.22886109 144 143 1
0.00888193 0.10735992 0.22913508 170 165 0
0.00738381 0.10630206 0.23039131 157 154 0
0.00173114 0.09281823 0.25033629 85 101 2
0.00897444 0.10900285 0.23024426 183 178 26
0.01034390 0.10830668 0.22874765 193 185 40
0.01430009 0.10851276 0.22440174 196 186 55
0.01498763 0.10910157 0.22406164 187 177 54
-0.01250963 0.09966779 0.24964035 157 162 33
-0.01366453 0.09867811 0.25036901 153 163 30
-0.00637894 0.09520110 0.24811190 119 112 6
0.01461161 0.10999179 0.22536929 170 174 15
-0.00960731 0.10261858 0.24426369 160 148 0
-0.01143307 0.10251494 0.24531372 128 124 0
0.00861179 0.10641190 0.23066248 143 149 1
0.00709328 0.10538275 0.23254134 146 154 6
0.00663225 0.10750213 0.23219059 168 163 0
0.00600508 0.09592073 0.23540699 148 152 6
0.01182395 0.10926200 0.22712329 195 185 10
-0.00048688 0.09591228 0.24530907 136 139 8
-0.00179559 0.09477540 0.24748389 133 131 12
-0.00177099 0.09594662 0.24597393 138 135 6
0.00982922 0.09897840 0.22901872 131 142 1
0.01167181 0.10041601 0.22577228 138 148 0
0.01130927 0.10003971 0.22637984 141 151 3
0.01042578 0.09940564 0.22795489 136 148 0
0.00678037 0.10560874 0.23279136 143 149 1
0.00673455 0.10558876 0.23285681 144 150 2
0.00484997 0.10726393 0.23450994 156 153 0
0.00679816 0.10091160 0.23394315 99 114 0
0.00581173 0.10074811 0.23569997 98 116 0
0.00710026 0.10049400 0.23346901 107 125 5
0.00792006 0.09827137 0.23233110 124 138 1
0.00684871 0.10086509 0.23386063 98 113 0
0.00775044 0.09880080 0.23255704 135 148 8
0.00724570 0.10274748 0.23290548 117 129 17
0.00701175 0.10368046 0.23318942 115 130 11
-0.01485485 0.09445867 0.24924326 88 79 2
-0.01706870 0.09421535 0.25010696 94 80 7
-0.01917421 0.09125118 0.25277025 113 95 21
-0.01585732 0.09447385 0.24954988 81 68 0
-0.00115909 0.09771834 0.24328329 120 124 1
0.00007824 0.09811638 0.24161187 120 126 4
-0.00109300 0.09817857 0.24264264 112 117 1
-0.00011021 0.09744200 0.24263732 119 125 1
-0.00040978 0.09404866 0.25372881 88 104 0
-0.00085051 0.09231479 0.25493717 172 181 90
-0.01230466 0.08934711 0.25406697 126 143 49
-0.01373180 0.08856339 0.25553852 105 118 49
-0.01331613 0.08879940 0.25508144 103 123 51
-0.01429869 0.08837675 0.25566462 105 116 50
-0.00770860 0.09034856 0.25562486 148 159 37
-0.01002405 0.08953450 0.25790548 154 165 45
-0.00737250 0.09066410 0.25787070 156 170 73
-0.00789337 0.09027161 0.25565040 146 157 35
-0.00103766 0.09230841 0.25401610 170 179 86
-0.00200315 0.09206092 0.25420099 169 178 71
0.01615206 0.10359203 0.21800444 119 117 0
0.01539908 0.10407181 0.21936494 109 107 6
0.01491410 0.10407253 0.22009490 105 103 0
0.01369586 0.10340439 0.22161049 110 112 5
0.01520645 0.10366402 0.21946119 108 107 0
0.00658304 0.09556887 0.23548882 115 127 0
0.00684559 0.09563754 0.23484902 119 130 0
-0.01386123 0.09182788 0.25096136 103 85 0
-0.01354504 0.09286898 0.25015596 110 99 17
-0.01256023 0.09257100 0.25030705 103 89 0
-0.00175040 0.09293365 0.25612926 159 163 86
-0.00280053 0.09251829 0.25725985 169 176 80
0.00179515 0.09824602 0.23974913 124 130 0
0.00121038 0.09838146 0.24014460 128 133 4
0.00066307 0.09910752 0.23970981 113 118 2
0.00167708 0.09798931 0.24021050 125 128 0
-0.00068931 0.09883830 0.24140666 110 114 3
-0.01043572 0.09464751 0.24854477 112 100 18
-0.01221230 0.09482663 0.24853440 98 86 4
-0.01395444 0.09386151 0.24942923 102 85 5
-0.00470508 0.09174472 0.25795713 170 178 75
-0.00534763 0.09147511 0.25797522 165 174 69
0.00469284 0.09941985 0.23785160 105 121 0
0.00543649 0.09746324 0.23725578 121 134 3
0.00602153 0.09715492 0.23629160 129 140 10
0.00762145 0.09818617 0.23290055 121 135 0
0.00477410 0.09888328 0.23791641 112 127 0
-0.00674228 0.10486384 0.24422561 163 160 31
0.01075916 0.10513385 0.22650906 124 127 0
0.01034254 0.10577828 0.22712153 157 154 0
0.01075183 0.10484934 0.22644041 123 128 0
0.01114846 0.10580803 0.22627947 145 143 0
0.00007805 0.09964721 0.23978662 109 113 3
0.00247315 0.10038121 0.23716366 107 111 0
0.00115432 0.10037914 0.23846480 95 100 0
-0.00036258 0.10032487 0.23997982 102 105 0
-0.00056590 0.10133870 0.23981933 123 127 6
0.00047136 0.10068059 0.23903088 103 107 0
0.01226508 0.09648771 0.22282948 130 143 1
0.00482455 0.09425391 0.24052191 103 115 7
0.00791782 0.09665064 0.23197299 124 140 5
0.00720914 0.09518214 0.23279941 105 124 9
0.00386709 0.09511811 0.24187918 120 133 1
0.00443818 0.09569158 0.24042459 126 136 1
0.00530179 0.09716146 0.23763262 113 125 0
0.00448462 0.09690396 0.23963530 109 124 0
0.01120853 0.09693123 0.22475000 116 132 0
0.01308663 0.09746121 0.22265063 115 132 0
-0.00837276 0.09690033 0.24651791 97 92 1
-0.00504367 0.09778388 0.24488133 107 105 18
-0.00537626 0.09726235 0.24556984 112 109 16
-0.00493757 0.09814307 0.24442802 90 89 0
-0.00392708 0.09840711 0.24393630 92 91 0
-0.00607264 0.10022677 0.24338515 115 115 3
-0.00536295 0.09867299 0.24404138 99 96 1
-0.00621568 0.09885897 0.24426879 101 101 3
-0.00772524 0.09838579 0.24515632 97 92 0
-0.00822733 0.09823403 0.24544811 99 94 3
-0.00518055 0.09962612 0.24339266 100 104 0
-0.00047791 0.09236715 0.25297418 179 187 86
-0.00910051 0.09459618 0.24850562 105 96 3
-0.00946385 0.09431421 0.24874839 102 91 1
-0.00851992 0.09628620 0.24712661 93 86 0
0.00646676 0.09487888 0.23571967 98 110 0
0.00136025 0.09502968 0.24526387 138 142 3
0.00267582 0.09492684 0.24336942 142 146 9
0.00464151 0.09519049 0.24038608 123 135 1
0.00906544 0.09617458 0.22792056 111 128 0
0.00158691 0.09450606 0.24587980 116 126 4
0.00186723 0.09429669 0.24591379 102 111 2
0.01223023 0.09782103 0.22377704 110 130 0
0.01279137 0.09813235 0.22318341 114 130 0
0.00092214 0.09398319 0.25059789 81 99 0
