-0.71946317 0.50857115 -0.15125901 55 103 3
-0.69428992 0.48349166 -0.16050649 194 230 132
-0.70477670 0.51499355 -0.14031166 143 178 34
-0.70810241 0.48055756 -0.17410427 70 101 21
-0.70529407 0.51664579 -0.14402992 125 157 30
-0.70517904 0.51963818 -0.14123197 140 180 66
-0.69579810 0.48378393 -0.16140565 202 246 45
-0.70441896 0.50246412 -0.14371331 93 117 55
-0.69087172 0.47989914 -0.16799536 217 245 49
-0.70127225 0.47770670 -0.16330852 145 149 75
-0.70766371 0.52987278 -0.12542738 93 130 25
-0.70759594 0.52524525 -0.12990950 74 109 27
-0.70162290 0.54366285 -0.09816269 186 215 9
-0.70445740 0.53460121 -0.11015970 172 199 26
-0.69576460 0.49097788 -0.15873978 137 173 63
-0.70615882 0.48414198 -0.18542613 51 81 17
-0.69307345 0.60744315 -0.07728291 116 162 74
-0.69728297 0.60639954 -0.07825720 49 100 0
-0.69556040 0.58072901 -0.09659138 144 171 102
-0.69077325 0.58063698 -0.10167472 181 213 104
-0.69433415 0.54869622 -0.10587882 158 170 106
-0.69925302 0.54145914 -0.10911013 114 138 50
-0.71969855 0.50891328 -0.14890191 56 104 4
-0.70140350 0.49596459 -0.14931059 148 179 76
-0.69074142 0.59594530 -0.09102021 119 146 43
-0.69896686 0.47746778 -0.16202824 116 130 55
-0.69439417 0.57727337 -0.10556731 180 216 0
-0.73143762 0.52941662 -0.11840404 95 132 3
-0.71822721 0.50630927 -0.15780745 69 107 0
-0.70892525 0.48515734 -0.15598592 126 156 58
-0.70357537 0.48739958 -0.15798701 124 171 7
-0.70590037 0.47756088 -0.17427912 152 177 60
-0.68701458 0.60487002 -0.08252694 118 144 70
-0.70791805 0.52071667 -0.12433278 99 123 61
-0.70388615 0.55596703 -0.08887356 104 138 51
-0.70064795 0.56644988 -0.08793172 128 157 93
-0.69961125 0.55098015 -0.09522091 196 231 40
-0.69533098 0.55058110 -0.09446862 178 221 27
-0.71044427 0.49493089 -0.16289860 48 90 8
-0.70781761 0.51295555 -0.14291468 136 169 82
-0.70035064 0.56176853 -0.09261100 138 167 77
-0.69941664 0.56805074 -0.09228351 135 162 91
-0.70750272 0.52724046 -0.11527170 143 180 15
-0.73321044 0.53144348 -0.12530687 172 203 24
-0.69526392 0.58342326 -0.09178790 152 173 106
-0.70157593 0.55977017 -0.09081530 147 181 86
-0.70685464 0.51946080 -0.13829672 125 156 62
-0.69797528 0.57803863 -0.08605378 126 158 82
-0.69690889 0.59057218 -0.08221161 142 177 113
-0.71579278 0.53264540 -0.10975768 55 88 9
-0.73126423 0.52712864 -0.12220411 122 154 31
-0.71428525 0.51567930 -0.12419096 108 148 0
-0.70725679 0.55851877 -0.08799306 75 114 47
-0.70612675 0.56466377 -0.08596766 83 121 48
-0.69741946 0.49372900 -0.15837194 182 220 101
-0.71429759 0.50539547 -0.15882142 123 161 39
-0.69943696 0.49601072 -0.15279461 122 156 82
-0.69238716 0.59561235 -0.08349000 97 130 49
-0.69646090 0.48197681 -0.16127212 143 187 72
-0.70124632 0.48173395 -0.15880579 163 206 90
-0.71317047 0.50892758 -0.12947345 128 166 5
-0.70425677 0.47911242 -0.16534615 135 162 45
-0.70677167 0.52806729 -0.12048718 145 170 26
-0.69570655 0.58121097 -0.09469353 167 181 128
-0.72013700 0.51919079 -0.11769363 147 200 32
-0.70873433 0.52939421 -0.11247585 94 136 2
-0.70962864 0.51115203 -0.12614408 125 153 92
-0.69898474 0.56601650 -0.09518122 197 220 142
-0.69544029 0.57412177 -0.09890095 94 125 22
-0.70947260 0.51118392 -0.15151338 74 115 0
-0.70490229 0.53278530 -0.12518002 64 98 3
-0.70703918 0.49365139 -0.14552563 120 148 61
-0.73787946 0.53931361 -0.12004641 140 158 12
-0.70424962 0.50438046 -0.15938145 177 221 46
-0.70368993 0.48370764 -0.15885699 168 211 59
-0.71259058 0.51086503 -0.15625966 90 134 0
-0.69236696 0.47865400 -0.16897884 215 240 50
-0.70540512 0.47708452 -0.17332132 146 169 53
-0.69158268 0.56741542 -0.09882566 118 149 30
-0.69715959 0.57776582 -0.08764100 103 129 58
-0.69140029 0.47848377 -0.16562323 87 110 0
-0.72781467 0.52063006 -0.11852486 50 90 0
-0.70741028 0.53101623 -0.12475819 71 105 10
-0.70888960 0.51193237 -0.13035738 95 119 67
-0.71233159 0.52812493 -0.11210618 119 159 10
-0.69319898 0.56525874 -0.09793895 79 112 7
-0.54159153 0.50970203 -0.12925078 178 221 30
-0.53861666 0.51752102 -0.12309598 123 149 48
-0.53954399 0.51102263 -0.12535784 128 156 56
-0.53853279 0.50311148 -0.13216065 141 170 77
-0.54607642 0.49179798 -0.14590639 108 136 49
-0.53816187 0.54545599 -0.09867728 58 97 0
-0.54656565 0.55406535 -0.09833746 65 104 15
-0.54590303 0.54982179 -0.10299521 57 93 0
-0.54693437 0.51067621 -0.12721366 85 127 0
-0.54105443 0.49930918 -0.13278793 97 128 34
-0.54512316 0.55029625 -0.09912273 84 121 18
-0.54093266 0.53426349 -0.11648235 58 89 22
-0.54180324 0.52948976 -0.11872139 103 142 49
-0.54223758 0.49960029 -0.14184536 129 174 19
-0.53934449 0.49490920 -0.14536978 209 242 39
-0.54109770 0.50786287 -0.12979396 163 207 32
-0.54051530 0.51965284 -0.12665510 29 69 0
-0.54496288 0.49169964 -0.14449920 108 135 58
-0.54542649 0.55547822 -0.10065021 98 137 31
-0.54435277 0.54590774 -0.10724335 137 168 74
-0.54369259 0.49830005 -0.13553423 102 136 42
-0.54499686 0.49742678 -0.13786860 109 144 44
-0.53741819 0.52694911 -0.12131371 98 122 46
-0.54345340 0.54466289 -0.10840727 175 209 89
-0.53916663 0.51271474 -0.13005885 77 111 24
-0.53848004 0.52636945 -0.12168930 112 140 63
-0.54640973 0.49243629 -0.15001740 52 83 7
-0.36575320 0.75149709 -0.30606985 49 80 4
-0.37133354 0.75185740 -0.30541936 31 67 0
-0.37129700 0.75283182 -0.28034866 39 63 5
-0.35847139 0.77203947 -0.26903784 183 205 192
-0.36327177 0.75987649 -0.30766782 61 88 47
-0.36438540 0.76137352 -0.30524194 79 103 71
-0.36793301 0.76166344 -0.30747104 99 114 85
-0.36287028 0.76287597 -0.30067474 49 79 41
-0.37591970 0.74457359 -0.34219590 51 90 7
-0.37841162 0.74436885 -0.35442108 45 81 0
-0.37397549 0.75815964 -0.31330869 102 116 90
-0.37425086 0.74234271 -0.36253050 54 80 35
-0.37553734 0.74143839 -0.36618364 53 97 46
-0.37784764 0.75868297 -0.30896321 93 111 27
-0.37590542 0.75362635 -0.31790662 37 68 0
-0.37365657 0.74840707 -0.33712441 37 69 6
-0.36766067 0.76277292 -0.29282814 73 105 58
-0.37200278 0.75555128 -0.31933653 134 143 100
-0.37055838 0.75361788 -0.32197016 134 147 104
-0.36791423 0.75893694 -0.31210208 78 86 62
-0.36582226 0.75167865 -0.30218551 43 77 0
-0.36708230 0.74721444 -0.29434770 77 102 0
-0.36759886 0.76198816 -0.29356354 70 98 57
-0.37935343 0.74335063 -0.35588527 83 121 36
-0.37391278 0.74711740 -0.34165013 25 59 0
-0.37099504 0.76117951 -0.30715701 107 115 100
-0.36081293 0.77468187 -0.27856383 131 168 161
-0.35838965 0.77024239 -0.28074634 199 215 228
-0.37765646 0.75351608 -0.30866483 13 51 4
-0.37329096 0.74750310 -0.31465870 64 93 27
-0.37423846 0.74449199 -0.31873378 62 97 0
-0.37557989 0.74812436 -0.35175768 21 60 0
-0.37368628 0.74501729 -0.36351326 52 80 31
-0.37481362 0.74615043 -0.35394225 99 131 82
-0.37325540 0.76149422 -0.30150604 74 75 59
-0.36125538 0.73977667 -0.30305326 174 166 117
-0.36233395 0.74027264 -0.30043545 174 172 113
-0.36893460 0.75269026 -0.32423478 112 138 99
-0.36712521 0.75035524 -0.33163902 57 135 121
-0.36794281 0.75091457 -0.33004656 82 134 121
-0.37590358 0.75025553 -0.31012574 33 69 0
-0.37148339 0.74596691 -0.28553149 52 81 1
-0.36918053 0.74573237 -0.28933838 40 67 0
-0.37878346 0.74103719 -0.35932168 83 107 45
-0.37638608 0.74179947 -0.35290131 79 113 62
-0.37939000 0.74414378 -0.36849228 41 81 0
-0.36386207 0.77216911 -0.28085145 47 92 69
-0.36524138 0.76923555 -0.28338173 67 103 99
-0.36208543 0.75069326 -0.32655704 26 92 88
-0.37072265 0.74814749 -0.33876964 110 111 95
-0.36891723 0.74785674 -0.28782898 70 93 2
-0.36922002 0.74991542 -0.28705561 89 116 13
-0.36739111 0.76536119 -0.28953099 37 69 22
-0.36750236 0.75745595 -0.29418001 64 97 6
-0.37463656 0.75902516 -0.29931602 71 101 47
-0.35897657 0.76557589 -0.29033586 56 94 43
-0.36787745 0.76249129 -0.29941452 7 30 2
-0.37601626 0.74917293 -0.31882691 52 90 3
-0.45116940 0.78036690 -0.13742280 151 187 61
-0.41809511 0.77473521 -0.15206152 107 134 31
-0.44036308 0.77741557 -0.14086314 101 138 60
-0.43713722 0.78088719 -0.14212224 94 130 60
-0.39511490 0.77973413 -0.16981171 82 106 44
-0.46201813 0.75755733 -0.13976732 151 187 77
-0.47362691 0.75845248 -0.13607326 104 157 7
-0.50465298 0.79377735 -0.13058463 72 117 14
-0.50551039 0.79331863 -0.13319208 121 156 26
-0.58779377 0.77862531 -0.17140464 116 136 51
-0.59052223 0.77967232 -0.17456415 69 100 7
-0.59508246 0.77264005 -0.17374253 94 127 56
-0.46916056 0.77791077 -0.13487972 107 139 42
-0.52318066 0.77203900 -0.13655795 164 200 110
-0.52622640 0.76984531 -0.13754416 117 154 77
-0.48640057 0.78068757 -0.13173349 138 171 58
-0.44185212 0.78879464 -0.13946207 127 171 94
-0.42798540 0.78010136 -0.14907277 155 186 82
-0.44820863 0.78555959 -0.13892524 136 181 88
-0.41444373 0.77333879 -0.15368952 192 211 57
-0.49581134 0.78489703 -0.12702145 133 163 73
-0.52706385 0.76507717 -0.13993192 159 199 84
-0.44575492 0.77714783 -0.13830662 101 141 42
-0.52746266 0.75992286 -0.14790064 62 114 0
-0.43544987 0.77488118 -0.14559092 169 199 65
-0.47301382 0.76074135 -0.13552392 137 174 61
-0.40193054 0.74960774 -0.16335918 92 123 43
-0.40423205 0.76101887 -0.16801751 103 131 12
-0.47513163 0.78828180 -0.13664992 129 165 69
-0.39068219 0.75132352 -0.17680284 72 100 0
-0.39914066 0.74574953 -0.16560407 120 154 60
-0.54518479 0.77097481 -0.15652941 88 129 7
-0.39501780 0.75449669 -0.17402077 104 126 15
-0.48514476 0.78273487 -0.13185027 136 169 62
-0.42822111 0.77137983 -0.14961158 152 186 50
-0.44197553 0.76491702 -0.14500986 131 168 37
-0.50724638 0.79439688 -0.13811515 109 147 34
-0.39588755 0.74629653 -0.17601979 114 158 13
-0.39103970 0.76831585 -0.18510973 96 110 33
-0.39090282 0.74983925 -0.18473969 77 113 3
-0.39462218 0.75013620 -0.17017207 78 105 28
-0.39507240 0.76716578 -0.17736913 96 117 48
-0.39074767 0.76645058 -0.18649311 95 108 39
-0.40643388 0.75953776 -0.16444030 98 128 0
-0.39709550 0.75239855 -0.16823138 88 118 20
-0.39492330 0.76438582 -0.17911205 74 99 16
-0.41989562 0.76007640 -0.15742570 161 190 82
-0.42245904 0.76256567 -0.15649088 128 166 45
-0.39385012 0.77861130 -0.17406994 86 109 27
-0.39965147 0.77615261 -0.16514479 129 158 68
-0.41287813 0.76504183 -0.16173387 79 109 37
-0.42278677 0.76815617 -0.15330303 108 140 65
-0.40164843 0.76646447 -0.17016552 93 115 42
-0.45698276 0.78257209 -0.13861987 133 170 54
-0.40002465 0.77455646 -0.16613190 123 151 51
-0.54858452 0.76962495 -0.14417624 131 167 77
-0.55197847 0.76945502 -0.14548708 106 145 52
-0.42562786 0.76321387 -0.15464421 118 154 44
-0.51425993 0.76569313 -0.14394522 96 147 0
-0.39376906 0.75753254 -0.17759183 112 133 12
-0.42969564 0.75714326 -0.15429355 105 145 57
-0.57409710 0.77508146 -0.16209771 7 40 0
-0.58419299 0.77363449 -0.16598596 68 89 30
-0.40674508 0.77360725 -0.16009527 125 151 44
-0.47273105 0.78401220 -0.13701548 151 185 72
-0.40162030 0.75148052 -0.16432486 94 126 41
-0.51017326 0.78106868 -0.13050741 166 193 96
-0.48626164 0.79016238 -0.13131975 135 173 72
-0.50920188 0.79522163 -0.13965523 101 140 15
-0.50551051 0.77254844 -0.13274932 131 157 109
-0.60034341 0.77315617 -0.17757776 83 133 48
-0.59858918 0.77591109 -0.17249061 135 178 89
-0.49386272 0.77748400 -0.13110031 143 178 78
-0.56062263 0.78065234 -0.16069175 89 127 6
-0.47697115 0.77008313 -0.13326383 110 144 68
-0.46624395 0.75834620 -0.13964732 159 198 81
-0.45504376 0.75617093 -0.13751802 165 201 95
-0.53153896 0.76127350 -0.14855762 141 197 4
-0.44727448 0.75751346 -0.14047673 104 138 44
-0.44429877 0.75569296 -0.14164357 126 168 58
-0.47687766 0.75872076 -0.13309494 141 182 64
-0.39061061 0.77903795 -0.17857879 90 112 29
-0.52346611 0.77207780 -0.14484194 86 132 0
-0.50201601 0.77681500 -0.13223907 139 173 99
-0.48534632 0.75790679 -0.13553597 106 160 0
-0.46756142 0.78603899 -0.14316387 84 129 2
-0.47880709 0.76312578 -0.13100427 135 164 58
-0.46742564 0.79254895 -0.14331976 93 131 54
-0.46195382 0.76782906 -0.13691181 138 172 75
-0.41222569 0.75000221 -0.16100655 126 166 95
-0.56972384 0.77812517 -0.16023968 39 79 9
-0.42495769 0.77540350 -0.15084495 173 193 70
-0.53378391 0.77049768 -0.15023600 94 135 3
-0.45197487 0.78562087 -0.14240742 130 182 22
-0.49992794 0.78946084 -0.12538263 137 185 15
-0.54258430 0.77594918 -0.15503876 82 129 0
-0.55078071 0.77237308 -0.15928374 94 130 4
-0.53598976 0.77553272 -0.14972897 119 170 3
-0.43541625 0.78495508 -0.14178890 108 145 75
-0.51937568 0.79072946 -0.14200848 64 99 19
-0.51931792 0.79108363 -0.14374839 65 110 9
-0.43020964 0.78152066 -0.14749704 95 126 58
-0.52094179 0.76487172 -0.14186803 124 159 79
-0.46326149 0.78454238 -0.14291742 122 175 0
-0.52403933 0.76860052 -0.14176476 76 131 0
-0.41685128 0.75333649 -0.15786497 143 185 75
-0.50598639 0.78811085 -0.12939288 113 153 18
-0.46502027 0.78466845 -0.14089379 75 114 23
-0.46918276 0.78853655 -0.13979359 90 128 51
-0.43401408 0.75391757 -0.15547456 112 149 71
-0.49011523 0.75910968 -0.13464545 123 163 30
-0.52272427 0.76741165 -0.14251488 92 153 0
-0.45572084 0.77814472 -0.13721222 152 182 84
-0.55730534 0.77103347 -0.15008157 108 148 52
-0.55177510 0.77854306 -0.15824801 80 115 0
-0.46177492 0.77503270 -0.13768119 142 172 102
-0.45501232 0.76147193 -0.13722067 109 147 34
-0.53112763 0.76195675 -0.14902142 158 206 10
-0.53035748 0.77015054 -0.14605327 126 174 0
-0.41770914 0.75763464 -0.15791351 118 145 40
-0.54544604 0.76641494 -0.14804715 114 148 51
-0.55718637 0.78815109 -0.14252044 104 144 55
-0.51147228 0.77775830 -0.13305771 145 176 96
-0.51543379 0.78028661 -0.13263437 142 176 89
-0.47472718 0.78856504 -0.14110939 98 147 0
-0.53968227 0.78453600 -0.13967158 75 113 26
-0.53041524 0.78687042 -0.14164819 63 97 13
-0.51103920 0.78854454 -0.13180874 107 134 41
-0.55405015 0.77772677 -0.14528450 176 201 162
-0.50644165 0.78699082 -0.12783569 71 102 22
-0.60122091 0.77861035 -0.17123105 111 143 67
-0.51109999 0.78722602 -0.13103442 108 137 53
-0.51160514 0.78978306 -0.13227548 163 193 63
-0.50615185 0.79588467 -0.13348538 71 114 22
-0.52012968 0.77299404 -0.13584512 124 157 88
-0.54542881 0.76621342 -0.14581214 80 117 11
-0.55029720 0.76846182 -0.14568502 121 159 38
-0.51563370 0.79242057 -0.14212975 86 119 30
-0.58612579 0.77928811 -0.16055496 113 148 84
-0.53169817 0.77022254 -0.13828619 150 188 101
-0.54275429 0.77456480 -0.14170443 134 160 112
-0.54335302 0.77218455 -0.14199471 116 156 70
-0.60004550 0.77911907 -0.16999951 116 148 75
-0.52186292 0.77940214 -0.13416287 182 217 123
-0.43657461 0.76559621 -0.14619796 147 183 59
-0.54665995 0.79262942 -0.14378920 110 147 51
-0.54854894 0.78621429 -0.14157611 176 223 83
-0.54287988 0.78645736 -0.14203514 130 170 56
-0.57814294 0.78249496 -0.15593450 107 145 60
-0.58709502 0.78442216 -0.16048063 74 118 23
-0.55103111 0.79672801 -0.14283398 113 162 53
-0.52463710 0.75933796 -0.14842770 114 174 0
-0.40139505 0.74507564 -0.16617851 74 119 0
-0.39848810 0.74530649 -0.17281640 60 102 4
-0.40347305 0.74675006 -0.16967171 66 108 0
-0.56186473 0.78134030 -0.14528796 168 213 112
-0.52834177 0.78352070 -0.13657351 84 122 13
-0.49874145 0.78833866 -0.12236458 149 186 73
-0.56392932 0.77634764 -0.14979272 121 150 92
-0.50979483 0.79374450 -0.13025367 94 128 33
-0.48884094 0.76493931 -0.13013232 150 182 85
-0.48274609 0.76215452 -0.13059394 160 197 58
-0.39249811 0.77501225 -0.17798370 112 133 28
-0.39429232 0.77078128 -0.17653765 108 128 39
-0.51053119 0.76083273 -0.14412177 133 168 50
-0.58001518 0.77973926 -0.16487360 16 50 0
-0.55012453 0.77906066 -0.14297804 152 186 109
-0.46963882 0.79288864 -0.14212203 88 126 49
-0.44361275 0.75995600 -0.14282152 131 170 29
-0.58462077 0.78047496 -0.16909951 92 117 36
-0.57623369 0.78356600 -0.16347046 35 75 5
-0.40914723 0.76205248 -0.16352421 106 135 9
-0.40304902 0.76678020 -0.16853547 99 122 52
-0.53100157 0.75916255 -0.14750522 156 210 26
-0.46532518 0.76517105 -0.13654709 183 216 111
-0.47273579 0.78009981 -0.13480486 123 153 53
-0.44201145 0.77022272 -0.14440966 145 171 108
-0.44282839 0.78255951 -0.13731867 106 143 65
-0.52759749 0.76527297 -0.14240928 125 182 0
-0.52385980 0.76536632 -0.14352787 137 187 2
-0.57820749 0.77691132 -0.15737566 111 140 84
-0.57035029 0.77485776 -0.15913917 9 47 0
-0.56932527 0.77513367 -0.15838461 18 56 5
-0.44964078 0.77117139 -0.14097965 134 160 95
-0.57267624 0.78206325 -0.16128010 45 82 2
-0.56105411 0.78327340 -0.16064174 77 115 0
-0.56092173 0.77241868 -0.15683796 54 91 21
-0.55081511 0.76793998 -0.15282996 98 132 46
-0.56256443 0.77392787 -0.15933472 63 105 7
-0.48688206 0.77100724 -0.13205196 145 168 114
-0.52375638 0.76088458 -0.14809154 158 220 13
-0.50554675 0.78540009 -0.12898844 123 162 19
-0.47456658 0.76650715 -0.13314922 135 170 70
-0.45393226 0.78591222 -0.14177783 126 170 75
-0.47850338 0.78090495 -0.13335326 147 181 69
-0.49482185 0.78086549 -0.12926252 153 189 65
-0.50710279 0.77710509 -0.13227789 140 169 89
-0.50731802 0.76568168 -0.13689418 102 132 42
-0.46260422 0.76942146 -0.13717015 118 147 65
-0.44103265 0.77419549 -0.14250208 147 175 65
-0.49731287 0.77195936 -0.13272543 139 164 107
-0.55222350 0.77209526 -0.16002850 101 131 17
-0.53086680 0.77737677 -0.13773358 151 184 113
-0.51418948 0.75996077 -0.14534235 96 131 51
-0.46456423 0.77560604 -0.13652109 140 174 97
-0.39241517 0.76215929 -0.18273285 76 103 10
-0.51544881 0.76439434 -0.14412135 160 199 80
-0.56851768 0.77640611 -0.15317562 117 153 92
-0.56404221 0.77407247 -0.15460321 46 86 13
-0.40717062 0.76960003 -0.16267662 120 150 60
-0.50710434 0.77310014 -0.13315423 156 176 139
-0.50656158 0.77345139 -0.13295384 151 171 136
-0.49794644 0.76474208 -0.13510928 165 194 86
-0.43430215 0.76032501 -0.15012686 142 177 49
-0.50787181 0.76235574 -0.14221005 160 196 90
-0.49120933 0.76159912 -0.13099030 142 177 33
-0.49778301 0.78531498 -0.12683432 180 215 7
-0.53818774 0.76535308 -0.14514135 83 115 6
-0.53502721 0.76314944 -0.14130156 179 217 106
-0.72770607 0.50070018 -0.12870705 91 127 27
-0.72939616 0.50155652 -0.13188571 91 129 18
-0.73415715 0.51515520 -0.12287561 117 145 94
-0.73017228 0.50336641 -0.15048215 71 92 25
-0.72416764 0.52622873 -0.11485396 98 126 67
-0.72013617 0.50014549 -0.13079239 148 171 125
-0.71804446 0.52280277 -0.11539199 128 149 110
-0.71913970 0.53148121 -0.10974942 153 173 146
-0.72297770 0.49516624 -0.15680936 87 108 51
-0.73706079 0.50542480 -0.13447995 102 135 2
-0.71962589 0.51145113 -0.12136015 155 181 110
-0.71936595 0.49094236 -0.15723999 62 87 22
-0.72773403 0.50043130 -0.13744611 76 109 20
-0.72461998 0.50026143 -0.13095134 127 160 79
-0.73493600 0.50358319 -0.13348037 97 132 2
-0.72508228 0.50379300 -0.15519878 62 92 20
-0.70226651 0.53869867 -0.10648561 162 176 78
-0.71059686 0.53478104 -0.10244967 106 129 101
-0.70518982 0.53832722 -0.10375923 117 140 70
-0.71673840 0.49418926 -0.17434773 81 111 15
-0.72319692 0.53067285 -0.11259536 126 154 93
-0.71188086 0.53234285 -0.10411381 108 121 114
-0.71848238 0.49214244 -0.16654603 71 98 21
-0.71901971 0.49164787 -0.16510744 54 80 9
-0.70583421 0.52950752 -0.11606611 133 158 77
-0.70242536 0.53556389 -0.11200141 91 115 37
-0.71485502 0.49588349 -0.14042898 128 150 111
-0.69971383 0.54347789 -0.10138288 109 117 40
-0.72249031 0.52061582 -0.11612402 190 223 152
-0.73785406 0.51551235 -0.12684925 183 199 51
-0.71308905 0.48316696 -0.16265136 134 149 116
-0.71399629 0.48579425 -0.15828262 143 160 126
-0.71819556 0.48932484 -0.15720324 88 115 44
-0.71675307 0.48653740 -0.17346902 61 89 15
-0.71784234 0.48848957 -0.16560559 60 81 22
-0.71820629 0.49018309 -0.15229298 75 100 42
-0.72652358 0.50129074 -0.14429814 29 65 0
-0.73477632 0.50940931 -0.12283347 109 139 65
-0.71333623 0.49345896 -0.14426625 114 138 106
-0.73346859 0.50795573 -0.13628432 131 164 33
-0.71854097 0.50892371 -0.12206118 164 188 128
-0.73901111 0.51059264 -0.13235503 165 189 41
-0.71278495 0.50783718 -0.12704214 140 169 102
-0.71687371 0.50422847 -0.12424848 166 190 140
-0.71966392 0.49567372 -0.13970000 123 145 96
-0.72368675 0.49677047 -0.14172381 92 114 29
-0.72029269 0.49470475 -0.16458149 47 73 0
-0.71922237 0.52580208 -0.11271963 163 187 139
-0.72885668 0.51702136 -0.12038113 123 160 46
-0.72749698 0.50689167 -0.12169266 140 172 105
-0.73347348 0.50541693 -0.12355600 154 188 93
-0.72544366 0.49743116 -0.14295635 70 106 10
-0.70596820 0.54175371 -0.09849826 105 135 47
-0.70697129 0.54218698 -0.09640395 113 144 68
-0.72691387 0.50126493 -0.13213147 35 75 0
-0.73194605 0.50565767 -0.13198607 138 187 7
-0.71488827 0.48886919 -0.18014394 60 88 4
-0.71921420 0.50310314 -0.16440758 49 79 7
-0.72762018 0.50311071 -0.13931111 110 152 6
-0.71891528 0.49215639 -0.14787252 88 114 66
-0.71002704 0.49081147 -0.17751622 60 88 11
-0.73728991 0.51599121 -0.12807572 137 161 11
-0.71433604 0.53322232 -0.10564017 81 99 73
-0.72764540 0.49937168 -0.14729068 72 100 25
-0.71267492 0.52559376 -0.11296325 149 175 130
-0.71451366 0.49125218 -0.18227223 87 119 10
-0.72925794 0.50004643 -0.14204061 81 113 30
-0.71209276 0.50339681 -0.13129331 147 180 89
-0.71221769 0.51339006 -0.12274116 128 161 72
-0.36744103 0.77184236 -0.23295978 124 169 4
-0.38442346 0.77955472 -0.18447940 99 114 33
-0.38250408 0.77230793 -0.21289985 35 64 8
-0.37161663 0.77197886 -0.22096378 61 84 32
-0.38896602 0.76171267 -0.19930950 32 69 0
-0.39905667 0.77677107 -0.18521000 26 70 0
-0.39889887 0.77797121 -0.18800135 32 77 0
-0.39505643 0.75636542 -0.18503171 73 107 0
-0.39165312 0.75119448 -0.18727687 115 153 14
-0.37899765 0.75873572 -0.22750711 63 98 18
-0.37357733 0.76628906 -0.22443077 122 162 4
-0.38208047 0.75462514 -0.22229980 58 95 0
-0.38285837 0.75293481 -0.22227378 91 126 24
-0.37772989 0.76329166 -0.22149645 105 148 7
-0.37758201 0.76267356 -0.22483464 67 104 0
-0.36867473 0.74846512 -0.23894061 153 142 140
-0.37199295 0.74733829 -0.23992510 187 171 155
-0.37124622 0.74624264 -0.24764773 210 201 172
-0.38514790 0.77672446 -0.20629071 62 92 6
-0.38000706 0.76358801 -0.20771004 79 103 29
-0.37877735 0.73662633 -0.33680964 140 149 86
-0.38010556 0.73886716 -0.33953717 91 126 22
-0.38759711 0.78277010 -0.18607199 27 58 0
-0.38591301 0.75023270 -0.19395064 151 155 120
-0.37753099 0.75117147 -0.21606687 147 142 113
-0.37641454 0.75175411 -0.22059040 133 128 96
-0.38601977 0.75173730 -0.19240476 101 113 49
-0.38867521 0.75669450 -0.18773466 101 125 3
-0.38765413 0.77008069 -0.19154866 104 113 8
-0.36752325 0.76924318 -0.22446978 114 135 60
-0.38309959 0.76542872 -0.19955316 89 110 33
-0.36149961 0.76151454 -0.23693852 110 112 90
-0.36397550 0.76294357 -0.23255961 132 146 93
-0.38324335 0.77270758 -0.20462085 63 88 4
-0.38029844 0.77611566 -0.19266336 95 105 19
-0.38145551 0.77933758 -0.19781929 80 91 22
-0.38643137 0.77533358 -0.20663522 74 109 19
-0.38008204 0.76917583 -0.21415286 54 79 11
-0.38427961 0.74426138 -0.20609637 177 175 137
-0.39832941 0.76800847 -0.18324789 48 91 0
-0.39866376 0.77418494 -0.18525754 108 145 29
-0.37497294 0.75386524 -0.22486691 144 139 110
-0.36514899 0.75126171 -0.23745584 144 132 132
-0.36343318 0.75086170 -0.23964505 148 137 131
-0.36345258 0.75146222 -0.23949285 150 137 131
-0.36228395 0.77204025 -0.25620201 76 92 19
-0.39106810 0.74681920 -0.21428062 33 60 0
-0.35798475 0.74749988 -0.31611612 132 103 89
-0.36045823 0.73953694 -0.31185058 117 121 70
-0.35972047 0.74200261 -0.31439713 136 107 93
-0.36120382 0.73799300 -0.32261980 105 94 90
-0.36335447 0.73534065 -0.32521957 122 106 93
-0.35907796 0.77239072 -0.25732723 104 127 57
-0.37952769 0.75870156 -0.21008791 67 91 33
-0.38494447 0.75471038 -0.19621350 87 111 13
-0.38391891 0.75160021 -0.19665727 110 129 47
-0.36240980 0.77217132 -0.24923576 66 83 12
-0.39125481 0.76683539 -0.19747128 67 99 0
-0.38934064 0.75119233 -0.19408992 72 106 0
-0.39407581 0.75039697 -0.17739245 98 137 18
-0.36769736 0.77074599 -0.22867630 73 113 0
-0.38584158 0.77568710 -0.20451169 55 82 5
-0.36966941 0.74641538 -0.25547162 169 162 136
-0.36833405 0.74658072 -0.27023396 210 242 229
-0.36637396 0.74738449 -0.26345298 195 190 152
-0.39165986 0.76038736 -0.19381967 68 104 30
-0.39246708 0.75915623 -0.19188228 53 91 0
-0.39208329 0.75088793 -0.18361840 79 115 5
-0.39499390 0.75521976 -0.17810601 97 131 0
-0.39483827 0.75471759 -0.17751621 125 164 11
-0.37205920 0.77125388 -0.22398362 97 131 36
-0.38209632 0.77007073 -0.20360643 101 121 34
-0.37450665 0.76328516 -0.21769141 91 120 53
-0.37901640 0.74337435 -0.34092301 86 128 16
-0.35772499 0.74927813 -0.30563980 121 107 96
-0.36026406 0.74014187 -0.30040780 177 179 155
-0.35881531 0.74667251 -0.29614598 127 111 96
-0.35953039 0.74429888 -0.29357651 138 119 112
-0.35768703 0.74831498 -0.31176648 136 127 98
-0.38815007 0.75087893 -0.20270042 76 114 1
-0.37685153 0.73795933 -0.34096518 137 148 108
-0.37940502 0.73856199 -0.34588224 87 105 53
-0.37593120 0.74237359 -0.28617564 78 113 45
-0.39065695 0.78191596 -0.19634819 71 110 29
-0.39306438 0.78573000 -0.18057485 43 75 10
-0.35785636 0.75447112 -0.28895211 190 205 200
-0.35771120 0.75288916 -0.29339749 93 99 97
-0.35693890 0.76303953 -0.29335064 115 134 102
-0.35756436 0.75642776 -0.29133543 205 223 227
-0.35787067 0.75822306 -0.28392434 191 206 209
-0.35675651 0.76046497 -0.29968479 178 114 102
-0.35802409 0.75726771 -0.28257909 189 203 203
-0.39720374 0.78031713 -0.18655995 20 65 6
-0.35855663 0.75506735 -0.24558175 163 155 136
-0.35720599 0.75863051 -0.24684303 173 161 145
-0.38444066 0.75386602 -0.21554737 106 140 27
-0.36869574 0.73726940 -0.29086566 158 181 135
-0.38328525 0.77819705 -0.18641949 95 110 19
-0.35909200 0.77010673 -0.24009027 105 139 52
-0.38407385 0.75847173 -0.20918795 31 67 0
-0.35866207 0.76321018 -0.24017729 146 147 115
-0.35338688 0.76213819 -0.25103724 149 155 81
-0.36251673 0.77105361 -0.23872459 76 113 0
-0.39401302 0.75185233 -0.17584245 84 126 0
-0.37737596 0.77412999 -0.21480727 59 101 3
-0.38551256 0.77710098 -0.20721228 36 66 0
-0.39100635 0.77696061 -0.20329204 82 116 39
-0.35707876 0.76580560 -0.24044973 137 156 111
-0.35560825 0.76545262 -0.24378820 140 148 107
-0.39549252 0.76353496 -0.18887301 23 61 0
-0.39666057 0.76549387 -0.18809491 101 147 25
-0.38132697 0.76759773 -0.20993735 135 175 17
-0.38283888 0.77047604 -0.20715323 60 93 0
-0.38002869 0.77198058 -0.21611395 44 72 13
-0.37266281 0.74137938 -0.28461799 84 113 59
-0.37673777 0.74531347 -0.33455503 68 111 6
-0.38787654 0.74562460 -0.19741422 99 122 70
-0.38564140 0.76641011 -0.20529832 77 114 0
-0.36314973 0.74044055 -0.30879608 57 76 10
-0.36336622 0.74060202 -0.30940482 71 94 26
-0.36207977 0.73674589 -0.31853327 42 37 31
-0.37527630 0.74257630 -0.32589665 44 87 0
-0.36785740 0.73805869 -0.28999287 124 156 109
-0.36174002 0.73841202 -0.30001709 176 176 140
-0.36406735 0.73633331 -0.32378027 130 117 100
-0.37378219 0.73589498 -0.32725692 124 132 75
-0.38386130 0.75170869 -0.22382928 83 116 9
-0.37758401 0.73686063 -0.33346540 157 172 87
-0.37980738 0.77455878 -0.21401411 62 105 0
-0.37188360 0.76978678 -0.22514306 96 130 20
-0.38791293 0.74900383 -0.21536523 96 131 15
-0.38227871 0.76505786 -0.20374334 84 105 30
-0.35252708 0.76998889 -0.24890099 197 209 199
-0.36809811 0.74449259 -0.31594622 54 77 0
-0.36992532 0.76303947 -0.22488311 114 136 72
-0.36727101 0.76567364 -0.22503605 98 129 51
-0.38957837 0.78476036 -0.18152802 36 62 0
-0.38181305 0.75786567 -0.20334069 62 87 21
-0.37148660 0.74597621 -0.26171395 188 197 180
-0.37073004 0.74583656 -0.26955417 189 216 199
-0.36391690 0.74430835 -0.33192423 96 140 127
-0.35933360 0.74961346 -0.32330900 106 180 179
-0.36366704 0.73711586 -0.32940993 94 116 103
-0.36619833 0.74364841 -0.33675388 94 132 119
-0.36469194 0.74181473 -0.33294469 98 146 134
-0.38391495 0.74521071 -0.20484422 166 162 127
-0.39570880 0.78749818 -0.17635454 62 82 19
-0.36120799 0.74994165 -0.24474658 156 144 132
-0.36678788 0.74744308 -0.25648138 201 187 160
-0.36419323 0.74838102 -0.25740427 194 185 154
-0.36390835 0.74824691 -0.26425910 187 194 152
-0.38998690 0.74427408 -0.20689760 88 108 47
-0.35666901 0.75861067 -0.27713624 40 68 46
-0.35842866 0.75216788 -0.27759337 160 195 171
-0.35436824 0.75872892 -0.26602334 155 149 137
-0.35539225 0.75784332 -0.26991472 176 181 175
-0.35719723 0.75824261 -0.27925584 184 209 188
-0.37427342 0.73731846 -0.33710104 135 128 110
-0.36363167 0.73620129 -0.32815745 101 103 92
-0.37092134 0.74119473 -0.34384298 130 140 131
-0.39011979 0.74673748 -0.20590450 27 61 0
-0.37531450 0.74755871 -0.26807123 63 103 40
-0.38254777 0.77399904 -0.18709564 98 104 6
-0.36031097 0.74224025 -0.29291871 141 121 114
-0.36074305 0.74617165 -0.28366414 179 198 176
-0.35940990 0.74662310 -0.28353813 176 195 176
-0.38815850 0.78236055 -0.19953109 71 112 18
-0.35617334 0.75498587 -0.25787011 141 140 112
-0.35711533 0.75342423 -0.26171458 178 180 169
-0.35875368 0.75192964 -0.25551239 161 155 141
-0.35763115 0.75381601 -0.25066280 116 113 80
-0.35718518 0.75320655 -0.26307407 170 170 160
-0.35310787 0.76345640 -0.25982425 88 105 34
-0.35272732 0.76270247 -0.25914264 96 111 42
-0.35247895 0.76968747 -0.24772137 201 210 209
-0.35839367 0.77175140 -0.26237422 69 88 42
-0.39386469 0.77995998 -0.19039376 63 101 54
-0.35459512 0.76991469 -0.26176807 88 117 25
-0.68791288 0.66434020 -0.07126486 178 211 42
-0.68986261 0.67009568 -0.07192539 189 218 6
-0.62571090 0.73556566 -0.12168635 107 144 15
-0.62788773 0.72345793 -0.12622461 113 150 21
-0.63134950 0.71923435 -0.13078018 133 161 77
-0.59884918 0.72898513 -0.10433549 110 137 56
-0.60990918 0.74163115 -0.12248127 30 34 17
-0.67793900 0.71566767 -0.10774568 169 197 0
-0.67868149 0.71242911 -0.10379504 149 178 0
-0.60686409 0.75502354 -0.11650957 150 177 4
-0.65245384 0.75328499 -0.12974432 140 183 6
-0.68377405 0.69363660 -0.08546279 150 178 0
-0.62747180 0.74955797 -0.12202222 140 163 23
-0.62787008 0.75774008 -0.12352365 157 175 57
-0.62886959 0.74694282 -0.12352916 104 133 23
-0.64459848 0.77407563 -0.13661624 155 180 18
-0.69250661 0.67938703 -0.07480559 168 189 8
-0.64044636 0.73479593 -0.12072639 192 224 87
-0.64201969 0.73214573 -0.12000220 161 192 55
-0.60844767 0.72064388 -0.11768972 125 146 19
-0.68160135 0.74533987 -0.07444966 181 214 21
-0.65470517 0.74998522 -0.12647893 114 155 0
-0.65086794 0.74901772 -0.12636694 133 178 0
-0.62477791 0.75522429 -0.12073749 140 161 30
-0.62484157 0.75131059 -0.11998288 168 189 58
-0.66459209 0.75864899 -0.14093697 104 131 0
-0.61462116 0.71604145 -0.11930976 124 159 5
-0.66981584 0.75547564 -0.13194187 127 155 18
-0.67217839 0.75138980 -0.12215904 93 125 0
-0.67907578 0.73716944 -0.10102177 109 142 0
-0.68032128 0.73937434 -0.10687688 130 164 5
-0.60101211 0.73762459 -0.10738486 135 169 33
-0.60837549 0.75836408 -0.11560205 157 183 34
-0.61001170 0.75490373 -0.11340603 170 192 66
-0.67060095 0.73495430 -0.13560337 131 161 3
-0.67974234 0.70732814 -0.09835199 184 205 12
-0.68065441 0.70169175 -0.09304279 181 204 8
-0.64903569 0.75427204 -0.12955065 123 165 5
-0.63737917 0.73862171 -0.12168292 130 163 24
-0.64059961 0.73744625 -0.12071856 193 225 102
-0.64499563 0.75155592 -0.12701325 104 151 0
-0.62583840 0.71678913 -0.12674478 91 124 9
-0.62190849 0.72028780 -0.12170506 64 104 0
-0.66114330 0.69925177 -0.10642238 145 183 20
-0.68237060 0.72158021 -0.10188353 166 190 4
-0.68002337 0.73535955 -0.11414386 160 189 19
-0.68168002 0.72629797 -0.10581336 195 216 51
-0.67969662 0.73768246 -0.11317367 114 148 0
-0.59823352 0.71248913 -0.10561867 73 99 8
-0.60054904 0.71655029 -0.11033756 76 98 33
-0.60411102 0.74758291 -0.11947422 106 123 21
-0.68895078 0.69542891 -0.08450863 184 209 21
-0.62172830 0.71801037 -0.12263227 111 151 19
-0.63241750 0.72635347 -0.13193953 111 140 14
-0.66355520 0.75503391 -0.11401471 144 183 4
-0.60649383 0.73814106 -0.10620768 141 178 49
-0.67921364 0.73243332 -0.11464893 188 217 37
-0.67808115 0.73121953 -0.11678159 163 192 16
-0.68031794 0.74627316 -0.07300597 153 188 0
-0.63283473 0.73141760 -0.13127118 109 140 0
-0.63015074 0.72877604 -0.12813528 96 128 3
-0.60523820 0.74618828 -0.11017543 150 183 66
-0.67159837 0.68080997 -0.08667719 172 202 18
-0.67535442 0.74966490 -0.13765405 140 170 20
-0.66825706 0.75622529 -0.14363585 123 151 14
-0.66871995 0.75635070 -0.14058444 125 153 17
-0.67169291 0.75253648 -0.13068545 109 138 10
-0.67327827 0.74834949 -0.08322188 166 199 0
-0.66246897 0.69550377 -0.10473888 160 196 34
-0.60051179 0.73402858 -0.11286542 96 128 29
-0.62595224 0.72606117 -0.12429154 63 100 0
-0.62208956 0.72805721 -0.12401941 104 145 4
-0.62916690 0.71541995 -0.13218164 78 108 36
-0.62693757 0.76530147 -0.12213399 134 156 13
-0.68816853 0.65892649 -0.07237139 172 206 59
-0.69607967 0.65559274 -0.07029980 157 193 31
-0.66632938 0.70070833 -0.10607395 163 196 21
-0.61085892 0.71334386 -0.11642987 138 160 26
-0.65146881 0.76175982 -0.13535582 111 151 2
-0.65856606 0.75126839 -0.12601402 80 118 0
-0.67704833 0.73092109 -0.11936706 187 215 43
-0.67654705 0.73226297 -0.12261004 182 212 38
-0.67730737 0.73967594 -0.12632044 119 150 0
-0.62334561 0.73366314 -0.12126016 97 137 5
-0.61741704 0.73173636 -0.12288410 68 108 0
-0.66813958 0.75318456 -0.11344695 133 169 9
-0.63416523 0.74663955 -0.13030627 86 115 25
-0.62777883 0.74523830 -0.12175690 107 137 15
-0.63840395 0.76487476 -0.13726965 158 171 81
-0.67783451 0.70130467 -0.09532333 180 209 7
-0.67390537 0.69909459 -0.09608991 144 176 5
-0.65991038 0.74124551 -0.13069640 104 139 0
-0.67368472 0.68626988 -0.08863017 138 171 2
-0.66377378 0.75367260 -0.11097548 144 182 0
-0.67136997 0.70296341 -0.10095585 152 178 9
-0.69362366 0.67115849 -0.07032402 208 229 36
-0.62080449 0.71410966 -0.12393226 87 121 9
-0.66751176 0.69638646 -0.10187889 149 182 15
-0.69029242 0.67951190 -0.07418010 204 228 18
-0.67760700 0.74208623 -0.10644209 134 166 5
-0.66605437 0.71960908 -0.12643602 158 183 55
-0.68781203 0.68451196 -0.07670358 193 216 38
-0.66853875 0.75625801 -0.11877872 108 136 0
-0.66163355 0.75801486 -0.13513093 105 142 3
-0.66490811 0.75776207 -0.13301343 104 138 2
-0.67368340 0.74709821 -0.11167586 142 174 13
-0.63671082 0.74065971 -0.13552774 116 148 15
-0.63672733 0.74045229 -0.13560180 116 148 15
-0.64185411 0.73840702 -0.14232555 107 137 15
-0.67878389 0.73963445 -0.11466048 119 146 3
-0.67810941 0.73996079 -0.12173880 125 156 1
-0.67646068 0.74568063 -0.13082062 137 166 12
-0.61147314 0.75454324 -0.11708387 145 172 5
-0.68505794 0.70101458 -0.08836190 178 207 1
-0.68459052 0.74214953 -0.07073747 154 191 0
-0.64958310 0.73333037 -0.12086143 108 152 0
-0.68172288 0.67745030 -0.08001176 170 206 44
-0.68427283 0.67449558 -0.07711424 176 214 31
-0.65661073 0.75669181 -0.13201262 149 188 11
-0.66937053 0.69983637 -0.10096429 149 176 1
-0.68194783 0.70632482 -0.09416460 133 169 0
-0.60097927 0.72479671 -0.11303733 72 101 8
-0.60049605 0.72719997 -0.11276506 73 104 11
-0.65806031 0.75635874 -0.12426505 126 167 3
-0.64200854 0.77648097 -0.13409016 171 188 76
-0.64546967 0.76470506 -0.13521376 142 160 12
-0.62288719 0.75309843 -0.12169177 161 176 13
-0.60336089 0.71929204 -0.11518128 81 109 7
-0.59935254 0.72556388 -0.11095078 78 108 10
-0.67237127 0.70363277 -0.10103121 148 176 14
-0.67363328 0.74933422 -0.12481540 101 136 0
-0.63088953 0.74315619 -0.12367972 102 135 0
-0.62884080 0.76138890 -0.12477002 135 160 0
-0.63527399 0.74828732 -0.12950362 117 149 4
-0.63822180 0.74434310 -0.12411545 107 144 5
-0.63397557 0.74497104 -0.12694469 115 145 11
-0.61802799 0.73587304 -0.10807863 116 150 0
-0.61734629 0.74648726 -0.11418649 150 182 11
-0.69252694 0.67467004 -0.07065663 182 204 7
-0.63363743 0.75583208 -0.13117585 168 184 26
-0.59739321 0.72461832 -0.10352017 96 122 31
-0.64148259 0.77142781 -0.13117887 179 207 37
-0.68656397 0.70838845 -0.09071200 213 230 64
-0.68935215 0.69332820 -0.08265481 188 217 11
-0.65034187 0.74377221 -0.13018416 103 148 0
-0.64939123 0.74236488 -0.12614307 103 145 0
-0.61738819 0.76642883 -0.11711703 160 186 3
-0.64513195 0.76153684 -0.13361858 177 193 32
-0.64220077 0.76481992 -0.14216003 128 143 58
-0.63903803 0.76342589 -0.13885474 150 163 75
-0.63117015 0.73354191 -0.11905935 117 152 6
-0.66780418 0.68572241 -0.09043472 143 172 0
-0.61856061 0.76511216 -0.11833631 183 206 54
-0.62479621 0.76266843 -0.12163427 173 191 69
-0.65678823 0.76236278 -0.14093246 121 155 16
-0.62796926 0.74565351 -0.12252139 142 167 13
-0.65732694 0.71921307 -0.11173683 148 192 11
-0.62858933 0.72487396 -0.11254320 96 130 10
-0.62761647 0.72508681 -0.10609874 86 122 0
-0.66100514 0.75819796 -0.13570060 110 143 10
-0.69463056 0.65830749 -0.07178875 140 171 0
-0.67495173 0.71424246 -0.10933609 169 201 12
-0.67526090 0.69582570 -0.09285671 142 176 0
-0.67937702 0.69381136 -0.08885844 147 176 0
-0.63318789 0.76833630 -0.12413885 165 188 22
-0.61947000 0.74124801 -0.12142181 65 101 0
-0.66609079 0.70966035 -0.10790796 171 196 8
-0.66867816 0.70969719 -0.10847268 174 200 15
-0.61497122 0.75012207 -0.11793783 132 159 18
-0.67251873 0.71124345 -0.10730563 148 178 2
-0.66942441 0.72215164 -0.12216697 165 190 28
-0.67140985 0.72590673 -0.12513661 149 178 12
-0.65054786 0.75803220 -0.13257256 121 165 6
-0.61137849 0.73198682 -0.12229213 99 103 52
-0.60753304 0.72913867 -0.11948252 109 120 51
-0.68787026 0.67788947 -0.07305259 162 190 10
-0.68851733 0.67584836 -0.07129849 194 227 26
-0.68811798 0.67088372 -0.07068063 200 231 39
-0.60828292 0.73171639 -0.10244859 134 174 13
-0.62172729 0.73222262 -0.10781048 95 131 9
-0.62383121 0.73217916 -0.10929581 94 130 6
-0.62805444 0.73703700 -0.11764202 105 136 9
-0.63392931 0.76676446 -0.12736923 176 194 76
-0.63298529 0.75245053 -0.12930872 189 214 52
-0.65459204 0.75939184 -0.13476023 117 157 0
-0.66551310 0.74692333 -0.10470475 137 172 0
-0.66837794 0.74626148 -0.09647099 148 184 0
-0.64644402 0.73778147 -0.12154228 116 163 0
-0.60389376 0.73987454 -0.11908690 216 225 194
-0.65196115 0.73468375 -0.12198980 103 149 0
-0.65378624 0.73954302 -0.12939547 104 152 0
-0.68407375 0.71462840 -0.09619546 165 185 0
-0.66566086 0.71837825 -0.12424926 163 186 56
-0.63390362 0.75194597 -0.13070588 125 151 44
-0.63454223 0.75858963 -0.13242376 147 162 69
-0.62013346 0.73876554 -0.11219164 115 148 0
-0.61680317 0.74780673 -0.11911709 71 100 0
-0.62089920 0.73615438 -0.11109848 149 182 17
-0.62613827 0.73916507 -0.11791044 103 135 0
-0.67746198 0.74761468 -0.07362434 167 200 31
-0.68335396 0.68885857 -0.08316586 202 230 32
-0.68032902 0.69096822 -0.08662539 144 173 0
-0.60792947 0.73734164 -0.10541283 152 188 40
-0.63713723 0.75830889 -0.13256519 186 206 47
-0.66662878 0.75076157 -0.09889074 185 217 22
-0.66085786 0.76649410 -0.14789571 112 147 5
-0.67862231 0.69318157 -0.08916125 125 166 8
-0.67263323 0.73491341 -0.13294378 130 160 4
-0.67362499 0.73936373 -0.13516329 137 170 21
-0.67493910 0.72802389 -0.12314111 168 201 8
-0.60444194 0.73129356 -0.10221185 163 203 19
-0.61029232 0.74868762 -0.11845174 121 143 42
-0.65138471 0.76446331 -0.13809392 111 135 0
-0.63647467 0.76749700 -0.12843417 168 195 28
-0.65234345 0.76236439 -0.13656686 99 136 0
-0.65869892 0.71260810 -0.11524506 182 202 55
-0.68001115 0.69141859 -0.08713609 182 217 26
-0.68002832 0.68422514 -0.08360668 164 201 25
-0.66211647 0.69017369 -0.09901557 164 197 20
-0.63419181 0.73640388 -0.13228333 109 141 0
-0.63484281 0.73912853 -0.13315886 129 161 24
-0.66949052 0.75157332 -0.09055883 166 197 0
-0.66127741 0.75786024 -0.12575449 154 188 42
-0.60314178 0.71125901 -0.10957170 72 96 18
-0.60147905 0.71223551 -0.10945802 41 67 2
-0.62710202 0.74140316 -0.12104867 85 113 10
-0.63819605 0.76102871 -0.13838890 156 170 82
-0.61165464 0.71059257 -0.11492394 132 156 20
-0.69154376 0.74517196 -0.06462663 158 195 0
-0.69577909 0.64777440 -0.07199608 128 165 10
-0.69477403 0.64719558 -0.07381224 112 148 0
-0.60702753 0.74271947 -0.10888570 156 191 75
-0.61412162 0.74586701 -0.11070491 109 146 7
-0.62838733 0.71303535 -0.13658929 150 179 115
-0.61579269 0.75937086 -0.11926098 144 172 10
-0.61620647 0.75979960 -0.11946451 135 164 0
-0.62021554 0.75615489 -0.11963761 132 161 0
-0.61248136 0.74966723 -0.11192986 103 135 0
-0.68707573 0.68126321 -0.07612967 197 220 16
-0.68559450 0.67552537 -0.07549980 149 181 0
-0.61875433 0.75392592 -0.11716166 148 179 50
-0.62455511 0.76311666 -0.11904960 140 166 13
-0.61299324 0.74061114 -0.12266757 116 136 65
-0.62731862 0.75085986 -0.12393034 149 171 11
-0.60226065 0.74265468 -0.11607797 128 151 71
-0.63403887 0.76570404 -0.12862329 139 160 23
-0.66773057 0.68862373 -0.09221660 154 178 0
-0.66348606 0.71380049 -0.11341800 157 185 25
-0.64401972 0.77423686 -0.13746813 131 152 15
-0.64542031 0.77352667 -0.14034057 167 187 76
-0.64241880 0.82605124 -0.34017405 68 96 12
-0.62809086 0.82010388 -0.33645979 94 124 52
-0.62515575 0.82147330 -0.33633676 113 137 85
-0.63593137 0.82235700 -0.33885980 81 109 7
-0.61961693 0.82095319 -0.33479536 76 96 45
-0.63474226 0.83346564 -0.33605441 100 127 46
-0.63105661 0.82322145 -0.33213705 112 149 71
-0.62913531 0.82970613 -0.33347052 91 127 40
-0.63080394 0.82865483 -0.33847040 89 124 24
-0.63467532 0.82903486 -0.33429170 74 113 30
-0.63651568 0.83097720 -0.33966678 75 98 20
-0.62632245 0.82175213 -0.33312172 70 106 16
-0.63109326 0.82457042 -0.33182508 111 143 70
-0.65426332 0.82154697 -0.34182301 76 101 33
-0.68799466 0.58699125 -0.09868672 205 234 20
-0.67852139 0.76571000 -0.21084721 79 100 23
-0.69206363 0.63626593 -0.08085337 139 182 4
-0.69263804 0.64036447 -0.07892539 98 138 0
-0.69199616 0.58904213 -0.09764404 196 235 22
-0.68328172 0.75817668 -0.18179303 102 125 8
-0.69639599 0.60683864 -0.09903267 104 139 0
-0.69773895 0.60448498 -0.09629526 54 90 2
-0.69720393 0.62813419 -0.10646090 88 124 16
-0.69891381 0.63086832 -0.10786317 99 133 21
-0.70097357 0.69530976 -0.13812752 109 135 10
-0.68862987 0.60095936 -0.08730336 65 84 38
-0.69860423 0.62856722 -0.11218203 109 149 27
-0.70498240 0.70172948 -0.14007783 154 184 50
-0.72662395 0.55780602 -0.10358635 132 170 5
-0.72545052 0.55793315 -0.10281274 161 200 21
-0.69875491 0.70635247 -0.13530056 143 171 35
-0.69833708 0.70700157 -0.13544527 121 150 10
-0.70636219 0.63477230 -0.10260390 50 80 0
-0.72059673 0.56307220 -0.09917428 146 191 28
-0.69022864 0.65679348 -0.07474393 138 172 0
-0.69692749 0.62284285 -0.11196420 94 127 23
-0.71445382 0.70947278 -0.14235725 190 225 69
-0.71492928 0.71085733 -0.14252599 188 207 56
-0.71447253 0.66367364 -0.11086207 115 142 11
-0.68962210 0.62836373 -0.08175047 176 232 13
-0.67186797 0.71191895 -0.14169277 115 136 71
-0.69651765 0.68264323 -0.14388376 79 111 12
-0.70939845 0.72198749 -0.15600602 121 134 28
-0.70537567 0.71308649 -0.13850079 193 223 77
-0.70065343 0.71791381 -0.13983117 140 170 36
-0.71857786 0.63793010 -0.10289325 177 209 72
-0.71735966 0.63969475 -0.10132432 169 202 59
-0.70049810 0.72324848 -0.14722933 133 146 30
-0.68095493 0.65511394 -0.07741781 154 200 5
-0.66396016 0.78053671 -0.22264265 126 146 57
-0.68249065 0.69561416 -0.12970896 60 96 0
-0.68690968 0.68102109 -0.12828085 134 166 29
-0.68120700 0.76027000 -0.18951882 143 168 48
-0.68358648 0.76108116 -0.18319844 143 161 49
-0.71505409 0.63688016 -0.10064711 97 133 0
-0.67820281 0.70074660 -0.13784352 93 121 0
-0.68440211 0.77328694 -0.19641662 154 166 56
-0.68188399 0.77722460 -0.20018636 186 198 90
-0.67966878 0.70107663 -0.13720641 118 149 22
-0.67895520 0.69091851 -0.13308670 130 164 25
-0.67469889 0.67687124 -0.08525563 139 174 0
-0.69519323 0.61474127 -0.11094840 158 187 9
-0.69491714 0.61129224 -0.10536967 148 174 21
-0.71177113 0.63968134 -0.10175609 136 176 17
-0.71755028 0.64688689 -0.10961132 145 164 49
-0.72192311 0.62343019 -0.11375488 115 141 54
-0.72216606 0.62009621 -0.11694679 94 121 18
-0.71306646 0.64892548 -0.10555463 132 153 50
-0.70981514 0.63444102 -0.10139340 52 85 0
-0.72673094 0.65611106 -0.10597168 187 220 71
-0.68553478 0.61856449 -0.08277757 186 241 26
-0.69875097 0.61294430 -0.09887268 154 184 34
-0.68469596 0.75322473 -0.17327386 115 138 6
-0.68662095 0.68846065 -0.13067730 63 99 0
-0.68851018 0.68715197 -0.13152738 88 127 0
-0.70526397 0.55636907 -0.09551471 127 166 21
-0.70779586 0.56214267 -0.09600478 77 112 20
-0.68707418 0.69256806 -0.12910268 55 92 0
-0.69144505 0.69567943 -0.13077305 24 56 0
-0.69595629 0.61092663 -0.08407249 60 109 0
-0.69382018 0.62073702 -0.08269563 147 192 41
-0.69103760 0.68436038 -0.13606566 81 118 4
-0.72790241 0.56036901 -0.10563103 124 165 1
-0.72616935 0.56881207 -0.10372087 89 126 0
-0.72225279 0.53327447 -0.10955135 143 188 23
-0.71288663 0.62593472 -0.10068859 47 83 0
-0.70216966 0.64192677 -0.10549349 97 129 18
-0.70908558 0.65888256 -0.13010156 65 90 6
-0.69858527 0.62698394 -0.11718652 145 173 71
-0.68536383 0.68065262 -0.13178316 128 160 17
-0.69716763 0.66793621 -0.12953873 99 125 77
-0.69980115 0.66011125 -0.12459081 46 70 22
-0.69396567 0.67155284 -0.12979470 103 127 91
-0.70053720 0.65862983 -0.12264341 47 70 24
-0.69423509 0.66847390 -0.12235975 83 107 45
-0.72301495 0.64773482 -0.11386007 65 96 2
-0.70394331 0.66405660 -0.13225573 71 97 50
-0.70369530 0.65766603 -0.12584205 73 100 59
-0.69624287 0.65291142 -0.11262581 119 144 40
-0.69870824 0.65698844 -0.11757334 91 113 67
-0.71490520 0.55102575 -0.10143484 36 66 6
-0.69353044 0.62682062 -0.07539064 89 143 0
-0.69600362 0.62222636 -0.07657247 84 135 0
-0.70977187 0.65085322 -0.12629201 68 97 13
-0.70287544 0.64609057 -0.12503612 126 157 28
-0.72024506 0.65045905 -0.11143128 78 111 4
-0.72281659 0.64398915 -0.10496528 114 145 18
-0.72248048 0.63334268 -0.10652855 164 192 55
-0.71432084 0.62773687 -0.10125528 108 160 16
-0.71431679 0.63369626 -0.10021615 155 196 6
-0.69304216 0.71937394 -0.14827193 131 156 36
-0.71704358 0.65034676 -0.11505846 93 128 8
-0.69757068 0.59438568 -0.09450235 65 101 0
-0.70280373 0.60423696 -0.09467072 168 199 44
-0.72692776 0.64438796 -0.10831238 137 170 40
-0.72728449 0.54712677 -0.10583906 156 192 6
-0.72847492 0.55257660 -0.10561411 133 176 1
-0.70860136 0.58345246 -0.09804817 55 91 0
-0.68451160 0.63797605 -0.07909731 153 205 0
-0.67993218 0.64072728 -0.07768206 182 217 11
-0.68102348 0.66657305 -0.07684305 165 204 15
-0.69993687 0.62414014 -0.10109137 115 144 0
-0.71819335 0.54214108 -0.10448275 35 68 0
-0.73078263 0.58404624 -0.11172041 112 150 5
-0.71960580 0.66069102 -0.11279998 111 142 4
-0.69568479 0.58811808 -0.09716574 171 213 17
-0.69979644 0.57987422 -0.10158252 157 186 0
-0.68604589 0.72191811 -0.15102966 63 86 30
-0.72370785 0.53577197 -0.10860763 116 156 7
-0.70879155 0.64749694 -0.10433950 113 141 38
-0.72089225 0.64433378 -0.11204286 120 143 27
-0.70955664 0.70643306 -0.14753930 144 154 19
-0.72720951 0.65410507 -0.10364270 161 198 32
-0.67979109 0.76633286 -0.20652910 104 129 28
-0.71190822 0.65441316 -0.12670828 66 99 0
-0.71144199 0.56309104 -0.09838054 47 77 15
-0.72454453 0.57209307 -0.10067766 143 182 5
-0.72238833 0.57745320 -0.10020556 144 181 3
-0.67189884 0.70917511 -0.13922934 124 151 48
-0.70347738 0.55676585 -0.09524921 162 206 7
-0.70451748 0.64259946 -0.12254745 121 148 31
-0.69838911 0.67911863 -0.14511627 110 142 15
-0.69859421 0.67867160 -0.14485180 115 148 15
-0.71889907 0.61365271 -0.11619958 62 83 6
-0.71300048 0.61416453 -0.10551848 76 108 11
-0.72145194 0.61533731 -0.11952599 88 122 0
-0.71743017 0.61543798 -0.11241218 72 107 7
-0.70620263 0.60572088 -0.09622286 151 186 8
-0.70754743 0.61042768 -0.09752400 87 129 0
-0.71320510 0.65300143 -0.12421732 96 132 24
-0.72502804 0.59785092 -0.11137851 115 153 6
-0.67386585 0.64981872 -0.07638182 174 210 24
-0.70210832 0.61107922 -0.09556670 119 153 4
-0.70285738 0.61381847 -0.09701733 132 163 10
-0.70486236 0.62458348 -0.09833971 122 165 0
-0.71456802 0.57134116 -0.09870835 75 107 31
-0.71139145 0.70775253 -0.14809477 172 177 48
-0.72122997 0.58477670 -0.10936733 89 129 4
-0.71371448 0.72304404 -0.14750023 141 160 42
-0.67782754 0.77272528 -0.21729505 81 102 7
-0.67689955 0.77597165 -0.22027448 93 114 13
-0.68953949 0.63288724 -0.08138032 122 172 0
-0.68797207 0.64146459 -0.07929756 156 197 5
-0.67040193 0.67784375 -0.08692043 173 208 18
-0.67721379 0.74424690 -0.17989250 96 124 1
-0.68113726 0.74129140 -0.17368102 70 91 24
-0.66711080 0.67423749 -0.08551332 172 199 8
-0.68734223 0.59896666 -0.09721459 154 191 13
-0.68897015 0.73345691 -0.16071965 117 145 8
-0.70970845 0.66685170 -0.12435298 62 90 6
-0.70887893 0.64138043 -0.11877021 60 91 23
-0.70755631 0.72249371 -0.15580019 141 153 51
