-0.10016692 0.35385135 -0.08239793 41 70 4
-0.14868538 0.36964333 -0.10434680 44 68 10
-0.10976043 0.35872266 -0.07146579 105 135 73
-0.11276741 0.35356003 -0.07104200 97 129 64
-0.08127613 0.32946160 -0.07116962 120 161 43
-0.11249208 0.35580888 -0.08606291 60 97 0
-0.14578369 0.36216021 -0.09443272 22 57 1
-0.15282540 0.35987300 -0.09669578 102 137 7
-0.12461751 0.34920910 -0.07564123 170 195 49
-0.16350247 0.36938685 -0.10464969 179 193 82
-0.16546084 0.36966103 -0.10974883 77 92 11
-0.10846752 0.34585586 -0.08051215 111 152 32
-0.15774946 0.36820862 -0.09710215 127 165 56
-0.15867844 0.36849007 -0.09803246 152 189 83
-0.08771417 0.33458385 -0.07366855 83 128 11
-0.12098707 0.36204997 -0.08520182 98 127 37
-0.13094553 0.38046277 -0.08578972 81 110 0
-0.16515760 0.36879691 -0.11989814 80 101 10
-0.12333889 0.35606131 -0.07229727 94 130 42
-0.11936378 0.35511842 -0.07226492 104 143 62
-0.14101657 0.38027939 -0.09831831 52 81 0
-0.14276257 0.38228360 -0.10760248 41 72 0
-0.14953308 0.37152424 -0.10735093 43 71 13
-0.14087340 0.38226822 -0.10384291 50 81 0
-0.08587040 0.33399835 -0.07122433 109 148 59
-0.08562639 0.33261812 -0.07091754 100 143 54
-0.12013517 0.35756153 -0.08396541 147 180 39
-0.14464515 0.36733720 -0.09702900 93 120 15
-0.11693103 0.35882291 -0.08656782 86 122 0
-0.16095604 0.36436066 -0.10029777 86 109 19
-0.16011082 0.36288425 -0.09764366 108 126 40
-0.09728834 0.35383269 -0.08123253 33 59 0
-0.15924956 0.36355773 -0.09672695 185 208 100
-0.15952195 0.36604491 -0.09764216 154 184 84
-0.11762848 0.35326961 -0.08065113 77 107 19
-0.15662988 0.36900020 -0.11586215 44 77 0
-0.15641813 0.37304527 -0.12204307 49 77 2
-0.12288372 0.35159621 -0.07634060 114 154 29
-0.12044938 0.34863603 -0.07593320 101 133 10
-0.11636778 0.35428068 -0.08320093 95 129 8
-0.13139875 0.35457191 -0.07852603 106 140 19
-0.12669729 0.35638279 -0.07968056 63 100 22
-0.13138506 0.36050692 -0.08318175 121 143 43
-0.12881015 0.35929912 -0.08187760 99 129 39
-0.15913518 0.37059629 -0.12210538 46 73 0
-0.15891536 0.37045306 -0.12155134 47 76 0
-0.07327552 0.33854514 -0.07412620 132 162 98
-0.08073563 0.33857033 -0.07102800 114 149 65
-0.07944283 0.33743542 -0.07104166 137 173 83
-0.06843580 0.32814577 -0.07417107 128 158 84
-0.07531272 0.32753283 -0.07028881 136 164 79
-0.13853025 0.35801184 -0.07928599 93 128 28
-0.07864144 0.32801145 -0.07316235 130 180 31
-0.07803496 0.32809901 -0.07595064 78 129 2
-0.09753546 0.33956450 -0.07340212 99 128 61
-0.09584749 0.33850139 -0.07320963 97 127 55
-0.14967518 0.35946327 -0.08996931 102 129 58
-0.14816311 0.35959691 -0.08834393 95 124 57
-0.15324754 0.36434993 -0.10472006 30 67 0
-0.15493308 0.36382502 -0.10632963 78 116 13
-0.08814724 0.33655110 -0.07623869 56 90 29
-0.10433394 0.35423556 -0.08371197 56 92 4
-0.14966953 0.37336519 -0.11009311 44 66 2
-0.08778189 0.34524283 -0.08203658 76 115 8
-0.08407438 0.34048766 -0.08086672 86 124 3
-0.13225651 0.35063234 -0.07513058 56 83 14
-0.09163775 0.33697435 -0.07221366 107 134 53
-0.09119664 0.33679369 -0.07213727 106 133 52
-0.08927952 0.34585008 -0.08172762 83 121 22
-0.09076346 0.34361529 -0.07950849 61 93 0
-0.09769142 0.34420753 -0.07935649 111 150 7
-0.09984351 0.34485117 -0.07969158 105 144 3
-0.09671102 0.34812403 -0.08002492 95 130 10
-0.09799752 0.34491140 -0.07221285 81 110 43
-0.09999622 0.34755865 -0.07191193 94 126 63
-0.29996547 0.40797862 -0.08463127 55 89 13
-0.30280742 0.42193374 -0.02057469 92 125 38
-0.30137846 0.42164445 -0.03649631 72 122 1
-0.31036124 0.41822252 -0.07684162 102 132 68
-0.31226233 0.41756493 -0.07492152 94 123 59
-0.29944205 0.41708246 -0.01574122 106 146 11
-0.29575235 0.41987795 -0.01112202 39 81 0
-0.29165658 0.41034758 0.03248620 84 114 54
-0.29363641 0.41039342 0.02837036 79 111 46
-0.31117579 0.41437823 -0.04391599 96 147 10
-0.29932389 0.42089805 -0.00979871 110 140 42
-0.30065230 0.42170876 -0.01656215 76 106 42
-0.28297830 0.41901806 0.04214571 90 110 59
-0.29917005 0.42028096 -0.03682098 81 136 9
-0.27514398 0.43349829 0.04192224 101 118 47
-0.30139753 0.42398813 -0.03184143 155 190 64
-0.30233252 0.40784028 -0.09076294 67 100 55
-0.31410310 0.41313025 -0.04701676 70 112 10
-0.29533389 0.40202928 0.03501244 127 135 114
-0.29906905 0.39858201 0.02933055 89 109 97
-0.32559505 0.41366735 -0.05870107 144 162 26
-0.31492183 0.40720391 -0.09229456 46 72 9
-0.28341225 0.41940436 0.00924593 105 138 47
-0.28485700 0.41942742 0.00611869 106 140 56
-0.31365401 0.41382793 -0.08366666 60 86 25
-0.28847551 0.41153574 0.03729136 98 119 63
-0.29930446 0.39730260 -0.02393447 27 58 0
-0.29944870 0.39551353 -0.02453051 25 60 4
-0.29943916 0.39508599 -0.02887969 13 46 1
-0.27656335 0.42456234 0.02608652 58 85 18
-0.27747184 0.42402402 0.02584861 71 97 26
-0.31703234 0.40774003 -0.08853295 52 76 18
-0.30616799 0.42110926 -0.03892910 103 146 5
-0.32355905 0.40712595 -0.07781576 102 114 32
-0.32520780 0.40553579 -0.07624052 188 190 153
-0.30355126 0.40672609 0.00943156 71 101 41
-0.30348304 0.40710607 0.00754176 76 107 40
-0.31354350 0.41268969 -0.06991475 58 86 35
-0.31856936 0.41145653 -0.07699862 171 166 162
-0.28844091 0.41054565 0.04119514 164 162 147
-0.31975663 0.41149455 -0.05913188 62 93 0
-0.30028471 0.40818229 -0.07603943 59 93 17
-0.32501841 0.40136075 -0.08414926 158 167 100
-0.30469730 0.42344561 -0.02804824 85 116 38
-0.28718561 0.41867682 0.00989674 103 134 41
-0.30028588 0.40263620 0.02584235 115 149 75
-0.32555798 0.40345964 -0.07775851 180 180 156
-0.30764008 0.42199886 -0.03707322 99 128 44
-0.31085005 0.42240909 -0.03407828 59 88 42
-0.29886511 0.40231916 -0.02757404 64 101 0
-0.30382019 0.40086392 0.02399080 92 128 80
-0.28710908 0.41493532 0.04603393 69 82 54
-0.28832170 0.41341469 0.04709387 48 61 41
-0.29853708 0.41869542 -0.02853020 34 76 0
-0.30638170 0.41210493 -0.04489752 66 112 4
-0.29894429 0.40474012 -0.02736691 49 88 0
-0.31847286 0.39966926 -0.09187736 119 122 75
-0.31503230 0.39754075 -0.09143300 190 179 147
-0.31432176 0.39537165 -0.09535231 192 174 154
-0.32254294 0.40210617 -0.08153594 196 192 167
-0.31916633 0.42217010 -0.04440118 97 115 73
-0.32117307 0.40246785 -0.08068343 187 181 155
-0.31834528 0.40093416 -0.08669630 177 164 145
-0.31965351 0.40129441 -0.08684357 164 157 128
-0.31461525 0.41949368 -0.04538006 92 136 12
-0.29199028 0.40691963 0.03752878 130 135 113
-0.28236920 0.42120355 0.04754197 93 112 67
-0.27738771 0.42734429 0.04439011 63 86 34
-0.29834297 0.41260609 0.01357030 86 120 23
-0.29663336 0.41334248 0.01773428 81 111 25
-0.29753813 0.41686326 0.00889139 78 106 55
-0.29908285 0.41717881 -0.03858404 50 99 0
-0.30995128 0.41610888 -0.04235902 49 97 0
-0.30298135 0.41115996 -0.04391278 39 83 8
-0.30114096 0.41125536 -0.04069600 21 58 0
-0.32316220 0.41208148 -0.07049214 125 126 92
-0.28021419 0.42138663 0.02064508 41 66 9
-0.27934611 0.42159498 0.01987546 72 100 39
-0.28958133 0.41919890 0.01791457 98 123 39
-0.28497925 0.42037076 0.03434196 60 84 34
-0.28564519 0.41841623 0.03446005 76 97 56
-0.28265661 0.41592529 0.00265298 71 104 17
-0.31252459 0.40898272 -0.09262867 61 86 28
-0.30357924 0.41772866 -0.00954591 59 84 44
-0.30525142 0.41591033 -0.00940273 78 100 64
-0.30131799 0.41384745 0.00327101 66 85 55
-0.30033123 0.41583923 0.00307920 73 97 61
-0.29679254 0.41195920 -0.01209654 45 82 2
-0.32511228 0.41277391 -0.06395460 149 160 104
-0.31116331 0.41111094 -0.06920438 55 91 17
-0.30682361 0.39972377 0.01076826 57 94 42
-0.30898374 0.39671257 0.01239710 52 90 39
-0.32848787 0.41117433 -0.06620136 165 170 129
-0.30821601 0.40441027 -0.01475308 77 97 62
-0.30517325 0.39814231 -0.00560406 94 122 45
-0.30511391 0.39694229 -0.00601080 89 117 40
-0.27896091 0.42499548 0.04578201 75 99 23
-0.30727169 0.41087261 -0.01322233 85 102 86
-0.30599919 0.41052675 -0.00996364 80 98 76
-0.28340876 0.41920888 0.00479810 60 88 4
-0.30763254 0.41785437 -0.08143444 77 105 44
-0.30551928 0.40765381 -0.00453881 89 107 55
-0.30513573 0.41175660 -0.00644249 83 95 81
-0.30452105 0.41087019 -0.00288849 72 90 64
-0.30239958 0.41102496 0.00337165 83 113 25
-0.30775645 0.41510314 -0.01581912 94 111 79
-0.30764866 0.41565767 -0.01582484 93 108 89
-0.30744827 0.40798125 -0.01333839 93 111 61
-0.30634519 0.41286871 -0.09549254 95 126 33
-0.27803919 0.41847271 0.00786388 51 74 6
-0.30562133 0.40562814 -0.00284096 78 105 52
-0.30102068 0.41261756 -0.08899980 69 105 41
-0.31366336 0.41500279 -0.08145659 72 99 18
-0.27539068 0.41658956 0.00840663 83 113 15
-0.29069617 0.41777930 -0.00533710 27 62 0
-0.32134315 0.41208279 -0.06407662 66 91 25
-0.27750987 0.42506117 0.03071989 77 103 16
-0.27677903 0.42558008 0.03101523 105 134 26
-0.31696707 0.41483510 -0.07022454 112 142 78
-0.29718259 0.41897860 -0.01433327 80 120 6
-0.29861951 0.41899878 -0.01618640 40 78 1
-0.28349388 0.41856116 0.04325697 87 108 49
-0.28485978 0.41830617 0.04595416 88 94 80
-0.29117230 0.41952255 -0.00107738 73 103 33
-0.31056225 0.40631554 -0.09945117 81 101 52
-0.29546094 0.41791210 0.01023371 58 82 46
-0.29527426 0.41779104 0.00836822 61 89 38
-0.29900250 0.40996951 -0.03038978 64 101 6
-0.29894868 0.40776840 -0.02331290 62 102 0
-0.29898629 0.40235651 -0.02162546 84 122 0
-0.29886082 0.40475956 -0.02291052 85 124 15
-0.30790043 0.41564077 -0.04093809 77 126 0
-0.30263120 0.41674560 -0.04011380 34 77 0
-0.31620437 0.40991226 -0.05766144 98 135 19
-0.29947907 0.41677681 0.00355839 84 112 61
-0.30166590 0.41738763 -0.00560361 60 84 58
-0.29964781 0.41783807 -0.00024592 61 86 65
-0.30363789 0.41264606 -0.09765045 73 109 9
-0.29859722 0.41695887 -0.02538694 33 70 1
-0.31958666 0.41978329 -0.04722078 121 148 35
-0.31903452 0.41846022 -0.04779387 60 97 0
-0.30004442 0.40770578 -0.03397784 104 152 8
-0.27948642 0.41887122 0.00688953 71 95 9
-0.30191159 0.40918961 -0.08958755 55 87 40
-0.29206008 0.41748413 0.01924740 71 97 50
-0.29236028 0.41714254 0.01942677 74 98 46
-0.29124400 0.41843182 0.01871562 52 71 39
-0.29265386 0.40633354 0.03731726 122 124 110
-0.30745438 0.41603312 -0.07604683 57 88 20
-0.30865544 0.41197762 -0.07047065 62 95 14
-0.31425539 0.41364849 -0.07053045 86 118 45
-0.27494648 0.41986519 0.01176569 94 121 40
-0.27698645 0.42866468 0.04999570 56 79 11
-0.27820507 0.42127350 0.01092266 85 111 22
-0.30771279 0.41477633 -0.08734997 67 105 4
-0.30594656 0.41671515 -0.08106911 80 112 37
-0.30235180 0.42384213 -0.02888732 110 143 52
-0.31637856 0.41168746 -0.06816142 66 96 32
-0.29931569 0.39930579 -0.08784415 44 85 19
-0.28886768 0.41514605 0.03196531 64 87 41
-0.28804547 0.41697493 0.03161908 80 102 55
-0.28234994 0.42044082 0.01971459 95 126 48
-0.29848441 0.41066551 0.01816960 56 83 38
-0.29973665 0.41144589 0.01130985 101 139 30
-0.29984289 0.41127980 0.01146368 93 130 27
-0.27402413 0.42602915 0.02672712 124 146 45
-0.32607880 0.40805316 -0.07208791 103 109 35
-0.29761511 0.40731391 -0.07939047 119 161 33
-0.29740435 0.41271061 -0.01600283 82 120 9
-0.29857457 0.40451524 -0.03466228 35 77 0
-0.30144832 0.40264973 -0.08941356 89 130 51
-0.31162587 0.40780282 -0.06699240 58 95 17
-0.30003783 0.40979210 -0.08038343 66 100 26
-0.30446839 0.41006416 -0.07149089 69 102 33
-0.31456754 0.40902251 -0.05855419 42 73 0
-0.27304232 0.42890316 0.03678610 86 110 26
-0.30448544 0.41618481 -0.08842313 62 94 19
-0.29856163 0.40395355 -0.03308708 37 76 0
-0.31411433 0.42275012 -0.04109695 81 108 41
-0.32013720 0.41012520 -0.07773487 179 180 148
-0.30498901 0.41375223 -0.07529491 56 91 11
-0.27133060 0.42760444 0.02777204 64 91 14
-0.30369160 0.40580827 0.01098939 66 96 34
-0.30525526 0.40231973 0.00751479 67 98 39
-0.30899411 0.41697612 -0.01954515 103 115 91
-0.30944973 0.41634211 -0.02041478 108 116 101
-0.29876858 0.42040640 -0.02288207 82 125 17
-0.29729050 0.40047583 -0.08603028 65 105 16
-0.28710431 0.41870365 0.01104417 102 136 24
-0.30884057 0.39588201 0.01005976 66 107 49
-0.30732265 0.39695647 0.00697605 65 98 43
-0.30409139 0.41933930 -0.01380820 60 88 37
-0.31272942 0.41576049 -0.08152441 81 113 16
-0.31156981 0.41772360 -0.07792647 125 150 69
-0.31513405 0.42078039 -0.03634246 67 99 49
-0.32254073 0.41238418 -0.07045437 147 147 111
-0.29605842 0.40879548 0.02607264 64 94 32
-0.29745150 0.40624458 0.02639793 86 123 45
-0.31519547 0.39781198 -0.09818242 98 105 64
-0.31845608 0.39886734 -0.09394667 114 124 74
-0.27744758 0.42599878 0.03731643 51 71 20
-0.27974024 0.42441368 0.03543968 89 114 20
-0.30245191 0.41003561 -0.10586692 122 155 68
-0.29904124 0.41452473 -0.03488585 31 75 0
-0.31722766 0.40250078 -0.09502569 86 104 42
-0.28477749 0.41976830 0.01868837 89 118 38
-0.30542922 0.40303567 0.00120047 77 105 44
-0.30543098 0.40128443 0.00459988 74 103 39
-0.30751616 0.41851059 -0.01899357 83 108 50
-0.30979225 0.41922200 -0.02537191 78 107 61
-0.31112510 0.42232215 -0.03237301 101 135 59
-0.32755286 0.40749857 -0.07046203 136 140 89
-0.29876781 0.40941480 -0.02041675 91 130 13
-0.29887179 0.41069445 -0.02571610 49 88 0
-0.27302173 0.42247009 0.02083710 92 128 30
-0.32090774 0.41445795 -0.06723565 117 141 65
-0.27433220 0.42131799 0.01742997 69 101 4
-0.30200884 0.40941605 -0.10882005 84 116 41
-0.31339327 0.39696187 -0.10200758 152 164 114
-0.31272864 0.39607581 -0.10402635 174 184 124
-0.31870368 0.40338570 -0.09205251 77 95 45
-0.32083979 0.40184560 -0.09079890 134 138 105
-0.32449898 0.41447288 -0.05862059 164 195 5
-0.32225221 0.40487492 -0.08506069 86 101 16
-0.29872638 0.40765837 -0.08223582 79 120 18
-0.30762213 0.39819172 0.01857533 72 106 71
-0.32436663 0.40574721 -0.07778073 192 202 133
-0.32175884 0.41434476 -0.05684381 81 116 0
-0.32034922 0.41471970 -0.05474997 94 129 9
-0.32019037 0.41388378 -0.05577525 140 181 17
-0.30552125 0.40130171 0.02053352 61 97 59
-0.32125613 0.41554368 -0.03559605 140 143 132
-0.31365097 0.41671613 -0.02927341 109 115 105
-0.29090485 0.41744271 0.02218468 73 102 48
-0.28632644 0.42015097 0.03105775 52 74 35
-0.27169338 0.43126133 0.03906830 119 143 47
-0.31898606 0.40611616 -0.08430025 39 64 0
-0.27533504 0.43050960 0.03986887 86 106 21
-0.31167087 0.40536141 -0.09933515 83 104 47
-0.31826571 0.40996903 -0.06294867 62 93 0
-0.31475452 0.41383895 -0.08134744 110 130 79
-0.27273622 0.42822418 0.03212696 139 161 50
-0.29433975 0.40400022 -0.07939836 103 148 19
-0.31147057 0.41866457 -0.02739630 66 93 62
-0.31197718 0.41960487 -0.03008734 105 139 78
-0.30426562 0.40486512 0.01614292 49 85 13
-0.28126267 0.42127994 0.04250369 67 90 22
-0.29888999 0.42070466 -0.02780324 132 170 35
-0.29297948 0.41903228 0.00335149 68 97 31
-0.27570212 0.42231679 0.01798086 57 80 8
-0.30237553 0.41202900 -0.07691590 62 95 26
-0.29865736 0.42013550 -0.00513860 54 80 41
-0.29515076 0.41919270 0.00140888 75 101 56
-0.31815970 0.41720891 -0.03560301 139 135 126
-0.28846043 0.41220731 0.03570571 75 101 38
-0.28805527 0.41361725 0.03478125 80 110 48
-0.29839665 0.41527376 -0.02094957 89 128 3
-0.28159416 0.42322570 0.03555655 52 71 25
-0.27815518 0.42566413 0.03788579 64 85 20
-0.30106235 0.40938544 -0.03853974 40 76 0
-0.30058077 0.41065899 -0.03758177 67 108 30
-0.29034990 0.41873750 0.00596531 106 138 39
-0.29978627 0.40859836 0.01963639 58 89 30
-0.29831782 0.40984082 0.02103650 78 115 22
-0.29632741 0.41081101 0.02461277 68 97 39
-0.27738497 0.43210727 0.04632728 94 112 36
-0.28789005 0.41987705 0.02517083 78 105 28
-0.28298029 0.42132851 0.02473017 91 120 28
-0.30079803 0.40888941 -0.07593608 73 104 34
-0.30038679 0.42281526 -0.02177292 67 97 33
-0.31138566 0.41310427 -0.02256427 106 114 90
-0.29946139 0.42008874 -0.01793375 97 137 15
-0.32076463 0.41695017 -0.05198862 86 121 0
-0.31980515 0.41490230 -0.05388229 125 163 15
-0.29769844 0.42012429 -0.00554684 96 126 40
-0.30030558 0.41179377 -0.08191080 51 89 6
-0.31629160 0.41437384 -0.02985264 140 137 128
-0.30054754 0.41413167 -0.08735120 56 88 25
-0.30360934 0.41569817 -0.08550626 59 90 23
-0.31605288 0.41148284 -0.04989866 66 104 1
-0.31711838 0.41132784 -0.05450830 48 80 7
-0.30511299 0.42226613 -0.02450748 109 139 39
-0.30765924 0.42232054 -0.02777955 98 131 52
-0.31513670 0.40767956 -0.06612211 62 94 18
-0.29644886 0.40626788 -0.08109140 51 91 3
-0.30495024 0.40310052 0.01184559 62 97 29
-0.30311811 0.41488102 -0.08301074 80 118 31
-0.30564669 0.41657025 -0.08648611 86 121 27
-0.30628273 0.41519672 -0.08908451 84 119 15
-0.29643598 0.42007086 -0.01290991 35 72 0
-0.31295979 0.42082030 -0.03344244 62 93 52
-0.32177716 0.41516197 -0.03542064 130 133 122
-0.32592517 0.41335300 -0.05915125 144 159 42
-0.27366486 0.42806768 0.03415469 86 108 26
-0.30544451 0.41236636 -0.04452850 55 101 2
-0.30690405 0.41491005 -0.04147675 41 84 4
0.10516854 -0.13648464 0.01762720 76 112 4
0.10410219 -0.13691318 0.02214099 56 92 0
0.10125197 -0.13795471 0.03045865 114 146 13
0.11168040 -0.13643083 -0.00675159 170 170 178
0.10727740 -0.14057593 0.03641030 101 115 64
0.10731927 -0.13945144 0.03853953 131 151 92
0.10199036 -0.12297353 -0.01628125 63 122 0
0.11782841 -0.12665737 0.02689604 69 111 13
0.11699988 -0.12730543 0.02735278 52 95 6
0.11629409 -0.12540352 0.03321399 64 104 15
0.13896696 -0.10199938 0.08123745 63 105 0
0.13432442 -0.09965570 0.07617785 124 161 4
0.10779779 -0.05862130 0.09564435 34 80 0
0.13394699 -0.10893534 0.06996847 84 117 26
0.13641763 -0.10598866 0.07594070 121 160 15
0.11842586 -0.11510877 0.05999436 65 95 23
0.11535961 -0.11780082 0.05663479 77 109 26
0.11552152 -0.12580964 0.00939679 134 179 36
0.11568540 -0.12156653 0.01061015 122 163 25
0.11582469 -0.11918543 0.00963329 75 119 0
0.11864071 -0.12664294 -0.00155693 121 116 113
0.11740089 -0.12860268 -0.00640813 155 146 147
0.11781301 -0.12407484 -0.00283336 158 151 143
0.11842182 -0.12536690 -0.00159234 127 121 107
0.11095189 -0.13357529 0.02245520 69 108 1
0.10780091 -0.13504544 0.01855645 100 141 13
0.11331867 -0.13235891 0.02419348 69 106 13
0.10771694 -0.13534893 0.02125830 54 89 0
0.10541407 -0.13221018 0.00643617 74 116 16
0.10508885 -0.13282466 0.00778941 55 101 0
0.09573072 -0.12870353 -0.02420871 52 89 9
0.09669261 -0.12723352 0.04801740 106 146 14
0.09946375 -0.12335403 0.05373567 133 166 95
0.10823446 -0.12927987 -0.00224597 67 121 0
0.13356210 -0.11404780 0.04660015 106 133 36
0.13119166 -0.11402366 0.04647696 111 136 42
0.13278192 -0.11473151 0.04551940 120 148 38
0.13410304 -0.11344816 0.04753836 102 128 39
0.12865148 -0.11783103 0.04058001 126 152 17
0.13296191 -0.11367954 0.04711360 105 131 44
0.11434616 -0.13128556 0.02373648 65 101 14
0.11827824 -0.12684572 0.02241431 103 142 23
0.09561472 -0.12790011 -0.00868929 32 68 0
0.10922723 -0.12312255 -0.00521582 113 172 28
0.09462832 -0.12750837 0.00189294 71 105 8
0.09440646 -0.12714584 0.00423481 105 140 36
0.09843051 -0.13127397 0.00962385 61 103 3
0.09989029 -0.13111174 0.00818974 56 98 0
0.10038488 -0.13017657 0.00601314 63 112 0
0.12421610 -0.08077657 0.08676094 188 213 0
0.12589702 -0.08253147 0.08801389 180 210 0
0.12170208 -0.07894421 0.08353165 123 174 7
0.13810456 -0.10276608 0.08956191 103 126 0
0.12177761 -0.11835127 0.04912503 77 109 12
0.12865640 -0.11711720 0.04396728 101 123 14
0.12646461 -0.12129796 0.03685907 105 116 47
0.13002065 -0.11718111 0.04286273 97 118 17
0.12831621 -0.11755513 0.04330152 96 115 7
0.12900753 -0.11879674 0.04023413 125 145 22
0.12518775 -0.11907897 0.04237049 118 144 21
0.12521981 -0.10634281 0.07491530 111 149 1
0.12370472 -0.10246098 0.08044922 72 106 11
0.09637284 -0.12602636 -0.01311895 47 92 9
0.12891746 -0.10762173 0.07470048 102 147 4
0.11406826 -0.10380254 0.07628927 96 130 56
0.11446066 -0.10606377 0.07382160 82 113 45
0.11097770 -0.12891059 -0.00010961 110 167 34
0.09922037 -0.14012502 0.03444982 95 124 16
0.09945168 -0.14106014 0.03459843 199 225 124
0.09993079 -0.12857889 0.04389726 118 164 6
0.11973874 -0.10951163 0.06920032 70 106 8
0.11998367 -0.11010604 0.06836112 70 107 2
0.11256216 -0.12651104 -0.02701967 149 163 112
0.11347973 -0.12836860 -0.02244069 168 178 126
0.11163367 -0.12820563 -0.03039731 141 160 68
0.10600384 -0.09941630 0.07016312 54 88 11
0.10651398 -0.09908170 0.07138675 49 83 6
0.10486224 -0.10492010 0.06698298 53 87 10
0.10350659 -0.11103401 0.06281071 66 101 17
0.10192662 -0.11269199 0.05871781 59 92 11
0.10052500 -0.11956550 0.05628171 82 113 46
0.10383590 -0.10758667 0.06389633 82 122 10
0.10284699 -0.10966717 0.06093318 56 90 6
0.10408622 -0.10778177 0.06459424 63 99 12
0.10504296 -0.13689862 0.03215066 71 109 0
0.10259318 -0.13438201 0.03728662 89 132 14
0.10147413 -0.13520797 0.01398629 98 137 10
0.13715519 -0.10032006 0.09343854 142 173 17
0.12101222 -0.12415534 0.02352936 133 165 40
0.12169931 -0.12456759 0.02514063 127 164 35
0.10954500 -0.11804586 0.05981024 91 124 43
0.11721303 -0.10394827 0.07649755 100 130 60
0.12039544 -0.10176714 0.08007025 82 118 30
0.10228791 -0.13879716 0.02346559 64 104 18
0.10637652 -0.06021881 0.09293143 40 80 9
0.10605729 -0.12309082 -0.00889222 80 131 26
0.09997886 -0.14065531 0.02729260 62 102 13
0.11471581 -0.06041818 0.10169797 84 122 13
0.11376462 -0.06320412 0.09327358 36 81 0
0.10304255 -0.13895454 0.02153298 70 104 28
0.13324876 -0.10710318 0.07596436 126 155 13
0.10803291 -0.12617834 0.04237537 43 85 1
0.11127572 -0.13158326 0.03423323 79 122 14
0.11173669 -0.12736943 0.03749057 83 122 15
0.11477599 -0.12642181 0.03518790 32 68 0
0.12789647 -0.11222760 0.06285939 76 112 6
0.09988253 -0.13664803 0.01722186 81 119 32
0.11334275 -0.12851971 0.00460852 56 101 6
0.11405143 -0.12865525 0.00989441 96 145 20
0.11364024 -0.12891287 0.00999895 116 165 40
0.10994122 -0.13444068 0.03215666 61 102 0
0.11286321 -0.13270313 0.02565826 55 92 0
0.11313590 -0.13093419 0.02942196 50 91 0
0.11847403 -0.11300425 0.06438617 69 103 19
0.11792073 -0.10901795 0.06989577 73 107 23
0.10630704 -0.08332259 0.07620183 66 99 20
0.10930542 -0.08634622 0.06884000 59 94 0
0.10662498 -0.08541004 0.07411201 84 116 41
0.10895270 -0.08861592 0.06776065 60 90 4
0.12744989 -0.11077406 0.04976846 88 116 5
0.12694155 -0.10855510 0.05182491 72 103 0
0.12988672 -0.10617716 0.05461032 74 109 0
0.13278370 -0.11134443 0.05010695 90 113 25
0.09645727 -0.12710872 0.00279669 84 125 5
0.09700649 -0.12628561 0.00061859 78 124 0
0.09723666 -0.12396611 -0.00411920 106 154 45
0.10104603 -0.12842068 0.00254561 90 140 19
0.10080497 -0.12888461 0.00343348 70 120 0
0.10177638 -0.14255174 0.03036796 60 97 17
0.09657965 -0.13133883 -0.01745356 37 68 11
0.09690807 -0.13161889 -0.01776435 27 57 7
0.11654802 -0.11755756 0.00998978 148 180 47
0.11727325 -0.12229580 0.01372049 104 141 28
0.11728635 -0.11887763 0.01190669 120 157 41
0.12068680 -0.12257459 0.01973647 76 101 17
0.12270580 -0.10183217 0.06456447 110 152 6
0.12339063 -0.10475861 0.05730077 57 96 0
0.12377921 -0.10344882 0.06005816 56 96 0
0.10543112 -0.11390527 0.06371209 103 139 67
0.11278974 -0.11457288 0.06318042 89 123 36
0.10961743 -0.13325736 0.01664165 61 98 2
0.11223046 -0.13217089 0.02007774 62 99 6
0.11081205 -0.13341543 0.02084888 58 96 0
0.10898151 -0.12709567 -0.00395773 82 141 21
0.11010550 -0.12676595 -0.00328564 59 119 6
0.12457166 -0.10161889 0.06440320 102 141 16
0.12888281 -0.10216972 0.06345351 75 113 0
0.12902211 -0.10044290 0.07031199 122 166 9
0.13977855 -0.09956312 0.09484948 119 150 23
0.10235002 -0.12152544 0.05715113 106 137 70
0.10430127 -0.11161221 0.06505992 83 120 42
0.11576244 -0.11738665 0.04383998 57 95 10
0.11492860 -0.12024266 0.04083635 49 88 7
0.11908074 -0.11544307 0.04516510 120 160 35
0.11876855 -0.10368822 0.06074718 49 93 0
0.11812277 -0.10431669 0.05949897 67 113 4
0.13556194 -0.10590780 0.07359292 108 143 13
0.13713330 -0.10416407 0.07692939 154 183 15
0.13484569 -0.10242490 0.07482456 104 136 1
0.11469868 -0.12912215 -0.01658882 148 153 147
0.11498751 -0.12506741 -0.01584435 167 172 132
0.13056453 -0.10190441 0.08674575 90 120 0
0.12457984 -0.11513113 0.05729318 87 123 15
0.11963393 -0.09783939 0.07269218 79 123 0
0.14402865 -0.10010466 0.09170315 126 151 68
0.11956336 -0.13555138 0.01693908 93 76 68
0.12274007 -0.13092951 0.01892842 81 71 59
0.12507150 -0.09961993 0.07034813 153 198 20
0.12633502 -0.10038912 0.06940760 144 187 20
0.11857793 -0.07737666 0.08245504 136 191 38
0.11864947 -0.08595736 0.07873262 68 119 0
0.11862807 -0.08486187 0.07914187 67 120 0
0.10925736 -0.11347163 0.04984001 42 83 4
0.11137816 -0.11468244 0.04831185 50 88 15
0.11099640 -0.11875656 0.04605434 42 81 0
0.12128720 -0.08911838 0.07794674 104 147 5
0.13224989 -0.11111850 0.06573142 78 107 17
0.11421254 -0.11525454 0.06165570 72 101 17
0.11363732 -0.11809479 0.05713473 81 111 23
0.12534951 -0.09451145 0.07702055 164 196 11
0.11780579 -0.09702837 0.07272950 82 119 14
0.11624096 -0.09669407 0.07052623 92 128 22
0.12191351 -0.09606881 0.07540456 127 172 21
0.10852063 -0.11324222 0.06489495 99 135 65
0.12117179 -0.07930827 0.08187039 116 167 14
0.11886322 -0.07549715 0.08453268 135 187 24
0.12173459 -0.07316300 0.09412604 156 197 0
0.14084208 -0.08896113 0.09619831 164 193 100
0.14168726 -0.09328764 0.09352948 149 178 68
0.14314659 -0.09381185 0.09570152 164 193 103
0.11892503 -0.11904459 0.04848314 62 97 0
0.11634251 -0.11929148 0.05122291 79 107 22
0.11735506 -0.11775471 0.05408771 70 103 16
0.11519190 -0.07484972 0.08212157 130 171 41
0.09587859 -0.12896527 -0.01191988 44 79 15
0.12203303 -0.11307460 0.06190443 79 117 6
0.12300384 -0.10939326 0.06925759 71 107 1
0.10799196 -0.07807515 0.07919107 43 73 1
0.10922616 -0.07878654 0.07895567 56 85 19
0.11532237 -0.08295847 0.07831152 108 143 25
0.11957069 -0.08113524 0.08036964 73 126 0
0.13023266 -0.09737393 0.07494456 156 199 24
0.10931557 -0.08223669 0.07301935 75 106 13
0.10918840 -0.07986653 0.07777475 75 106 30
0.11248425 -0.08330026 0.07113961 94 138 14
0.09893559 -0.13199611 0.04912284 133 165 89
0.09908538 -0.13384609 -0.01720932 35 64 8
0.11388598 -0.08733206 0.07426145 66 110 0
0.11351774 -0.08164077 0.07550720 32 70 0
0.11333825 -0.08453619 0.07345838 79 115 7
0.12393022 -0.11315626 0.05984276 57 95 0
0.12278799 -0.11329150 0.06055325 58 94 0
0.11165454 -0.08836890 0.06452997 56 96 0
0.09871530 -0.13109030 0.04511018 87 131 0
0.10838824 -0.11264452 0.05075367 60 103 13
0.11237115 -0.11369834 0.04867205 46 85 0
0.12355496 -0.10168047 0.08177338 74 106 7
0.12157128 -0.11946179 0.01503822 126 140 81
0.12312965 -0.11865541 0.01323046 115 116 74
0.10841579 -0.13313158 0.01223972 66 107 1
0.10944244 -0.13141738 0.00784844 56 98 0
0.11123834 -0.13033338 0.00903722 66 111 8
0.11140415 -0.13039920 0.00991564 70 115 10
0.12032899 -0.10359039 0.07759164 78 112 26
0.11465128 -0.09296622 0.07207004 53 91 6
0.11479215 -0.09635898 0.06843604 39 79 0
0.11365153 -0.08996966 0.07109407 93 136 5
0.11382917 -0.09113924 0.07045859 88 132 11
0.12541020 -0.08558168 0.08351316 199 229 19
0.11237490 -0.09889927 0.06037735 100 142 16
0.11370338 -0.10013974 0.06276182 65 104 0
0.11599627 -0.06864391 0.08855106 75 116 0
0.11376134 -0.10379659 0.05857246 60 101 0
0.11580820 -0.10187444 0.06177225 110 159 18
0.10597860 -0.10235278 0.05787741 42 74 0
0.10531751 -0.10898790 0.05465438 96 136 11
0.10896188 -0.09726859 0.05998716 89 133 9
0.11108740 -0.09233553 0.06252361 52 92 0
0.10770423 -0.10619939 0.05518555 58 99 0
0.11114711 -0.09843381 0.05972966 53 94 2
0.10748758 -0.12646095 0.05138738 76 105 15
0.10613296 -0.12776859 0.05125696 95 125 37
0.10161211 -0.12766197 0.05226569 112 145 64
0.10064564 -0.12729815 0.05258901 97 126 72
0.13267931 -0.10555547 0.08006760 98 124 0
0.10786392 -0.13078637 0.04493566 107 135 33
0.12758774 -0.10896537 0.06992847 74 108 0
0.11811260 -0.13489518 0.00571396 109 102 94
0.11717079 -0.13634986 0.00332159 114 107 97
0.11835203 -0.13340759 0.00378014 113 106 98
0.11704122 -0.13679534 0.00355041 114 107 97
0.10630801 -0.13556920 0.04231612 95 116 37
0.10336721 -0.13410757 -0.01904479 46 78 28
0.10251418 -0.13405004 -0.02250219 47 80 27
0.10565691 -0.12913376 0.05010029 88 117 37
0.12448393 -0.11728423 0.05274819 98 126 13
0.11819705 -0.12178302 0.04311621 62 93 0
0.11334020 -0.12618616 0.04261836 87 115 31
0.12668683 -0.11673182 0.05234157 116 143 26
0.13015682 -0.11478548 0.04845874 118 145 32
0.12658009 -0.11679008 0.04932549 119 145 35
0.12647404 -0.11684938 0.04909480 119 145 35
0.11465098 -0.12241508 -0.00620046 183 180 149
0.11042112 -0.12611577 0.04648286 85 115 19
0.11063072 -0.12464599 0.04963524 71 99 14
0.10860285 -0.12287621 -0.01498755 54 98 9
0.10656548 -0.12327015 -0.01567062 66 119 5
0.11352342 -0.12319070 -0.01447711 179 185 139
0.11263300 -0.12403847 -0.02292437 161 178 126
0.11130530 -0.12621811 -0.02908753 152 176 78
0.10949352 -0.12228779 -0.02100614 91 124 55
0.11126746 -0.12274888 -0.01218468 64 88 30
0.11148164 -0.12284417 -0.01596695 40 61 4
0.11808343 -0.09812002 0.07055036 79 120 0
0.10576256 -0.12193616 -0.02388433 44 92 6
0.10367394 -0.12265786 -0.01904046 31 81 0
0.11013634 -0.12718236 0.04509719 93 117 39
0.12265783 -0.10688897 0.05467863 78 118 0
0.12051884 -0.10989444 0.05182121 79 118 9
0.12029478 -0.10848229 0.05366176 91 132 2
0.11541151 -0.13110763 -0.01342526 165 169 180
0.11901936 -0.13020124 0.00150211 129 124 120
0.11940589 -0.12868094 0.00090347 129 124 120
0.11550459 -0.13482367 -0.00726522 160 156 153
0.11750006 -0.13042365 -0.00502993 103 94 95
0.11977644 -0.12952538 0.00388447 129 126 121
0.10687722 -0.13454787 -0.02070738 62 93 34
0.10866829 -0.13468289 -0.00984552 68 97 51
0.10758985 -0.13456173 -0.01300161 52 85 32
0.10300686 -0.12156061 -0.02669726 82 129 17
0.10328604 -0.12154091 -0.02696036 60 105 0
0.09872567 -0.12197229 -0.02006768 31 72 2
0.09712204 -0.13062067 -0.02448100 71 106 24
0.14291303 -0.10088030 0.09175443 134 164 68
0.10747806 -0.13539681 -0.02998776 63 97 20
0.10331457 -0.10436918 0.06179751 69 97 20
0.10478576 -0.10063134 0.06329062 60 90 16
0.10467683 -0.10230185 0.06113983 43 74 0
0.10380419 -0.12319499 -0.00681106 41 92 0
0.09632455 -0.12682836 -0.01724585 21 59 8
0.09663058 -0.12604733 -0.01548883 29 71 0
0.09800979 -0.12256194 -0.02319551 48 90 16
0.09674606 -0.12518112 -0.02835960 51 93 19
0.12786390 -0.09018373 0.08152923 102 143 2
0.12785584 -0.09029847 0.08138776 104 146 0
0.12448290 -0.12176310 0.01494158 90 85 63
0.12379054 -0.12486538 0.01320354 97 102 62
0.11857280 -0.12117197 0.04341712 63 94 0
0.11615938 -0.12179447 0.04521933 63 93 7
0.10141083 -0.11196105 0.05603781 40 72 7
0.10342872 -0.11472929 0.05151905 60 99 6
0.10812187 -0.13609403 -0.03310749 97 134 28
0.14004764 -0.10355630 0.08546113 78 105 0
0.10472509 -0.14257894 0.03614359 102 126 68
0.13123152 -0.10405046 0.06176960 83 117 20
0.12929790 -0.10443377 0.05781831 147 192 41
0.13240635 -0.10484079 0.06173778 29 62 0
0.13064551 -0.10520908 0.05809379 88 120 23
0.13480049 -0.11051509 0.05201165 92 118 31
0.13485178 -0.11155611 0.05381969 85 111 22
0.13208811 -0.11148133 0.06473447 79 109 23
0.13271369 -0.11160027 0.06175508 87 121 27
0.13297743 -0.11046571 0.06640683 80 109 27
0.13500267 -0.10438846 0.08430232 96 116 0
0.09882917 -0.13575929 0.04578095 144 169 68
0.11582235 -0.12037535 0.00488313 115 154 25
0.11488105 -0.12021255 0.00298844 133 179 44
0.09879421 -0.13842610 0.03731451 73 107 12
0.10002884 -0.13646221 0.03485398 67 100 0
0.13436580 -0.10163150 0.08963193 112 138 11
0.09813958 -0.14087132 0.04093032 108 123 28
0.09999146 -0.14056443 0.04089022 104 126 26
0.11424506 -0.10947990 0.06980239 70 101 21
0.10950157 -0.13536499 -0.02440514 70 102 35
0.10954165 -0.13531460 -0.02411140 70 102 35
0.09930272 -0.14248112 0.03648085 142 163 88
0.10115533 -0.14206575 0.03815081 176 189 120
0.10656578 -0.12581339 0.05327867 103 136 31
0.10839297 -0.12287448 0.05496271 76 109 22
0.11490055 -0.12264454 0.03853248 55 94 13
0.11497562 -0.12118227 0.03983220 45 84 1
0.11378010 -0.12436493 0.03807689 37 77 4
0.10796879 -0.06645842 0.08442567 23 59 0
0.10743382 -0.06822549 0.08381550 38 73 5
0.11186540 -0.07004377 0.08101424 48 88 0
0.12618758 -0.11688838 0.05589145 82 111 5
0.12217760 -0.12210629 0.00982094 71 78 26
0.12075957 -0.12230070 0.00858551 99 101 61
0.13124350 -0.09929037 0.09104946 86 115 25
0.12993318 -0.09736197 0.09297837 110 138 35
0.09902404 -0.13686034 0.04497269 148 172 62
0.12479141 -0.12316588 0.02173985 69 55 42
0.12382250 -0.12282090 0.02177913 71 59 45
0.11652211 -0.10808159 0.05469542 85 127 1
0.11253075 -0.10799012 0.05371166 63 104 0
0.10377612 -0.12429900 0.05487556 88 119 51
0.11839240 -0.12157671 0.00578958 170 175 152
0.11786882 -0.12360753 -0.00226656 165 158 148
0.12000079 -0.12475548 0.00563332 129 127 114
0.11639632 -0.11954138 0.00093342 99 109 75
0.11022171 -0.13546747 -0.03204311 86 110 52
0.12420149 -0.12692460 0.01712040 73 63 51
0.12455750 -0.12582991 0.01704063 67 58 41
0.10561889 -0.10984403 0.06707143 93 130 50
0.10707270 -0.10482681 0.07151438 54 86 19
0.11220749 -0.10147262 0.07766037 100 132 69
0.10365859 -0.13269496 0.04743249 130 161 67
0.11669791 -0.11191044 0.05023096 68 107 1
0.12097412 -0.11243914 0.04838150 59 96 0
0.11855649 -0.11237583 0.04911936 75 120 1
0.13658065 -0.10480434 0.08053898 114 148 27
0.11740585 -0.09225131 0.07633829 51 92 0
0.10947327 -0.06539983 0.08452274 68 105 9
0.11288997 -0.06793103 0.08343495 50 87 0
0.10216587 -0.13411419 -0.01500733 45 78 21
0.10024558 -0.13424510 -0.01353538 41 73 10
0.12493332 -0.10894030 0.06918833 104 142 3
0.11329693 -0.13703856 -0.00463864 141 142 134
0.10081162 -0.13311189 -0.02794690 51 82 25
0.09957309 -0.12265161 -0.00962260 76 126 27
0.09879345 -0.12282237 -0.00848953 104 153 38
0.10829853 -0.12316856 -0.01097552 71 124 20
0.11259897 -0.11085649 0.06819241 103 137 53
0.10303439 -0.12997551 0.04205013 35 79 0
0.10152221 -0.12764354 0.04372514 88 131 23
0.12133458 -0.12493568 0.03028365 92 129 33
0.12478398 -0.12445720 0.03047246 47 50 23
0.10151050 -0.12497881 -0.00393693 74 128 6
0.10130285 -0.12478397 -0.00423123 49 102 0
0.12489437 -0.12640837 0.02005925 76 66 56
0.10916854 -0.13563927 -0.02768218 83 116 45
0.10856836 -0.13525721 -0.02481279 57 93 21
0.10736577 -0.14176574 0.02763795 105 119 104
0.10503347 -0.14100862 0.02157147 92 122 62
0.12014457 -0.07037152 0.09444370 74 125 0
0.11851083 -0.07246878 0.08899880 137 190 20
0.13414387 -0.10838123 0.06276426 69 101 18
0.13340241 -0.10476994 0.06413706 69 102 31
0.13410473 -0.10795974 0.06213779 66 100 16
0.13277471 -0.10269326 0.06826825 75 106 12
0.11581219 -0.12050831 -0.00112341 123 129 95
0.12278455 -0.11975390 0.03842811 92 120 10
0.12191135 -0.11775242 0.04143589 110 149 24
0.12324177 -0.11855634 0.03973188 59 89 0
0.11716682 -0.12423255 0.03553033 49 87 2
0.12914141 -0.10934236 0.06941463 101 138 0
0.12985571 -0.10989392 0.06726283 116 155 14
0.11233901 -0.13361928 -0.02507072 89 112 56
0.10497591 -0.11632193 0.04951335 71 114 9
0.10507546 -0.11475661 0.05043490 66 108 0
0.10453688 -0.11871113 0.04817166 69 112 4
0.09676477 -0.13247606 -0.00649015 64 97 28
0.10005499 -0.11972672 0.05157005 63 103 7
0.10018240 -0.11843676 0.05115468 50 90 2
0.12121648 -0.09365280 0.07660482 70 117 0
0.14010897 -0.09971993 0.08512808 106 141 0
0.14040817 -0.09982961 0.08559875 104 142 5
0.11801487 -0.06521267 0.09935648 69 116 0
0.11805440 -0.06717386 0.09525215 124 178 2
0.11610650 -0.06217758 0.10035907 120 159 42
0.11716810 -0.06427989 0.09891089 54 100 0
0.11252619 -0.13441671 -0.01221473 175 180 176
0.10699179 -0.12549435 -0.00417265 69 123 0
0.10216614 -0.13129120 0.04142101 94 143 2
0.10607447 -0.13033506 0.03989256 61 103 1
0.10646718 -0.13441502 0.03585758 81 122 18
0.11546247 -0.13514595 -0.00685961 138 133 129
0.12040880 -0.13323832 0.01337450 123 107 92
0.12039267 -0.13048255 0.00914006 65 74 45
0.12150185 -0.12962176 0.01144825 81 87 51
0.10687583 -0.09907433 0.05984289 41 74 0
0.10686225 -0.10004521 0.05850365 46 79 0
0.10776296 -0.09437414 0.06401169 44 75 0
0.11243165 -0.06347297 0.09106969 54 95 0
0.11369951 -0.06500910 0.08997990 97 136 29
0.11047177 -0.05765259 0.10091180 42 91 0
0.11080054 -0.05852220 0.09888772 27 70 0
0.11385366 -0.05881112 0.10444404 46 93 1
0.10131947 -0.13758108 0.02019292 89 130 34
0.10296313 -0.13705793 0.01714457 68 101 0
0.11349922 -0.13057880 -0.02182267 129 135 107
0.11333565 -0.13244444 -0.02431715 113 127 78
0.11359747 -0.13158017 -0.02214413 156 161 138
0.04815143 0.09166673 0.11458896 140 178 119
0.05022290 0.08473898 0.11573195 149 180 123
0.06201874 0.07202415 0.11606766 119 157 100
0.06141154 0.07241318 0.11677783 133 168 100
0.06387016 0.06720823 0.11347198 73 108 52
0.06347998 0.04620355 0.11270899 125 150 93
0.05102152 0.05394754 0.10993355 73 96 44
0.05163950 0.05501754 0.10793403 51 88 10
0.06447793 0.05575535 0.10738123 104 112 89
0.06324617 0.07640107 0.10830491 99 130 63
0.06229183 0.06995634 0.10606249 95 121 73
0.06218228 0.08169485 0.10419773 92 112 61
0.06568304 0.04271004 0.11258858 110 140 70
0.06292807 0.05829123 0.10667855 135 150 117
0.06439671 0.06061064 0.10784127 100 114 89
0.06344789 0.07067670 0.11425287 76 111 45
0.06424254 0.04887622 0.11196443 51 68 14
0.06127435 0.05158268 0.11399228 68 109 31
0.06415241 0.08647202 0.11563713 95 135 75
0.06329630 0.08693653 0.10890856 75 114 25
0.05885713 0.09622504 0.11998612 215 249 152
0.05634373 0.09350954 0.11984902 161 196 163
0.06160551 0.09091377 0.11957665 137 174 130
0.05371646 0.04830121 0.10497671 7 40 0
0.05532745 0.03930211 0.10556173 20 49 1
0.05485638 0.04595506 0.10485582 8 43 1
0.06958003 0.04941198 0.11173567 133 171 50
0.06192133 0.04192461 0.11416413 53 85 0
0.05370376 0.06571923 0.11740893 152 180 142
0.05811596 0.06971034 0.11742329 174 205 125
0.05792033 0.06296830 0.11718030 163 194 127
0.07892798 0.06230188 0.10652598 158 210 37
0.08074313 0.06480800 0.10625459 123 168 23
0.06325508 0.07168330 0.10898970 69 101 38
0.06380522 0.07445946 0.11028209 70 102 37
0.06256086 0.05797803 0.11329022 92 127 61
0.06267825 0.06658956 0.10579526 101 128 87
0.07302383 0.05657618 0.10645930 80 127 0
0.06460187 0.05779605 0.10891812 96 112 86
0.06210059 0.07770701 0.11631858 128 161 114
0.06295505 0.08440046 0.11702793 139 178 113
0.05313274 0.08024909 0.11752215 149 179 155
0.05439551 0.07835135 0.11841662 167 202 148
0.06564534 0.09019774 0.11146060 76 118 32
0.05712052 0.08577731 0.09928966 19 50 8
0.05882191 0.08907782 0.10053173 23 52 4
0.05692796 0.07811718 0.09987170 22 61 0
0.04900755 0.07307620 0.11021136 90 120 60
0.04790441 0.08075187 0.10902784 102 131 65
0.06084502 0.08155803 0.10225476 122 141 95
0.06664819 0.09209535 0.11244985 80 114 37
0.06017169 0.08014587 0.11826127 187 223 123
0.05758337 0.08338316 0.11884154 159 197 150
0.06154824 0.08805709 0.11923721 141 184 139
0.06398612 0.07492898 0.11366118 76 114 37
0.07660249 0.05505473 0.11195735 97 141 0
0.08081877 0.06319541 0.10896793 113 160 6
0.06403938 0.06682041 0.11142524 122 157 103
0.06429914 0.06568706 0.11244097 113 150 99
0.06444368 0.08248238 0.10961177 49 80 10
0.05240522 0.03684647 0.10882675 88 115 62
0.05170951 0.05013188 0.10952368 93 115 66
0.05296284 0.05218013 0.10527206 12 46 0
0.05209606 0.04866417 0.10845450 46 70 20
0.05994973 0.09648468 0.10389263 10 49 0
0.05885040 0.09644451 0.10170461 32 69 2
0.05978994 0.09288298 0.10210396 35 72 3
0.07527053 0.06019377 0.10425904 79 127 5
0.07359904 0.04964622 0.11029698 137 189 26
0.05985374 0.04459238 0.10521020 36 60 10
0.05900434 0.03777653 0.10526411 37 65 7
0.05098799 0.07372288 0.11496408 144 174 112
0.05112207 0.07843184 0.11589701 139 175 101
0.05710099 0.07248249 0.11770689 154 182 144
0.05413621 0.06675333 0.11743601 163 188 146
0.05617218 0.08019742 0.11863436 169 205 144
0.05627675 0.07699239 0.11828122 170 206 142
0.05792846 0.04081897 0.10476164 46 75 8
0.05712658 0.04105346 0.10471550 33 62 0
0.05828614 0.04143780 0.10477237 45 74 10
0.04966478 0.07480861 0.11317267 135 163 115
0.04997898 0.07998595 0.11460814 154 189 133
0.07010929 0.05450662 0.10689128 114 134 75
0.04939757 0.06972498 0.11013462 78 109 49
0.06402000 0.08020022 0.11106105 71 106 24
0.07087356 0.04830079 0.11220065 124 162 63
0.06430864 0.08461533 0.11307393 80 125 24
0.05065970 0.05894198 0.11188454 144 170 123
0.05139185 0.06769281 0.11463322 158 186 127
0.05138753 0.05377895 0.11206280 176 197 154
0.05050560 0.06530100 0.10637891 33 66 11
0.05060510 0.06680315 0.10568146 49 85 13
0.04953527 0.06753515 0.11085070 76 104 63
0.05073855 0.05523113 0.11089562 160 182 136
0.08092020 0.05972058 0.11199307 105 150 0
0.07429958 0.05492139 0.11142427 63 107 12
0.07558474 0.05560770 0.11173369 99 142 37
0.05432737 0.09872320 0.11926403 180 218 131
0.05257605 0.09282116 0.11813488 142 175 144
0.05409931 0.09601247 0.11904262 179 218 127
0.06695423 0.04944642 0.11137037 222 245 155
0.07677691 0.04195428 0.10918844 89 132 14
0.06389927 0.07743608 0.11223832 78 117 36
0.05793869 0.06701735 0.10197717 11 43 2
0.05868017 0.05539152 0.10452574 44 71 2
0.05750722 0.05833552 0.10382182 36 68 3
0.07281256 0.04745077 0.11061508 73 118 0
0.06052732 0.05611668 0.10457096 42 65 21
0.05961028 0.06319184 0.10317253 24 52 3
0.06039158 0.07778648 0.10216981 111 127 82
0.06115444 0.07410534 0.10297560 128 152 104
0.05181240 0.03576177 0.11056591 165 186 147
0.05246288 0.03371298 0.10893540 94 118 66
0.06456227 0.09241009 0.11771307 117 156 101
0.05095170 0.07590093 0.10414685 25 56 0
0.05591433 0.07477497 0.10059839 22 61 0
0.05042658 0.07446141 0.10465518 46 80 6
0.05488755 0.06549884 0.10214300 30 66 2
0.05401336 0.07559958 0.10192413 42 83 0
0.05251248 0.08707494 0.11753616 167 204 161
0.05254783 0.08862625 0.11773279 171 207 169
0.07272515 0.05662291 0.10673827 111 157 22
0.06506759 0.04387431 0.10858619 95 123 38
0.06977861 0.04909347 0.10985077 99 138 0
0.06580073 0.05016310 0.10807898 89 91 77
0.06846286 0.05383460 0.10714164 118 125 84
0.06423391 0.04870162 0.10745692 92 107 64
0.07050928 0.05290048 0.10867362 78 103 20
0.01073574 0.27372146 -0.03686555 79 108 41
0.01229138 0.27327737 -0.03551396 36 62 14
-0.07332727 0.32031885 0.07215228 126 162 52
-0.07356825 0.31870544 0.07288136 160 190 90
-0.04730526 0.33794829 0.05454252 79 111 4
-0.06815409 0.32351011 0.06583414 48 84 0
-0.06954635 0.32646134 0.06662748 126 162 12
-0.03282240 0.28758574 0.02800348 105 137 14
-0.02628938 0.32514158 0.02213514 89 125 0
-0.02734006 0.32730302 0.02503127 173 208 44
-0.10190128 0.34019917 0.08526564 104 139 37
-0.10313781 0.34141135 0.08473828 92 128 22
-0.13037641 0.34210101 0.10106719 68 110 0
-0.08396743 0.32859758 0.07954957 127 171 16
-0.08309485 0.32914925 0.07974996 119 163 8
0.00686507 0.28285497 -0.03268949 48 80 17
0.00674527 0.27758110 -0.03683634 40 68 9
-0.07498383 0.32485518 0.07428736 83 123 11
0.00676201 0.28445593 -0.03355074 26 59 4
0.00629724 0.28494698 -0.03685875 58 89 22
0.00683927 0.28171825 -0.03429210 64 98 24
-0.08000785 0.32628149 0.08958996 115 155 69
-0.08342342 0.32718557 0.08850670 113 154 58
0.00387792 0.28160658 -0.02128278 36 64 6
0.00550132 0.28029123 -0.02510593 36 67 7
-0.09802906 0.34952396 0.10020917 82 109 32
-0.09653477 0.33778968 0.08878080 107 136 46
0.00629298 0.29093522 -0.03455633 72 97 0
0.00701448 0.29392788 -0.02780881 54 75 6
0.01531604 0.27242270 -0.02842532 149 157 134
-0.03521948 0.30709404 0.04986134 119 154 88
-0.03438591 0.30590123 0.04843274 98 131 74
-0.05141294 0.32094902 0.07151249 78 116 43
-0.05495896 0.32611835 0.07598906 119 158 79
-0.05481393 0.32546547 0.07552907 107 149 67
-0.03756074 0.30776581 0.04733649 71 102 32
-0.04235175 0.31076896 0.04593977 67 94 27
-0.04212883 0.31140688 0.04794201 69 99 45
0.00615034 0.28441259 -0.02611731 11 40 0
-0.07503910 0.32258791 0.07326616 130 165 45
-0.03977320 0.30963248 0.04871761 72 104 31
0.00380880 0.30586335 -0.01607295 86 108 26
-0.04354766 0.30297396 0.03375851 161 185 101
-0.04428027 0.30406213 0.03378097 160 182 84
-0.04512817 0.30916330 0.03939662 120 146 81
-0.04497718 0.30830207 0.03846521 97 126 62
-0.03488748 0.30337894 0.04127727 92 123 56
-0.03358224 0.30437127 0.04474511 53 84 27
-0.02998094 0.29804844 0.03728628 87 115 38
-0.04291717 0.29861489 0.02771154 136 160 40
-0.04152789 0.29720837 0.02917415 139 163 69
-0.04281993 0.29843044 0.02759270 123 146 30
-0.04300520 0.31253329 0.05300489 51 82 23
-0.04443654 0.31447193 0.05975115 76 111 47
-0.04300494 0.31299347 0.05696135 94 131 54
0.00663480 0.28678620 -0.04077970 80 105 40
-0.07011591 0.33632123 0.08915721 111 151 62
-0.06523360 0.33057401 0.08580514 120 157 88
-0.06488981 0.32616487 0.08340066 116 154 41
-0.07407087 0.33987007 0.09096379 135 173 96
-0.07917287 0.34167033 0.09341855 141 181 93
-0.08521097 0.32826990 0.08837167 114 152 65
-0.08489262 0.33318126 0.09061430 117 154 58
-0.07868624 0.31668743 0.08838865 120 153 62
-0.08096708 0.31834814 0.08709803 174 208 85
-0.09031220 0.32622278 0.08689173 100 135 43
-0.08078209 0.31775734 0.08403440 108 145 6
-0.08380855 0.32210335 0.08262651 61 96 0
-0.12658039 0.34003803 0.10455014 174 211 98
-0.07414727 0.31587979 0.07430203 99 125 52
-0.08164106 0.33434322 0.07731692 52 82 8
-0.08098456 0.33260086 0.07737178 50 86 0
-0.07474777 0.31604606 0.07505738 67 94 15
-0.07765878 0.31683046 0.07887819 141 168 53
-0.07985209 0.33619460 0.09237051 172 206 96
-0.08084159 0.33654377 0.09261914 170 205 89
0.01532574 0.27140421 -0.03188310 68 85 30
-0.01839607 0.29516110 0.03377551 130 161 93
-0.01696143 0.29302436 0.03100982 114 144 74
-0.02159826 0.28258890 0.02867670 91 114 32
-0.02446051 0.28412539 0.02969087 83 111 34
-0.07416309 0.31717286 0.07846268 110 138 64
-0.13982400 0.35803843 0.09525166 101 140 49
-0.01142214 0.28901786 -0.00844031 87 116 10
-0.01057476 0.28857595 -0.00788726 96 128 3
-0.01949232 0.28385937 0.02670187 87 109 34
-0.01873793 0.28580973 0.02598302 63 84 7
0.01699494 0.26938754 -0.02814516 69 83 24
0.01669982 0.26637083 -0.02695078 79 96 26
-0.07887946 0.33354768 0.07481840 64 90 17
-0.07474515 0.33147851 0.07201087 96 124 37
-0.09125866 0.33074033 0.08432292 164 195 68
-0.09238426 0.33078673 0.08569946 139 167 56
-0.09530678 0.34006548 0.09153397 77 107 37
-0.09737471 0.34158999 0.09147924 74 101 32
-0.09608750 0.33954114 0.09050631 107 137 37
-0.02386626 0.28186104 0.02615577 69 91 19
-0.07594409 0.32863814 0.07374099 52 81 0
-0.07578948 0.32705817 0.07446589 51 95 0
-0.02967471 0.28512853 0.02840755 145 175 27
-0.05926804 0.31764761 0.06436560 64 90 42
-0.05785904 0.31784740 0.06329453 72 99 48
0.01650362 0.27092084 -0.02645910 164 176 138
-0.02149834 0.28925863 0.03222347 134 161 64
-0.04320746 0.29961085 0.02512312 147 177 31
-0.04378887 0.30289325 0.02660680 115 146 16
-0.07873962 0.31997889 0.09129746 157 199 99
-0.04318705 0.30719447 0.02707393 135 171 23
-0.04349261 0.30806917 0.02799094 88 124 0
-0.08507351 0.33894286 0.09402118 147 181 84
-0.08835788 0.34349313 0.09589107 128 161 54
0.00072180 0.30045560 -0.02191585 57 81 0
-0.03873875 0.30172905 0.03670605 153 189 81
-0.03805803 0.30338472 0.03808281 126 155 75
-0.03712046 0.30191261 0.03732903 111 142 48
-0.03604604 0.30084109 0.03689985 118 145 50
-0.03002116 0.29474834 0.03263687 132 157 73
-0.03986865 0.32888114 0.03830352 47 71 0
-0.03749706 0.33085746 0.03902676 82 106 28
-0.03249279 0.29558039 0.03298261 67 92 9
-0.03481613 0.29613435 0.03339472 139 170 77
-0.03568354 0.30206272 0.03798259 186 216 118
-0.03646937 0.30403650 0.04038106 136 169 80
-0.02956737 0.29080939 0.03103550 133 157 73
-0.03473157 0.29062080 0.03070041 107 143 35
0.01362550 0.27442995 -0.05537441 46 67 8
0.01396326 0.27224106 -0.05527410 65 91 28
-0.07095228 0.31648526 0.07360418 115 143 66
-0.06935682 0.31688422 0.07343597 134 163 81
-0.10500355 0.34135747 0.08971111 85 113 52
-0.02592866 0.28642339 0.03094164 157 185 98
-0.02622490 0.28668517 0.03093512 164 189 105
-0.09221537 0.35139444 0.09865056 132 172 84
-0.09736837 0.35265604 0.10159240 152 184 101
-0.09680387 0.35114801 0.10080203 133 160 89
-0.01779628 0.28516603 0.02040468 104 125 46
-0.02349606 0.28112838 0.02299155 34 54 0
-0.05994103 0.31797197 0.06671706 72 95 39
-0.05966305 0.31817311 0.06840342 92 117 49
-0.05337926 0.31771514 0.06450865 63 91 40
-0.05512104 0.31848651 0.06861360 97 121 61
-0.05329565 0.31717893 0.05735173 46 74 13
-0.05003163 0.31669974 0.05752387 150 181 103
-0.04742045 0.31538069 0.05344857 88 116 55
0.00948166 0.27606124 -0.03029270 40 69 15
0.00631824 0.27788040 -0.02678518 61 91 29
0.00937682 0.27582821 -0.03211220 67 99 34
