-0.16828130 -0.08612078 -0.17808202 79 101 39
-0.16725180 -0.08586189 -0.18026641 97 127 41
-0.16293985 -0.08886878 -0.18362191 63 88 20
-0.16394024 -0.08938375 -0.18122733 75 102 21
-0.16234234 -0.08947286 -0.18329310 69 96 17
-0.15575448 -0.08909709 -0.18782148 87 115 38
-0.15183027 -0.08845743 -0.18827528 101 134 47
-0.15339230 -0.08789825 -0.18918253 101 133 48
-0.15431234 -0.09083603 -0.18534936 93 126 39
-0.16823232 -0.09088220 -0.16957797 87 113 42
-0.16981319 -0.09312182 -0.16533141 77 123 48
-0.15139206 -0.09366254 -0.18117535 90 120 34
-0.15770757 -0.09339809 -0.17819402 76 97 28
-0.15905079 -0.09198700 -0.18172407 84 110 39
-0.15222389 -0.09367926 -0.18062422 89 115 41
-0.16350225 -0.09770377 -0.14668313 108 149 19
-0.16412066 -0.09904985 -0.14616038 119 160 19
-0.16567972 -0.07264242 -0.21223488 124 132 72
-0.16516340 -0.07139307 -0.21606302 58 80 18
-0.16369548 -0.07121960 -0.21105947 31 63 0
-0.16747127 -0.10646447 -0.15284973 49 85 0
-0.16539054 -0.10562394 -0.15321524 52 89 0
-0.16707395 -0.11391731 -0.13805822 82 113 10
-0.16707450 -0.11398810 -0.13796040 82 113 10
-0.15966554 -0.08800185 -0.18737373 98 126 26
-0.16183905 -0.08551209 -0.18740618 78 110 27
-0.16375899 -0.08660378 -0.18479398 93 121 34
-0.16055803 -0.07365373 -0.20257805 45 80 0
-0.15540937 -0.07195568 -0.22307950 71 89 39
-0.15664996 -0.07428971 -0.22125131 73 93 42
-0.15338251 -0.08653228 -0.19070818 84 117 30
-0.15871260 -0.08325472 -0.19160151 64 92 17
-0.15544876 -0.08464172 -0.19151717 81 111 15
-0.15706545 -0.09366205 -0.17720154 76 98 33
-0.15329269 -0.09403466 -0.17801446 111 136 45
-0.15677188 -0.09386244 -0.17629538 80 101 32
-0.15677762 -0.09359527 -0.17780207 80 102 37
-0.16366865 -0.10903779 -0.14282252 76 109 2
-0.16015090 -0.10532442 -0.14209746 77 109 26
-0.16002965 -0.10498898 -0.14286718 73 103 31
-0.16174874 -0.07360084 -0.20341630 65 101 1
-0.17121990 -0.09906904 -0.15712923 105 141 54
-0.17126258 -0.10019930 -0.15585095 84 119 37
-0.16145340 -0.07880888 -0.19503827 56 88 3
-0.16341154 -0.07803394 -0.19336711 65 97 12
-0.16108516 -0.08005377 -0.19328558 65 93 16
-0.16930006 -0.11843764 -0.13664314 47 79 0
-0.16562550 -0.07668579 -0.20296401 9 40 6
-0.16508922 -0.08433817 -0.18527381 96 125 35
-0.16429824 -0.08127651 -0.18836319 97 123 36
-0.16019897 -0.08211403 -0.19160207 77 110 23
-0.16204147 -0.08438502 -0.18812215 86 119 32
-0.16757904 -0.10326621 -0.15851729 28 69 0
-0.16667490 -0.10317368 -0.15869598 35 73 0
-0.16862835 -0.08920726 -0.17204529 85 107 45
-0.16768599 -0.08893832 -0.17467991 90 119 39
-0.16788118 -0.11643919 -0.10138202 160 181 40
-0.16764763 -0.11528232 -0.09998615 107 136 18
-0.16634151 -0.11453408 -0.09965500 87 121 1
-0.16396172 -0.11116300 -0.13619667 89 116 0
-0.16417517 -0.11027217 -0.13780239 94 123 0
-0.15883151 -0.07863367 -0.19596574 55 83 8
-0.16334918 -0.08539032 -0.19546886 16 58 0
-0.16067716 -0.08586429 -0.19747999 48 83 0
-0.16082409 -0.08629963 -0.19554518 57 91 0
-0.16367309 -0.08574539 -0.19359408 27 68 0
-0.15936211 -0.08770899 -0.19209866 26 61 5
-0.16619444 -0.08377251 -0.18605667 30 74 0
-0.16665661 -0.08122309 -0.18627422 74 106 5
-0.16135809 -0.09492971 -0.15139036 46 96 0
-0.16514270 -0.09261061 -0.17153570 63 93 19
-0.16806979 -0.09076735 -0.17015038 89 115 44
-0.15987380 -0.09436092 -0.17104582 75 107 22
-0.16319381 -0.09423907 -0.16847037 62 100 15
-0.16338402 -0.09364462 -0.17191182 77 109 26
-0.16652188 -0.10783119 -0.14211415 109 140 20
-0.16518646 -0.10840537 -0.14024723 106 139 8
-0.16503800 -0.08747304 -0.18637310 81 120 14
-0.16318606 -0.08923987 -0.18476558 23 62 0
-0.16472113 -0.08773252 -0.18617103 81 120 13
-0.16445811 -0.08888125 -0.18441316 55 95 0
-0.14768285 -0.08423575 -0.19122051 101 129 54
-0.14748147 -0.08040730 -0.19316633 94 121 42
-0.17163689 -0.10391331 -0.15201841 88 122 36
-0.17124234 -0.10365648 -0.15177040 77 111 25
-0.15550536 -0.05175303 -0.25047266 91 117 52
-0.15679449 -0.06245393 -0.22966735 70 92 30
-0.15688503 -0.06278370 -0.22671379 71 98 29
-0.15769354 -0.06074248 -0.23276708 66 95 29
-0.15792677 -0.06056590 -0.23183209 77 106 52
-0.17512269 -0.10166908 -0.15816112 51 94 4
-0.16656674 -0.07775608 -0.19002843 73 99 26
-0.16607539 -0.07928603 -0.19544818 31 68 0
-0.16553363 -0.08390508 -0.18988436 55 91 3
-0.16579841 -0.08110604 -0.19473474 64 105 13
-0.16620493 -0.07920432 -0.19275355 64 100 10
-0.15580590 -0.05885482 -0.24026565 37 68 0
-0.15542307 -0.05790173 -0.24210630 48 80 5
-0.15542907 -0.06876303 -0.22927251 100 126 55
-0.15568104 -0.06931198 -0.23044945 97 123 52
-0.16736923 -0.08370202 -0.18242942 68 109 7
-0.14732476 -0.08688328 -0.19068533 100 135 53
-0.16139238 -0.11338982 -0.11133832 122 154 27
-0.16234170 -0.11573721 -0.11413990 110 143 12
-0.16446549 -0.07912511 -0.20883806 16 51 0
-0.16408186 -0.07895260 -0.21196435 21 56 0
-0.16372177 -0.08058909 -0.20776638 28 63 5
-0.16711989 -0.09901976 -0.15185143 101 144 11
-0.16576971 -0.09774890 -0.15385556 48 94 0
-0.16778892 -0.09967764 -0.15066455 103 144 12
-0.14878342 -0.07703415 -0.19764152 67 95 18
-0.15005440 -0.07601101 -0.19872554 60 84 6
-0.16608931 -0.07492680 -0.20881552 75 85 16
-0.16607857 -0.07549152 -0.20787628 38 51 5
-0.16565134 -0.07708537 -0.20381577 0 30 0
-0.16410582 -0.07018235 -0.22024234 54 77 7
-0.16345806 -0.06961880 -0.22006646 57 80 10
-0.15207051 -0.05305689 -0.25805736 95 122 51
-0.15282933 -0.05021450 -0.25812495 99 129 55
-0.15293674 -0.05162963 -0.25731212 119 147 73
-0.16868038 -0.08806178 -0.17403959 83 103 44
-0.14821765 -0.07834284 -0.19858019 48 75 6
-0.15499687 -0.05647764 -0.24657944 110 133 61
-0.15543053 -0.05488565 -0.24628314 97 127 55
-0.17049272 -0.09392919 -0.16857670 55 105 8
-0.15938151 -0.06626905 -0.22753942 39 72 3
-0.15863632 -0.06536013 -0.22981703 50 93 1
-0.16093713 -0.06689588 -0.21927139 51 77 4
-0.16163984 -0.06817162 -0.21828140 39 62 0
-0.16045158 -0.06753787 -0.22416851 30 62 0
-0.16252883 -0.11188756 -0.13109595 130 159 17
-0.16181047 -0.11079872 -0.13079710 121 153 10
-0.15434784 -0.07808182 -0.19656493 80 110 22
-0.15385051 -0.07801413 -0.19675139 77 107 19
-0.15330398 -0.08251494 -0.19365615 86 118 17
-0.15409058 -0.07992399 -0.19530733 60 90 4
-0.15593617 -0.09241912 -0.18563333 64 106 6
-0.15751021 -0.09008317 -0.18869813 39 81 0
-0.15528117 -0.09402379 -0.18314065 55 101 3
-0.15839495 -0.09345744 -0.18140140 30 72 0
-0.15582740 -0.05644015 -0.24432959 110 138 61
-0.15498996 -0.06043027 -0.24261735 97 122 54
-0.16642870 -0.07762494 -0.19249547 82 110 35
-0.16421042 -0.09619917 -0.15669820 115 154 25
-0.16544802 -0.09763908 -0.15290268 69 112 4
-0.16456787 -0.09716569 -0.15149066 111 150 23
-0.15423590 -0.06884310 -0.22375713 85 105 52
-0.15340006 -0.06981170 -0.21988514 83 105 59
-0.15412527 -0.06994809 -0.22205719 81 103 54
-0.16144258 -0.11338805 -0.11593471 123 156 17
-0.16174321 -0.11367694 -0.11898404 87 118 0
-0.15668771 -0.09429132 -0.16608997 46 104 1
-0.15585554 -0.09415784 -0.16644886 72 131 3
-0.16570903 -0.07613080 -0.21785738 14 44 0
-0.16599391 -0.07591726 -0.21915399 15 43 0
-0.16090699 -0.06809399 -0.23096254 38 70 0
-0.16441518 -0.07032343 -0.22948354 53 87 1
-0.16821532 -0.11159881 -0.14316872 48 88 0
-0.15280084 -0.04775405 -0.26127553 100 128 54
-0.15382761 -0.05022588 -0.25729430 97 124 53
-0.15558104 -0.04450453 -0.26906213 76 113 17
-0.15693136 -0.04584561 -0.26041719 103 125 53
-0.15454516 -0.06516423 -0.23031028 91 115 53
-0.15459347 -0.06476045 -0.23151220 95 120 55
-0.15482995 -0.06224671 -0.23842047 91 117 46
-0.16695422 -0.09489851 -0.16359004 86 131 40
-0.16733941 -0.09539181 -0.16128504 89 135 27
-0.16842154 -0.09555024 -0.16078725 114 159 42
-0.16648182 -0.07282025 -0.22069794 60 82 10
-0.15202816 -0.07322524 -0.21103151 67 92 52
-0.15186557 -0.07192246 -0.21214190 78 101 49
-0.16815440 -0.11641116 -0.13658540 143 164 35
-0.15362172 -0.09604760 -0.17997345 46 90 5
-0.15612319 -0.09543586 -0.17885052 49 99 0
-0.15493715 -0.09735819 -0.17499970 23 62 0
-0.15377548 -0.09583993 -0.18036111 48 92 7
-0.15581134 -0.06132539 -0.23798600 98 124 53
-0.15479106 -0.06506176 -0.22966045 83 107 47
-0.15716349 -0.06060325 -0.23664680 76 103 36
-0.15997835 -0.09355354 -0.17982750 34 70 0
-0.16038799 -0.09619430 -0.17357534 43 80 0
-0.15589340 -0.05349144 -0.24689396 84 117 46
-0.16324821 -0.09450044 -0.16686712 65 105 19
-0.16448364 -0.09525057 -0.16141424 117 161 14
-0.16403575 -0.11449935 -0.13191058 147 173 14
-0.16485849 -0.11416201 -0.13375618 132 162 14
-0.15126403 -0.07697179 -0.20556974 54 82 33
-0.16166332 -0.10412004 -0.13974096 112 147 0
-0.16223842 -0.10281009 -0.14178073 121 154 15
-0.16312957 -0.10590450 -0.13896430 87 121 1
-0.16204548 -0.09004319 -0.18435614 79 115 9
-0.15813071 -0.08900730 -0.19019742 57 95 18
-0.16241771 -0.08980765 -0.18443342 61 94 5
-0.15834072 -0.08975822 -0.18856701 54 98 9
-0.17393714 -0.10185992 -0.15487166 119 155 49
-0.15775645 -0.06516897 -0.21593954 27 55 0
-0.15962507 -0.06619988 -0.21748859 51 79 4
-0.15811193 -0.06256758 -0.22263198 20 54 3
-0.15775692 -0.06594897 -0.21415672 32 60 1
-0.16137579 -0.09462994 -0.15560766 51 91 5
-0.16221353 -0.11393432 -0.12390707 86 117 0
-0.16190638 -0.11323340 -0.12298141 94 125 0
-0.16227669 -0.09509544 -0.15675360 59 98 7
-0.15147139 -0.08232027 -0.19362037 86 111 28
-0.15075956 -0.07680000 -0.19691889 61 90 8
-0.15061323 -0.08243918 -0.19315584 87 117 31
-0.15236619 -0.07524392 -0.19866280 70 99 15
-0.17267564 -0.10531826 -0.15457715 91 134 18
-0.16924088 -0.11294527 -0.14202681 86 118 9
-0.16811015 -0.10256328 -0.14680605 56 93 0
-0.16846772 -0.10503849 -0.14561896 110 148 9
-0.15451615 -0.07315970 -0.21852995 74 93 47
-0.15701200 -0.09790946 -0.17179053 23 64 0
-0.15786144 -0.09703436 -0.17324747 18 57 0
-0.15682566 -0.06511537 -0.21451235 48 79 9
-0.15665209 -0.06521274 -0.21471600 45 77 4
-0.15691224 -0.06383397 -0.21930853 41 70 3
-0.15376450 -0.06754039 -0.21529265 77 98 41
-0.15441290 -0.04886479 -0.25878710 107 137 65
-0.15661266 -0.04640280 -0.25860271 98 119 52
-0.15451689 -0.05092017 -0.25561810 95 122 53
-0.14958709 -0.07290665 -0.20684715 61 89 38
-0.15013583 -0.07263771 -0.20712388 62 89 38
-0.15375254 -0.09414116 -0.17259240 106 142 18
-0.15476695 -0.09427737 -0.17094503 91 126 6
-0.15491144 -0.09429629 -0.17069703 70 107 0
-0.15648909 -0.09456034 -0.16954701 40 89 0
-0.14823033 -0.08421352 -0.19420239 46 79 22
-0.16517361 -0.11367162 -0.13496418 145 175 19
-0.16833842 -0.10779747 -0.14465164 106 138 37
-0.16855235 -0.10675357 -0.14519092 82 114 15
-0.16295482 -0.11653233 -0.10889226 161 195 21
-0.16334334 -0.11679734 -0.10768807 166 194 14
-0.16778214 -0.09286629 -0.17331074 41 81 8
-0.16707276 -0.09423744 -0.17240919 33 77 0
-0.16467638 -0.10979916 -0.14266820 67 100 0
-0.16824965 -0.10936856 -0.14386632 86 120 10
-0.17269398 -0.10761938 -0.14884543 91 122 19
-0.16598970 -0.10332657 -0.14406306 121 161 10
-0.16417535 -0.10370859 -0.14244877 82 117 0
-0.17502725 -0.10313330 -0.15636007 78 116 13
-0.16322862 -0.11627189 -0.12645502 108 138 14
-0.16282232 -0.11420493 -0.12729445 113 146 0
-0.16558075 -0.08672535 -0.18626750 38 80 0
-0.17454946 -0.09878310 -0.15940832 103 144 42
-0.17400500 -0.09907946 -0.15792024 114 150 60
-0.16903503 -0.09594136 -0.16773343 78 124 0
-0.16874072 -0.09671239 -0.16705899 88 136 1
-0.16874063 -0.09405889 -0.17061849 85 132 4
-0.15544724 -0.06531214 -0.23878509 96 122 48
-0.15549146 -0.06594250 -0.24089277 125 151 80
-0.16618435 -0.07751455 -0.18992744 72 97 29
-0.17148077 -0.11468869 -0.14206782 77 107 11
-0.17181115 -0.11076611 -0.14749186 92 130 8
-0.05013661 0.10584040 -0.13793939 100 111 42
-0.04985234 0.10568541 -0.13728392 104 123 68
-0.03230829 0.10811688 -0.13304815 44 69 30
-0.04120389 0.11292966 -0.12381130 84 82 57
-0.03509913 0.11071052 -0.13315089 103 83 58
-0.03590701 0.11050317 -0.12954716 93 82 36
-0.03793863 0.11088274 -0.12482002 102 104 55
-0.03818170 0.11167170 -0.12920769 81 81 31
-0.04188565 0.11272521 -0.13078196 81 84 55
-0.03720526 0.10428315 -0.13418646 62 116 30
-0.03427213 0.10368097 -0.13395485 69 124 31
-0.04078287 0.10551112 -0.13088265 63 112 33
-0.03635256 0.10406956 -0.13439915 63 118 34
-0.02968046 0.10699019 -0.14037791 92 76 42
-0.03182968 0.10650026 -0.13364761 45 77 30
-0.04597222 0.10265514 -0.14121310 121 157 95
-0.02681135 0.10540654 -0.14292285 74 90 43
-0.03124670 0.10286847 -0.14262374 67 124 21
-0.02663080 0.10469606 -0.14361447 77 93 46
-0.04123433 0.10412234 -0.13907273 76 135 71
-0.04585279 0.10483228 -0.13606419 64 114 61
-0.04024732 0.10362243 -0.14158194 66 127 67
-0.03534907 0.10899303 -0.14118376 66 62 35
-0.03205330 0.10880625 -0.14050166 91 63 42
-0.03390469 0.10996460 -0.13759516 103 74 58
-0.04185490 0.10582066 -0.13015781 61 108 38
-0.04510250 0.10608458 -0.12977041 59 104 47
-0.04456024 0.10663526 -0.12728733 60 106 41
-0.04517564 0.10538571 -0.13278100 49 97 37
-0.02913126 0.10695717 -0.14163026 72 80 41
-0.04389276 0.10422595 -0.13833742 63 123 63
-0.03257037 0.10904083 -0.13790262 101 63 42
-0.03134774 0.10826898 -0.14073300 85 65 40
-0.03610013 0.11116647 -0.13482983 75 71 46
-0.04332544 0.10919701 -0.12179213 95 145 82
-0.04382277 0.10887335 -0.12194896 80 130 71
-0.04658549 0.10863084 -0.11950908 81 127 65
-0.04475987 0.10822514 -0.12238213 96 145 79
-0.03379298 0.10392620 -0.14390461 62 118 31
-0.04904558 0.10868487 -0.11662712 74 119 52
-0.03232115 0.10306273 -0.13795526 73 133 33
-0.03240134 0.10317553 -0.13614593 79 135 34
-0.04910256 0.10400425 -0.14002980 152 148 101
-0.02837118 0.10323071 -0.13829152 50 71 15
-0.04722026 0.10402132 -0.13677801 70 124 72
-0.04534170 0.10225176 -0.14078805 76 146 83
-0.04188916 0.11239160 -0.12076237 86 88 39
-0.03705888 0.10958209 -0.14007367 65 65 39
-0.03704820 0.11090522 -0.13634947 65 68 39
-0.03799277 0.10389978 -0.14105727 64 122 48
-0.03679343 0.10387510 -0.14293176 67 123 52
-0.04156488 0.11042664 -0.12137567 120 163 71
-0.03590985 0.10467897 -0.13063551 79 131 49
-0.03436160 0.10737132 -0.12880962 45 86 26
-0.04077771 0.10649002 -0.12745357 68 113 44
-0.03613823 0.10902233 -0.12665483 77 80 51
-0.03640769 0.10935672 -0.12623106 76 79 48
-0.02905867 0.10231197 -0.14113335 65 131 7
-0.03141076 0.10321902 -0.13370988 87 142 51
-0.03095858 0.10586904 -0.13580777 45 81 35
-0.19497368 0.02400114 -0.06194099 42 71 7
-0.19501942 0.02416174 -0.06158229 32 62 0
-0.19618639 0.02265373 -0.06374026 31 59 10
-0.16798449 0.03965112 -0.05068720 92 123 47
-0.17032266 0.04047665 -0.05017918 93 128 36
-0.16362886 0.03852785 -0.04913775 86 120 26
-0.16656929 0.03862704 -0.05043314 86 116 42
-0.21208520 0.01209959 -0.07380157 85 121 31
-0.20450747 0.01219657 -0.07028736 72 103 23
-0.20763615 0.01214385 -0.07174621 86 117 41
-0.21702762 0.00519906 -0.07908039 65 96 20
-0.18614887 0.03008742 -0.05524487 92 131 24
-0.18609725 0.02974299 -0.05554551 87 125 26
-0.21961775 0.00728522 -0.08279427 66 90 28
-0.22035627 0.00701648 -0.08293708 47 74 7
-0.22738276 0.00546649 -0.08534262 86 115 22
-0.20750770 0.01545367 -0.06994604 81 120 27
-0.20992871 0.01311730 -0.07225304 85 121 33
-0.20629279 0.01611400 -0.06904256 83 122 33
-0.22279541 0.00378219 -0.08960527 78 95 41
-0.18109903 0.04376540 -0.05338494 83 120 7
-0.18683207 0.03800415 -0.05291674 103 137 17
-0.22304437 -0.00165729 -0.09380071 64 82 6
-0.21485280 0.01115792 -0.07618498 75 107 10
-0.21956868 0.00075482 -0.09150514 58 85 8
-0.19782189 0.02445719 -0.06156649 62 96 2
-0.22786635 0.00159858 -0.08553875 90 110 11
-0.20361347 0.02332000 -0.06678338 47 75 0
-0.20920585 0.01407006 -0.07455574 56 83 14
-0.22448416 0.00287751 -0.09237697 79 92 23
-0.15648149 0.03492530 -0.04799868 45 83 0
-0.21528724 0.00900068 -0.08169178 48 68 15
-0.21771939 0.00893713 -0.08008450 71 100 20
-0.21688248 0.01124377 -0.07583002 76 107 3
-0.21118581 0.01143816 -0.07822025 59 83 21
-0.21180363 0.00946919 -0.08099242 60 86 23
-0.19917244 0.02352041 -0.06216496 77 121 6
-0.19893284 0.02414259 -0.06144012 80 123 8
-0.22233409 0.00083630 -0.07750083 85 104 22
-0.22174993 0.00095611 -0.07751410 77 99 17
-0.17982836 0.04231472 -0.05276587 94 129 3
-0.20843539 0.01971317 -0.07044992 64 99 5
-0.21395022 0.01395518 -0.07237652 85 120 4
-0.21206178 0.01924437 -0.06972289 79 112 21
-0.22034292 -0.00092712 -0.09249449 79 106 27
-0.20900992 0.01777236 -0.07085142 87 119 12
-0.20842555 0.02188516 -0.06874448 79 115 25
-0.17213772 0.04509147 -0.04860360 93 133 1
-0.17228179 0.04443686 -0.04870189 87 125 4
-0.22069775 0.00888827 -0.07883529 67 101 6
-0.22365572 0.01058276 -0.07756811 78 113 29
-0.21026494 0.02006596 -0.07008968 46 82 0
-0.21961348 0.00540413 -0.08077121 80 109 25
-0.21138096 0.01291987 -0.07467443 87 114 43
-0.19757962 0.02127682 -0.06273150 83 119 31
-0.19595142 0.02022654 -0.06165678 76 110 24
-0.18221988 0.03638166 -0.05278976 94 130 4
-0.18322009 0.03633200 -0.05294649 96 131 1
-0.22431920 0.00344004 -0.08301350 87 111 15
-0.22529924 0.00402240 -0.08750973 90 108 46
-0.22772551 0.00303773 -0.08842857 148 158 95
-0.20102614 0.02235402 -0.06410459 75 115 3
-0.22963805 0.00173502 -0.09069593 93 103 30
-0.19693309 0.02611578 -0.05861722 87 131 7
-0.19587639 0.02686613 -0.05741751 95 137 13
-0.19541889 0.02117421 -0.06518129 34 58 10
-0.19242084 0.02206267 -0.06254750 23 43 6
-0.21166009 0.01865406 -0.07056905 48 88 0
-0.21413578 0.01671082 -0.07136481 58 95 0
-0.20423059 0.02390398 -0.06707948 58 89 9
-0.22002013 0.00380108 -0.08131990 79 106 27
-0.21503733 0.00920552 -0.07626962 87 121 44
-0.21768934 0.00887694 -0.07755713 81 114 33
-0.22350173 0.00932453 -0.08163451 92 122 10
-0.22472070 0.01150896 -0.07736891 91 116 35
-0.20652556 0.01981070 -0.06767992 92 129 16
-0.21725239 0.00423343 -0.07954048 71 100 18
-0.22402978 0.00107689 -0.08150878 109 127 27
-0.18295203 0.04259776 -0.05317513 76 113 0
-0.18954960 0.03249609 -0.05428115 104 133 17
-0.18939228 0.03220110 -0.05429202 85 118 3
-0.18994305 0.02686829 -0.05986673 37 65 4
-0.21730550 0.01397025 -0.07292849 71 110 3
-0.21101746 0.01505292 -0.07119209 79 113 0
-0.21616189 0.01198299 -0.07461948 92 130 27
-0.22934234 0.00242322 -0.08864542 152 162 91
-0.22573547 0.00050333 -0.07978994 100 117 11
-0.21705717 0.00206010 -0.08957207 73 102 12
-0.20048061 0.02569936 -0.06339445 55 88 1
-0.19235182 0.03278244 -0.05380915 96 131 5
-0.19493440 0.02681184 -0.05784182 94 129 9
-0.19354050 0.02812247 -0.05617734 110 150 2
-0.18958433 0.03330607 -0.05350019 147 177 17
-0.21976572 0.01235503 -0.07477336 77 112 30
-0.21212269 0.00733207 -0.07621618 57 89 13
-0.21315271 0.01023074 -0.07505467 90 123 42
-0.15670909 0.03593736 -0.04663798 88 124 28
-0.17643470 0.04223278 -0.05040542 107 133 6
-0.20144483 0.01990696 -0.06777564 38 69 0
-0.20158951 0.02048161 -0.06689088 50 82 7
-0.22722372 0.00905002 -0.08500320 96 127 0
-0.22425398 0.00744871 -0.08437661 66 94 7
-0.22283173 0.00642841 -0.08432671 66 90 14
-0.22999421 -0.00219222 -0.07930031 96 109 21
-0.23087172 -0.00357213 -0.08031760 89 101 17
-0.18200548 0.04146910 -0.05353162 126 157 19
-0.18303682 0.03924753 -0.05332649 141 165 15
-0.22917981 -0.00242752 -0.07213088 121 134 26
-0.22857782 -0.00216941 -0.07100129 119 133 19
-0.22719367 -0.00141333 -0.07025509 132 151 36
-0.22337250 0.00848172 -0.08057468 75 109 14
-0.22617891 0.00974838 -0.08221193 45 70 0
-0.19490245 0.02620600 -0.05846623 102 138 14
-0.19032490 0.02867566 -0.05634905 73 109 0
-0.21541987 0.01664527 -0.07157224 95 138 33
-0.20811822 0.01823696 -0.07047342 81 115 5
-0.19093885 0.03007859 -0.05507702 95 135 3
-0.17850605 0.04107616 -0.05173995 126 151 5
-0.17711446 0.03998789 -0.05069389 105 137 10
-0.22195506 0.00497885 -0.08646800 64 84 35
-0.22697635 0.00421151 -0.08698791 81 103 31
-0.22376332 0.00500918 -0.08607047 68 91 21
-0.21928455 0.01347798 -0.07432114 86 123 28
-0.22268467 0.00097968 -0.07948269 107 126 34
-0.21842575 -0.00148802 -0.09125091 42 71 5
-0.22200243 0.01253097 -0.07499868 91 112 45
-0.21929929 0.01122649 -0.07626642 61 91 5
-0.22912979 -0.00107383 -0.08098799 95 109 14
-0.17161950 0.03798957 -0.05152745 105 137 54
-0.17376646 0.03852452 -0.05120794 95 131 35
-0.17448357 0.03901109 -0.05093804 85 122 19
-0.21572879 0.00783960 -0.08383820 54 75 18
-0.17367262 0.03303535 -0.05222262 79 110 30
-0.17841785 0.03352747 -0.05354060 102 134 58
-0.17386369 0.03395715 -0.05233088 89 116 45
-0.22667958 0.00703328 -0.08494027 95 121 34
-0.22165281 0.00037187 -0.07173476 89 108 26
-0.22421616 0.00009869 -0.07378794 137 154 58
-0.20288417 0.01471922 -0.06828240 80 113 34
-0.20538773 0.01637980 -0.06856526 80 118 33
-0.23017760 -0.00197432 -0.08603022 104 113 32
-0.16160184 0.03700742 -0.04823956 78 114 8
-0.16218631 0.03563056 -0.04859437 94 131 18
-0.21858551 0.00182920 -0.07866808 91 117 20
-0.20546697 0.01923248 -0.06750893 85 121 13
-0.15813492 0.03936106 -0.04676459 80 115 13
-0.18371260 0.03816230 -0.05281226 153 177 1
-0.21102555 0.00824506 -0.08103938 37 65 4
-0.18331945 0.03396318 -0.05360179 98 138 15
-0.18354943 0.03440540 -0.05348755 113 153 18
-0.17197628 0.03217738 -0.05165806 81 119 36
-0.16869923 0.03402635 -0.05063373 85 119 33
-0.22589214 0.00011850 -0.07657019 120 137 23
-0.22518523 -0.00088753 -0.06874657 99 118 10
-0.22609137 -0.00162375 -0.06567279 111 125 27
-0.21480666 0.00755860 -0.08347885 71 95 35
-0.22783248 -0.00101782 -0.07576637 111 129 19
-0.20495352 0.02341201 -0.06618268 81 118 25
-0.22488394 -0.00152948 -0.06451210 104 119 24
-0.22216024 -0.00037144 -0.06700056 96 115 25
-0.21159016 0.01638670 -0.07076725 86 124 15
-0.21141660 0.01681572 -0.07043462 85 123 14
-0.19921751 0.01782254 -0.06512791 82 115 34
-0.15682323 0.03444821 -0.04841363 67 106 17
-0.18254508 0.03620534 -0.05307579 90 128 6
-0.18691991 0.03536624 -0.05312556 154 177 7
-0.19311251 0.03080826 -0.05456373 101 140 0
-0.17072612 0.03195775 -0.05177696 69 107 20
-0.23031756 0.00408651 -0.08699621 88 108 21
-0.17828089 0.04241696 -0.05217032 116 148 11
-0.17800137 0.04469019 -0.05236279 107 146 3
-0.15221317 -0.09654370 -0.13288133 114 146 19
-0.15291698 -0.09747670 -0.13589340 70 104 17
-0.14867389 -0.09203403 -0.16802362 105 169 20
-0.14753857 -0.09292207 -0.17185627 76 125 0
-0.14764120 -0.10305803 -0.11835615 59 100 8
-0.14950795 -0.09795741 -0.16819309 83 117 57
-0.15391396 -0.10546380 -0.12015428 66 101 0
-0.15557699 -0.10628894 -0.12064309 98 136 1
-0.15450753 -0.10652296 -0.11707581 84 121 5
-0.15639013 -0.10243642 -0.14264433 69 102 11
-0.15451434 -0.09858598 -0.08982224 84 119 0
-0.15646929 -0.10082585 -0.08836109 115 147 14
-0.15326388 -0.09606550 -0.07972843 80 118 17
-0.15593524 -0.09976221 -0.08076034 121 157 25
-0.15446000 -0.09769773 -0.07976124 112 152 27
-0.15027656 -0.09907079 -0.12568322 77 116 9
-0.15392298 -0.09985697 -0.14199866 72 102 16
-0.15106548 -0.10588769 -0.11683288 53 92 3
-0.15280351 -0.10564195 -0.11820635 78 119 0
-0.15485963 -0.10774956 -0.11304002 91 130 15
-0.15357590 -0.10139127 -0.13006592 84 120 12
-0.16172037 -0.10860659 -0.09426504 105 133 49
-0.15987855 -0.10781354 -0.09844119 33 66 0
-0.15829304 -0.10712404 -0.09705830 101 136 8
-0.15339482 -0.09398159 -0.13663474 71 111 0
-0.15243353 -0.09506997 -0.13492446 101 135 22
-0.16117433 -0.10916373 -0.13224199 82 116 4
-0.16268727 -0.11068765 -0.13422489 86 120 0
-0.16077718 -0.10694341 -0.13871574 93 125 0
-0.16052368 -0.10712080 -0.13703632 78 109 5
-0.16019608 -0.10616742 -0.13919407 72 102 14
-0.15072376 -0.10310130 -0.12061352 88 128 6
-0.15039429 -0.10465671 -0.11817594 76 115 9
-0.15404584 -0.09267492 -0.14234143 97 141 17
-0.14507285 -0.10409546 -0.11257572 37 71 0
-0.14714965 -0.10462976 -0.11647907 66 94 17
-0.15809631 -0.09991901 -0.08117754 109 137 16
-0.15607172 -0.09160382 -0.15384211 76 133 0
-0.15395325 -0.09509797 -0.13761744 79 119 7
-0.15420669 -0.09736899 -0.13751353 106 152 17
-0.15175499 -0.10142648 -0.12868050 63 96 0
-0.15236299 -0.10226646 -0.12860441 92 131 4
-0.15865485 -0.10760138 -0.10350337 59 94 2
-0.16398484 -0.10493270 -0.07826788 52 86 10
-0.16222234 -0.10406367 -0.07792094 115 152 23
-0.15934712 -0.10791363 -0.12785378 76 109 28
-0.15827522 -0.10714126 -0.12520860 73 111 12
-0.15490259 -0.10268109 -0.13073781 95 131 0
-0.15932170 -0.10813102 -0.12618263 72 104 28
-0.16198009 -0.10121423 -0.16185318 63 99 12
-0.15988934 -0.10062214 -0.16230832 58 90 23
-0.14924498 -0.09434517 -0.18541621 68 119 14
-0.15332551 -0.09968362 -0.13257578 105 140 22
-0.15121910 -0.09282237 -0.14967652 79 121 35
-0.15114382 -0.09073117 -0.15205629 84 128 33
-0.14985386 -0.09740046 -0.16071150 91 129 44
-0.15140148 -0.09805180 -0.15807679 77 111 35
-0.14392634 -0.09552393 -0.17839810 109 146 41
-0.15382411 -0.10025147 -0.13330753 90 128 17
-0.15253936 -0.09755348 -0.17687154 60 98 25
-0.15280612 -0.09826248 -0.17463550 63 100 23
-0.16008465 -0.08000742 -0.21128789 64 91 36
-0.16266657 -0.08167726 -0.20801552 20 49 1
-0.16112304 -0.08065394 -0.21003471 57 86 32
-0.16191450 -0.07989462 -0.21222343 45 72 21
-0.15520310 -0.09975173 -0.16358569 52 91 26
-0.15537514 -0.10023518 -0.16071604 47 77 23
-0.14881964 -0.09263930 -0.15781805 126 164 81
-0.15135315 -0.10510685 -0.12103236 101 134 17
-0.15571903 -0.09491290 -0.14181218 82 133 2
-0.15560943 -0.09560473 -0.14142676 69 118 0
-0.14596903 -0.10622791 -0.10935374 95 137 55
-0.14633864 -0.09543159 -0.16629502 83 119 32
-0.14701574 -0.09676526 -0.17227487 92 130 57
-0.14764047 -0.09467049 -0.18577215 47 98 6
-0.14912134 -0.10082532 -0.12276107 73 115 7
-0.14620391 -0.10383298 -0.11759890 71 102 43
-0.15649369 -0.08740293 -0.19312893 44 80 8
-0.15157636 -0.08923370 -0.18987957 64 112 12
-0.15319575 -0.09210765 -0.18675137 54 100 1
-0.15444556 -0.08995841 -0.18941742 55 99 12
-0.15163167 -0.09062708 -0.18826604 81 130 25
-0.15920290 -0.10257547 -0.15149273 70 99 45
-0.14551957 -0.10272884 -0.10655815 78 127 0
-0.15378481 -0.09838922 -0.17303045 38 75 5
-0.15313593 -0.09843393 -0.17204738 66 103 26
-0.15037723 -0.09826985 -0.17386712 54 88 37
-0.16117497 -0.10002353 -0.16462451 73 112 23
-0.15187408 -0.09624106 -0.18153307 69 110 8
-0.15051895 -0.09790333 -0.17856470 32 69 18
-0.14734678 -0.09832511 -0.12697701 86 124 25
-0.15780199 -0.10194828 -0.15330257 49 81 16
-0.14783031 -0.09204817 -0.18742540 63 115 14
-0.14936620 -0.08893304 -0.18980585 41 85 8
-0.16685444 -0.10122073 -0.16209030 39 79 0
-0.15561341 -0.09846328 -0.17128764 38 77 12
-0.14552616 -0.09371725 -0.18513907 93 128 44
-0.16239159 -0.11075578 -0.09839191 73 115 3
-0.16050708 -0.10839734 -0.10044628 65 96 16
-0.16183960 -0.10954467 -0.09718041 54 91 0
-0.15615080 -0.10576233 -0.12539636 79 110 0
-0.15814123 -0.10656857 -0.13199852 88 123 21
-0.15806705 -0.10678108 -0.12796544 77 113 13
-0.15800187 -0.10673754 -0.12801686 77 113 13
-0.14808911 -0.10555150 -0.11341697 78 107 0
-0.14842290 -0.10583640 -0.11265310 90 119 11
-0.15722895 -0.10495160 -0.13190958 73 111 0
-0.15761004 -0.10451639 -0.13497135 77 115 6
-0.15889773 -0.10512038 -0.13783579 75 106 28
-0.15819810 -0.10428681 -0.13810214 83 120 14
-0.16441657 -0.10771267 -0.08434159 67 107 0
-0.16591957 -0.10760468 -0.08272558 100 135 17
-0.15371899 -0.10513263 -0.09795956 134 176 16
-0.15149236 -0.10200783 -0.09781031 87 134 0
-0.14354931 -0.10188063 -0.11437813 53 87 0
-0.15953219 -0.10939487 -0.12179158 74 112 0
-0.16105114 -0.11144276 -0.12316662 90 120 0
-0.15853095 -0.10776229 -0.12203391 74 108 11
-0.14957161 -0.09659641 -0.12700637 88 132 21
-0.15982267 -0.10611211 -0.08976970 128 163 19
-0.15137193 -0.09890347 -0.16206618 66 96 36
-0.15086564 -0.09844437 -0.16766454 74 105 38
-0.16086324 -0.10526951 -0.13768181 81 114 7
-0.15978190 -0.10536694 -0.13657539 87 119 18
-0.15016645 -0.10627677 -0.11547532 55 82 0
-0.15595198 -0.09228848 -0.14619011 78 127 0
-0.15615283 -0.09218564 -0.14708975 65 120 0
-0.14932780 -0.09787713 -0.13027038 65 97 0
-0.15272136 -0.09956976 -0.13192467 94 133 8
-0.15423080 -0.10078742 -0.13399893 62 100 0
-0.14665145 -0.10319863 -0.12001533 65 99 25
-0.15454747 -0.09932012 -0.16599533 62 91 33
-0.15303724 -0.09966759 -0.16343921 97 130 39
-0.15379825 -0.10588055 -0.12122993 64 97 0
-0.15356509 -0.10731842 -0.11545963 64 95 0
-0.15321688 -0.10742141 -0.11307827 59 92 3
-0.15463193 -0.10738228 -0.11429393 85 116 12
-0.15564379 -0.09182029 -0.15509889 87 137 2
-0.15554766 -0.09156292 -0.15436366 58 113 0
-0.14402996 -0.10279100 -0.11265207 76 115 8
-0.14860798 -0.09564518 -0.15817088 101 136 54
-0.15027803 -0.10627253 -0.10906672 64 95 0
-0.14981075 -0.10624383 -0.10964695 92 125 12
-0.16187611 -0.10381727 -0.15501808 98 137 10
-0.15961225 -0.10091845 -0.07640151 84 107 16
-0.15976024 -0.10081277 -0.07461330 70 93 5
-0.16508900 -0.11011722 -0.09157607 142 173 17
-0.15031818 -0.09156691 -0.16368377 70 140 0
-0.15458547 -0.09323941 -0.16136445 57 116 0
-0.15361351 -0.10615253 -0.10227580 124 159 15
-0.15305568 -0.10553002 -0.10061421 123 162 21
-0.15462555 -0.10639700 -0.10216983 75 109 0
-0.15813991 -0.10718040 -0.10217751 78 114 6
-0.15473343 -0.10125468 -0.14742066 106 141 11
-0.15355204 -0.09772468 -0.09044129 129 167 22
-0.15362389 -0.09498303 -0.08378725 65 92 11
-0.15552492 -0.10207228 -0.09198315 105 142 10
-0.15620637 -0.10216367 -0.09086413 83 121 0
-0.14241892 -0.10278577 -0.10902625 187 228 106
-0.15435936 -0.10529245 -0.09736003 146 185 8
-0.15711699 -0.10652565 -0.09590559 118 152 16
-0.15857834 -0.10723295 -0.09523952 96 131 11
-0.15285534 -0.07762848 -0.20700629 55 81 33
-0.15420331 -0.07950559 -0.20611553 54 81 26
-0.15698826 -0.08292645 -0.20297663 49 76 25
-0.15485707 -0.08176825 -0.20304300 51 79 20
-0.16284405 -0.09913592 -0.06960102 107 123 78
-0.15156157 -0.09443528 -0.18436584 68 112 15
-0.14825676 -0.09389670 -0.18624014 56 110 12
-0.15734059 -0.08412058 -0.20060523 44 73 15
-0.14254421 -0.10243648 -0.11088371 121 146 54
-0.14237233 -0.10493214 -0.11083913 107 149 49
-0.14256622 -0.10605162 -0.11431143 78 110 43
-0.16225384 -0.10828142 -0.09049965 94 128 34
-0.16326021 -0.10802941 -0.08685192 72 106 12
-0.17139608 -0.10112700 -0.06145976 97 133 9
-0.16953386 -0.09985243 -0.06402788 130 156 67
-0.17111416 -0.10272434 -0.06366206 106 143 12
-0.15762980 -0.08769473 -0.19308548 49 85 15
-0.15480030 -0.08596862 -0.19530223 49 81 14
-0.15340601 -0.08319343 -0.19906655 49 79 19
-0.15729193 -0.09926845 -0.08385696 130 155 9
-0.15438743 -0.09574146 -0.08150595 78 103 9
-0.15502128 -0.09648874 -0.08022612 104 131 26
-0.14935300 -0.09771802 -0.16376553 97 130 41
-0.15302652 -0.10327131 -0.12465976 88 129 7
-0.15310308 -0.10321611 -0.12499782 76 114 3
-0.15220429 -0.10227780 -0.12523676 90 130 16
-0.14725868 -0.09222446 -0.16545518 105 169 33
-0.14666553 -0.09272646 -0.16884378 111 168 37
-0.15589161 -0.10163181 -0.15202126 64 96 23
-0.15975897 -0.09727517 -0.06978475 116 126 30
-0.16004434 -0.09766056 -0.06988072 112 123 29
-0.14929453 -0.09776628 -0.16438074 100 135 45
-0.14774331 -0.09694639 -0.16753528 71 103 36
-0.14476621 -0.09475356 -0.18368898 92 123 43
-0.14879364 -0.09806479 -0.17636849 43 83 31
-0.14643633 -0.09710187 -0.17552465 65 108 36
-0.14666507 -0.09757383 -0.17716189 51 96 37
-0.14996745 -0.09353857 -0.17561629 73 103 7
-0.14886546 -0.09322140 -0.17208722 63 116 0
-0.15884745 -0.10306264 -0.08500791 121 154 15
-0.15777358 -0.10019400 -0.08384217 106 134 15
-0.15808806 -0.10059049 -0.08347920 76 111 11
-0.16666429 -0.09742718 -0.06431365 99 107 83
-0.16718312 -0.09924904 -0.06617301 81 93 57
-0.16704971 -0.09923761 -0.06625380 81 93 57
-0.15190262 -0.08276870 -0.19866827 49 78 20
-0.15703516 -0.09192184 -0.15259513 125 183 11
-0.14840667 -0.09402703 -0.18165225 76 103 22
-0.14793943 -0.09228936 -0.16049868 95 137 39
-0.15422754 -0.10715293 -0.10614359 62 97 0
-0.14849727 -0.09164386 -0.16009142 92 145 31
-0.16499862 -0.10880347 -0.08642086 100 136 12
-0.16475438 -0.10968550 -0.09044758 129 167 22
-0.15155956 -0.10643487 -0.10732139 63 99 0
-0.15118591 -0.10627570 -0.10726850 61 96 0
-0.15130997 -0.07912928 -0.20291369 56 81 24
-0.14836410 -0.09365258 -0.17818211 60 85 1
-0.14732413 -0.09412933 -0.17925176 80 109 19
-0.14403857 -0.10239732 -0.11027629 86 133 0
-0.14758159 -0.08810622 -0.18969828 104 135 57
-0.15110816 -0.08679231 -0.19288301 50 87 10
-0.14987999 -0.08243063 -0.19721511 43 73 19
-0.15730421 -0.09245761 -0.14921336 128 178 17
-0.15718189 -0.09216834 -0.15100710 133 185 25
-0.15172802 -0.09482993 -0.13175087 104 144 29
-0.15223418 -0.09592917 -0.13281496 73 111 0
-0.15203200 -0.09516882 -0.07847273 102 144 36
-0.15027159 -0.09627497 -0.15353687 97 128 52
-0.15265653 -0.09826387 -0.14538576 111 147 15
-0.17330641 -0.10812685 -0.07384527 75 106 2
-0.17135228 -0.10671417 -0.07172628 120 151 11
-0.15420690 -0.10041525 -0.13921626 82 111 27
-0.15424465 -0.10098226 -0.13326544 70 107 4
-0.15871614 -0.08410934 -0.20105059 43 72 16
-0.15918989 -0.08398964 -0.20142673 44 71 16
-0.15126821 -0.10358912 -0.12473857 94 127 10
-0.15402336 -0.10449295 -0.12799321 82 114 0
-0.14687663 -0.10311834 -0.10251659 133 175 63
-0.15349068 -0.09503242 -0.13983753 94 131 17
-0.16372575 -0.10095967 -0.07149748 96 124 21
-0.15616429 -0.10114064 -0.15826826 57 88 29
-0.15687618 -0.10130958 -0.15830433 50 84 33
-0.15044492 -0.09579939 -0.12870339 68 109 7
-0.14917859 -0.10648028 -0.10688285 128 169 51
-0.15030365 -0.10661303 -0.10838307 87 122 20
-0.14865424 -0.10646357 -0.11164770 104 143 36
-0.17620787 -0.10917670 -0.08276968 58 88 0
-0.17511274 -0.10890768 -0.07936495 100 122 0
-0.15808249 -0.10086621 -0.14022128 88 128 6
-0.15666780 -0.09955013 -0.14043491 101 143 0
-0.15216108 -0.09876732 -0.15052602 83 118 38
-0.15065335 -0.09686354 -0.15297528 96 130 43
-0.16244411 -0.10525557 -0.08019644 69 106 3
-0.16614649 -0.10585256 -0.07856444 58 89 0
-0.16777836 -0.10612094 -0.07785659 101 139 17
-0.15182923 -0.10414775 -0.09948304 133 170 12
-0.14832117 -0.10187342 -0.10142845 136 180 23
-0.14836974 -0.10054980 -0.09996666 76 123 0
-0.15389754 -0.09596335 -0.07865152 59 82 10
-0.15287858 -0.09550492 -0.07818808 83 109 20
-0.15247479 -0.09658600 -0.14287728 78 110 25
-0.15236075 -0.09584355 -0.14359735 69 101 28
-0.15219282 -0.09507610 -0.14457089 91 125 30
-0.15209059 -0.09071740 -0.15393770 73 128 0
-0.15083563 -0.09058068 -0.15473510 122 169 53
-0.14654739 -0.09912612 -0.12740175 82 116 22
-0.15980254 -0.09870006 -0.14343563 65 104 0
-0.16091691 -0.09696473 -0.14544857 66 106 10
-0.16116804 -0.09684872 -0.14569630 63 104 10
-0.16903663 -0.11141722 -0.08774177 145 178 27
-0.17236730 -0.10978919 -0.08445691 110 138 19
-0.14958176 -0.09908634 -0.12960693 81 114 7
-0.15083811 -0.09879058 -0.13090944 105 143 6
-0.17370577 -0.10404354 -0.05804241 150 184 9
-0.17300700 -0.10348777 -0.05989101 130 166 16
-0.17173700 -0.10026157 -0.05884736 87 125 12
-0.17189182 -0.10093192 -0.05952508 113 150 21
-0.16389805 -0.11388377 -0.10109941 90 129 14
-0.16067050 -0.11073932 -0.10796200 95 129 9
-0.16108237 -0.11184614 -0.10965811 83 120 4
-0.16061771 -0.11167125 -0.11163350 78 114 4
-0.15907964 -0.10969015 -0.11065280 65 97 14
-0.15787324 -0.10742807 -0.11820716 68 103 1
-0.15781508 -0.10778851 -0.11492326 69 102 13
-0.16019273 -0.11048736 -0.11984106 86 125 0
-0.16105200 -0.11150961 -0.12267528 103 134 5
-0.16082191 -0.11143421 -0.11913572 79 113 0
-0.15178734 -0.09146040 -0.15841155 62 132 0
-0.14947301 -0.09056135 -0.15990280 88 158 10
-0.15668157 -0.09613318 -0.14310917 124 170 2
-0.15814438 -0.09567875 -0.14437906 78 123 0
-0.16064003 -0.10185438 -0.07513332 110 139 13
-0.16086675 -0.11250966 -0.12083291 96 132 10
-0.15983950 -0.11063699 -0.11903111 86 124 13
-0.15972175 -0.10414877 -0.14540100 64 96 21
-0.15966199 -0.10446654 -0.14333311 75 104 37
-0.15316829 -0.10746331 -0.10898907 75 112 9
-0.15078261 -0.10671914 -0.10872945 67 102 0
-0.15373072 -0.10732038 -0.10431360 81 122 4
-0.14439398 -0.10573862 -0.10950767 93 137 50
-0.14363088 -0.10492457 -0.10838377 112 158 59
-0.14483865 -0.10487752 -0.11576924 51 92 0
-0.15865321 -0.10436256 -0.08790205 81 120 13
-0.16220668 -0.10716192 -0.08568538 56 87 20
-0.16360773 -0.10789538 -0.08579133 68 98 10
-0.15217319 -0.10614567 -0.10013093 100 142 32
-0.14842075 -0.10494906 -0.10338874 105 141 51
-0.15407734 -0.10501816 -0.12571807 88 118 4
-0.15032394 -0.10066689 -0.09796960 129 170 14
-0.15723091 -0.10913111 -0.11319137 70 104 27
-0.15707102 -0.10786662 -0.11754610 65 101 13
-0.15243660 -0.09555174 -0.08321977 87 130 15
-0.14820462 -0.10383370 -0.10432255 99 141 3
-0.14747930 -0.10367381 -0.10479054 117 157 6
-0.14387770 -0.10180587 -0.10636508 109 157 22
-0.15425532 -0.07592993 -0.21302103 67 91 39
-0.15447098 -0.07773518 -0.20972541 58 85 32
-0.15466356 -0.10339428 -0.12788434 94 130 6
-0.15534008 -0.10436650 -0.12614386 117 150 7
-0.14738442 -0.10422369 -0.10374779 123 171 61
-0.14572391 -0.10529763 -0.10681214 118 161 69
-0.17427668 -0.10720807 -0.06386977 124 154 20
-0.17527345 -0.10914292 -0.06849984 160 166 14
-0.17300110 -0.10772053 -0.07036702 57 92 2
-0.17297974 -0.10572912 -0.06318492 135 168 15
-0.17193507 -0.10490417 -0.06469059 117 154 12
-0.17291056 -0.10548671 -0.06293102 144 178 21
-0.17005646 -0.10802640 -0.07947169 115 141 14
-0.17017691 -0.10758158 -0.07811857 91 119 8
-0.16164072 -0.09546473 -0.14847006 54 101 7
-0.15302455 -0.09655847 -0.09009311 86 122 14
-0.16612014 -0.11225539 -0.13961276 91 124 9
-0.16542841 -0.11303878 -0.13668953 89 119 5
-0.15529080 -0.10176557 -0.14118020 114 146 9
-0.15792327 -0.10358209 -0.14049339 81 121 7
-0.16746069 -0.10073011 -0.06795580 179 191 143
-0.16750103 -0.10286255 -0.07163196 60 91 11
-0.16567314 -0.10152715 -0.07105477 80 112 15
-0.16933687 -0.10304795 -0.06855306 96 131 29
-0.15199439 -0.09822485 -0.13197820 90 130 7
-0.15928152 -0.10648038 -0.13472633 82 117 15
-0.15519235 -0.10475729 -0.12997398 124 158 12
-0.16861671 -0.11132982 -0.08775321 126 159 10
-0.16475628 -0.11306123 -0.09801495 94 132 13
-0.16440634 -0.11383203 -0.09952024 103 138 22
-0.14610888 -0.09282410 -0.18470652 103 142 53
-0.14727601 -0.09188930 -0.18504280 99 135 45
-0.15437742 -0.10085904 -0.15092096 101 137 13
-0.15346546 -0.10018346 -0.14856131 103 140 26
-0.16206218 -0.10216529 -0.15961683 59 94 2
-0.15133592 -0.09481125 -0.07980619 47 83 0
-0.15840706 -0.10800413 -0.12166702 83 115 32
-0.15911120 -0.10897904 -0.12251309 76 104 27
-0.15900452 -0.10834680 -0.12375348 75 105 35
-0.15174198 -0.09472114 -0.08378033 113 149 27
-0.15789032 -0.10337500 -0.14454065 76 112 16
-0.15547724 -0.10141942 -0.13617827 128 164 14
-0.15551887 -0.09997456 -0.13816699 114 151 12
-0.31549546 -0.14541784 -0.17645001 116 154 95
-0.31386694 -0.14310595 -0.17524894 30 38 25
-0.31802326 -0.14339364 -0.17410561 77 128 71
-0.31935400 -0.14696451 -0.17538367 90 135 70
-0.31862769 -0.13805448 -0.17485212 105 58 50
-0.32155430 -0.14307363 -0.17686577 94 67 50
-0.31395847 -0.13713607 -0.17037691 64 107 61
-0.31703714 -0.13850720 -0.17211559 63 109 62
-0.31347498 -0.13227104 -0.16852291 59 95 51
-0.31507149 -0.13236958 -0.16931695 65 96 52
-0.31195512 -0.14100412 -0.17368698 32 50 26
-0.31091249 -0.13499179 -0.17093854 38 80 4
-0.30957261 -0.13603136 -0.17058592 31 73 1
-0.32062897 -0.14531448 -0.17570472 75 122 52
-0.31348130 -0.13587683 -0.17287664 53 72 17
-0.31447244 -0.14195111 -0.17603280 23 27 30
-0.31450835 -0.13902709 -0.17480558 41 41 17
-0.31804371 -0.13721861 -0.17487019 116 68 48
-0.31894565 -0.14083764 -0.17748176 91 63 41
-0.31799001 -0.14038129 -0.17710832 132 96 62
-0.31760639 -0.14334562 -0.17837732 66 55 35
-0.21117613 -0.04890500 0.05666241 84 112 35
-0.21115400 -0.04804306 0.05516925 87 115 30
-0.20939626 -0.04494801 0.05567616 105 140 0
-0.21203867 -0.04614474 0.05594522 109 147 0
-0.21521962 -0.05033541 0.06588310 41 76 0
-0.21788685 -0.04952788 0.06853236 99 130 0
-0.20539290 -0.04129639 0.05140190 123 157 45
-0.20689923 -0.04511362 0.05809995 119 151 50
-0.20630391 -0.04278523 0.05523825 118 151 47
-0.21732885 -0.04439240 0.06177530 91 126 0
-0.21613401 -0.04477689 0.05831925 134 167 14
-0.20584309 -0.04465096 0.05332907 131 163 54
-0.20597336 -0.04507944 0.05199825 121 154 47
-0.20795324 -0.04799169 0.05323311 124 150 61
-0.20957096 -0.04833885 0.06014708 85 107 43
-0.20945863 -0.04837155 0.05954971 100 123 55
-0.21557491 -0.03824926 0.05796305 90 127 0
-0.21334496 -0.03652304 0.05691107 146 180 5
-0.21024370 -0.04051776 0.05740562 92 131 0
-0.20924047 -0.04254767 0.05643837 109 142 1
-0.21145481 -0.04176853 0.05733957 92 131 0
-0.20552699 -0.04462096 0.04991534 126 158 49
-0.21660958 -0.03966402 0.06191514 120 144 46
-0.21572447 -0.03701447 0.06049338 90 113 45
-0.21498846 -0.03508221 0.05577076 104 141 9
-0.21354549 -0.02843997 0.04725895 98 134 2
-0.21352535 -0.02824537 0.04701005 98 134 2
-0.21267961 -0.02762718 0.04568704 116 152 2
-0.21348466 -0.03193276 0.05167690 105 140 0
-0.21127184 -0.02823300 0.04622979 126 161 0
-0.20889972 -0.02959718 0.04763908 102 134 0
-0.21096410 -0.02197041 0.03706067 145 181 13
-0.21041274 -0.02093194 0.03570515 146 180 6
-0.21351656 -0.02183806 0.03721752 107 147 0
-0.21482517 -0.02482145 0.04325132 96 126 14
-0.21374050 -0.02187224 0.03742369 107 147 0
-0.20882732 -0.02223609 0.03657716 156 187 5
-0.20400304 -0.04030195 0.04901147 126 167 9
-0.20502545 -0.02384228 0.03050509 115 151 0
-0.20411138 -0.02268976 0.02493816 122 159 0
-0.20448850 -0.02408303 0.02853310 120 153 0
-0.21503007 -0.04756575 0.05902911 114 147 4
-0.21729630 -0.04810953 0.06372412 127 157 1
-0.21582755 -0.04884454 0.06282377 66 98 0
-0.20506644 -0.03480936 0.04669901 112 148 0
-0.20531942 -0.03342108 0.04571976 118 153 0
-0.20824508 -0.03596055 0.05468776 94 135 0
-0.20799623 -0.03555613 0.05399377 96 136 4
-0.20626985 -0.03770087 0.05370349 104 142 0
-0.20933022 -0.02446839 0.03927879 154 190 2
-0.20006105 -0.03662449 0.03755682 118 159 1
-0.20382226 -0.03503689 0.04311204 136 178 6
-0.20285089 -0.03565498 0.04190787 114 158 3
-0.20746729 -0.01988199 0.03197738 166 196 12
-0.20724759 -0.02090596 0.03255671 158 189 10
-0.20688447 -0.02526988 0.03655886 157 186 8
-0.20771332 -0.03094276 0.04710755 143 177 5
-0.20571277 -0.03075097 0.04177617 137 172 8
-0.20221001 -0.04106577 0.04267913 119 165 5
-0.20259781 -0.04139842 0.04362881 125 169 10
-0.19958897 -0.03992348 0.03695039 116 156 8
-0.20431803 -0.02939664 0.03677892 115 148 0
-0.20458840 -0.02859956 0.03610699 141 174 7
-0.20080008 -0.02919089 0.02980062 120 157 0
-0.20560107 -0.02709925 0.03603049 104 142 0
-0.20693049 -0.02835775 0.04084012 126 160 3
-0.20546891 -0.02588863 0.03419164 110 149 0
-0.20573124 -0.02388581 0.03254943 143 181 8
-0.20769057 -0.03208942 0.04933932 133 171 10
-0.20540896 -0.03209431 0.04337497 132 168 6
-0.20567004 -0.03879770 0.05342803 132 175 10
-0.20551872 -0.03670513 0.05073269 114 150 0
-0.20090750 -0.03313971 0.03510705 144 181 5
-0.20110339 -0.03406817 0.03664114 141 179 4
-0.19991943 -0.03105903 0.03055063 148 181 6
-0.19792089 -0.03175458 0.02760604 141 175 0
-0.19909373 -0.03234094 0.03052036 112 149 0
-0.19891472 -0.03061294 0.02809051 135 165 5
-0.21081923 -0.03301475 0.05298740 133 163 5
-0.21046780 -0.03598389 0.05663149 117 151 2
-0.19519684 -0.03086475 0.02046948 130 165 1
-0.19460997 -0.02830388 0.01342453 130 162 1
-0.20060362 -0.02610216 0.02192775 122 158 0
-0.19744982 -0.02739455 0.01737035 124 160 8
-0.20048647 -0.02613691 0.02172632 124 160 0
-0.19993597 -0.02698952 0.02245178 133 168 3
-0.20405494 -0.02595204 0.02999541 137 170 5
-0.20101056 -0.02833571 0.02834141 113 148 0
-0.20261313 -0.02569921 0.02585710 108 142 0
-0.20150079 -0.02833537 0.02953897 118 153 0
-0.19741552 -0.02946435 0.02221130 130 164 5
-0.19694763 -0.02755914 0.01652467 131 167 9
-0.21724744 -0.05096340 0.07098698 45 83 0
-0.21733761 -0.05053504 0.07018453 48 84 0
-0.20820528 -0.03946161 0.06046503 100 136 26
-0.20800896 -0.04357364 0.06148493 139 173 63
-0.20734571 -0.04103260 0.05820988 144 173 67
-0.20704116 -0.04240458 0.05774434 150 181 77
-0.21687233 -0.04025315 0.06508581 96 121 30
-0.21877891 -0.04764050 0.06705169 84 124 1
-0.21288751 -0.02301283 0.03907686 109 147 25
-0.21314254 -0.02447388 0.04187710 117 151 41
-0.21526155 -0.02795756 0.04894975 124 150 51
-0.21344246 -0.03266383 0.05595161 133 159 58
-0.21371363 -0.02948148 0.05103925 112 135 31
-0.21442589 -0.02611705 0.04548259 120 147 40
-0.21539181 -0.02592511 0.04565052 151 178 71
-0.20671439 -0.03977146 0.05538478 112 152 0
-0.20845973 -0.04150738 0.05627173 114 148 1
-0.21494725 -0.04434136 0.05758793 146 180 5
-0.21804725 -0.04442598 0.07159716 86 113 16
-0.21847482 -0.04626093 0.06964906 82 120 0
-0.21843407 -0.04621410 0.06816360 100 137 6
-0.20307346 -0.04072229 0.04517173 108 150 4
-0.20362921 -0.04345518 0.04800488 124 164 29
-0.20538734 -0.04485349 0.04651128 123 151 38
-0.20653647 -0.04271707 0.05427597 107 147 0
-0.20742288 -0.04698756 0.05291728 120 152 27
-0.20550355 -0.04573742 0.05073527 145 176 56
-0.21711057 -0.04130680 0.06941511 98 124 33
-0.10140865 0.08870686 -0.06116507 117 165 47
-0.10496170 0.08703355 -0.05676308 136 178 52
-0.12886836 0.06881522 -0.04671472 114 159 56
-0.09428067 0.10064235 -0.07817020 53 92 3
-0.09441642 0.09892898 -0.07606303 41 82 6
-0.10864622 0.08528064 -0.04805643 123 160 21
-0.10011246 0.08658823 -0.06249082 124 171 59
-0.10850403 0.08748889 -0.04594635 114 146 35
-0.11149555 0.08670560 -0.04518562 122 150 39
-0.06749351 0.09727400 -0.08885978 40 78 3
-0.06784119 0.09743491 -0.08882080 48 84 14
-0.10517279 0.08855942 -0.05634911 102 146 23
-0.11389148 0.06782932 -0.05212477 118 160 62
-0.11121365 0.06631342 -0.05184916 127 169 57
-0.07878862 0.09368581 -0.07581937 129 173 62
-0.10666666 0.08897126 -0.05226098 93 134 6
-0.10516784 0.08931578 -0.05600780 100 146 14
-0.12446430 0.08289056 -0.04663083 145 177 40
-0.08199813 0.10994814 -0.08795021 147 165 83
-0.08111340 0.10999064 -0.08843703 151 166 83
-0.08080949 0.11019091 -0.08902030 144 157 78
-0.10592104 0.09087112 -0.05365693 102 142 9
-0.13203919 0.05833184 -0.04844312 102 146 48
-0.10217137 0.06856903 -0.05499515 122 153 26
-0.10428007 0.07056289 -0.05590773 133 171 26
-0.07798532 0.10101772 -0.08678117 45 91 1
-0.09922078 0.10015418 -0.06981046 60 103 0
-0.09929297 0.09494233 -0.06569175 101 155 33
-0.11402693 0.08642731 -0.04749181 110 138 19
-0.11127981 0.08680166 -0.04802470 153 186 55
-0.11003562 0.08746099 -0.04543689 106 143 30
-0.09443744 0.08556402 -0.06619240 126 168 56
-0.06141686 0.10375355 -0.09071993 74 110 46
-0.06375720 0.10622104 -0.09217326 80 114 38
-0.06668558 0.10546061 -0.08943442 116 151 71
-0.10262115 0.09482122 -0.05989856 79 127 5
-0.13028929 0.08049177 -0.04839731 60 87 10
-0.11221435 0.07651599 -0.05350912 142 180 79
-0.10823825 0.07696553 -0.05675742 144 177 86
-0.11486848 0.07509727 -0.05208198 121 162 58
-0.13010381 0.07342550 -0.04577979 131 171 56
-0.09503376 0.07259281 -0.06593080 102 157 27
-0.09807575 0.07616515 -0.06327802 120 158 49
-0.07142371 0.10565562 -0.08709782 108 143 63
-0.07253408 0.10667973 -0.08792569 79 112 43
-0.07379923 0.10555473 -0.08573607 93 127 53
-0.09413354 0.09911554 -0.07656477 45 84 19
-0.09093832 0.10032829 -0.08051728 44 81 4
-0.09274995 0.10208052 -0.08157426 79 119 23
-0.10243203 0.09532911 -0.06212865 99 146 16
-0.09883310 0.09275424 -0.06501830 105 152 40
-0.09482747 0.09534966 -0.06771614 106 159 51
-0.07184760 0.10083511 -0.09251868 16 50 0
-0.07719534 0.11085085 -0.09628542 140 154 93
-0.07443511 0.11064754 -0.09423005 85 102 57
-0.11439601 0.07172759 -0.05302690 135 169 72
-0.10891358 0.07420310 -0.05579490 140 179 52
-0.11314057 0.07175664 -0.05346262 150 190 76
-0.10485597 0.08435924 -0.05756018 125 171 49
-0.07968236 0.11036372 -0.09562360 82 102 41
-0.07707834 0.10008018 -0.08678834 54 100 1
-0.10168169 0.08453172 -0.06081768 122 163 61
-0.10030245 0.08403009 -0.06205369 168 198 126
-0.11823577 0.08449980 -0.04848214 109 146 17
-0.10289196 0.09523025 -0.05962036 100 143 12
-0.09391448 0.09168058 -0.06874438 117 162 69
-0.08832724 0.09025862 -0.07122084 121 169 57
-0.08348741 0.10232544 -0.08406733 30 79 0
-0.08197130 0.10164142 -0.08466642 80 130 17
-0.08269349 0.10386313 -0.08603905 76 131 12
-0.08791261 0.09481501 -0.07760943 34 76 0
-0.09188972 0.09516644 -0.07550450 35 76 0
-0.07401519 0.10090089 -0.09157756 39 77 0
