0.33795258 -0.18911451 0.12288029 134 150 18
0.33774877 -0.18450066 0.12296190 151 167 6
0.33101735 -0.19133052 0.11950805 162 169 31
0.32755187 -0.18922123 0.11854177 182 189 31
0.32845041 -0.19026245 0.11863848 173 182 15
0.33124572 -0.19533609 0.11836841 230 227 98
0.33781016 -0.17295475 0.12134019 91 117 26
0.33474341 -0.18985377 0.12142951 108 126 16
0.33497977 -0.18928349 0.12168521 120 133 2
0.33372453 -0.19666988 0.11907111 251 240 160
0.34481388 -0.16687895 0.12754805 153 155 32
0.34443453 -0.17119086 0.12618293 155 158 29
0.34286439 -0.17463279 0.12444451 172 168 43
0.33943927 -0.17504917 0.12257503 159 159 37
0.34137154 -0.18376118 0.12542014 155 168 16
0.34100199 -0.18436231 0.12462143 166 178 16
0.34225464 -0.18426956 0.12819055 158 166 1
0.34135002 -0.17632927 0.13272397 243 243 59
0.34254947 -0.18417738 0.13282812 254 253 83
0.34158206 -0.17937692 0.12925422 201 201 27
0.34142748 -0.17308517 0.13167574 214 214 56
0.34126392 -0.17318703 0.13196167 235 236 72
0.32195169 -0.20966671 0.10695921 123 126 39
0.31492826 -0.20685370 0.09885018 77 65 77
0.31191754 -0.20855302 0.09530212 93 78 75
0.31898153 -0.20831792 0.10343304 96 99 44
0.32108504 -0.20561476 0.10620337 25 16 37
0.31652173 -0.21156994 0.10298388 163 167 21
0.32575777 -0.20764957 0.11214169 126 127 34
0.33014834 -0.20532914 0.11571696 153 141 91
0.32847175 -0.21024825 0.11820105 170 176 0
0.33930340 -0.20239232 0.12231178 147 143 70
0.33186790 -0.20484346 0.11697225 150 138 86
0.32918036 -0.20434101 0.11487754 136 122 83
0.32807425 -0.21043658 0.11802616 170 176 0
0.28707474 -0.21035977 0.09702957 130 147 6
0.33988431 -0.16044737 0.11958564 57 71 36
0.33941182 -0.15582894 0.11499598 67 74 43
0.34536615 -0.16171655 0.12697044 143 146 29
0.34011149 -0.16382241 0.12204532 107 121 33
0.34150815 -0.15467352 0.11876267 94 97 52
0.34002405 -0.15951447 0.11914886 58 70 30
0.36843625 -0.09952359 0.16110910 114 138 28
0.36493489 -0.10699683 0.16038108 115 139 0
0.35958594 -0.11257216 0.16287814 143 166 16
0.36585197 -0.10477685 0.16021372 115 143 0
0.35622299 -0.11674417 0.16247149 176 194 46
0.36132270 -0.11069544 0.16217716 105 133 0
0.35680798 -0.11686333 0.15119447 119 140 23
0.35630348 -0.11818191 0.15173805 114 139 19
0.35584426 -0.11960041 0.15619799 97 125 6
0.36584458 -0.10497000 0.16392735 74 103 0
0.36758891 -0.10210116 0.16616021 88 118 0
0.36516377 -0.07237788 0.14065900 57 106 0
0.36165276 -0.07467830 0.13896006 88 120 9
0.36923486 -0.06787190 0.13956855 65 116 0
0.36386731 -0.06936245 0.13958420 106 156 31
0.37027007 -0.07409894 0.14119266 93 137 2
0.36748546 -0.08205506 0.14258915 82 116 6
0.37008849 -0.07708956 0.14122681 89 127 0
0.37027097 -0.06031246 0.13724189 107 163 30
0.36545226 -0.07614270 0.14068772 88 129 0
0.37172854 -0.06958260 0.14004093 97 144 4
0.36077112 -0.08717062 0.13782424 131 142 12
0.35973212 -0.08133353 0.13634525 139 141 102
0.36257958 -0.08168404 0.13903251 87 104 0
0.36769214 -0.06349833 0.13808237 58 113 0
0.35117921 -0.09389956 0.12885687 130 137 59
0.34948906 -0.09414851 0.12824194 136 141 61
0.35601407 -0.10565371 0.13206327 51 73 8
0.35673329 -0.10035367 0.13204607 112 132 35
0.35653028 -0.11464929 0.14131838 80 106 17
0.35776404 -0.11956146 0.14389659 75 105 17
0.35584715 -0.09997597 0.12971759 111 134 28
0.35464457 -0.08862957 0.13119310 61 90 24
0.35587728 -0.08409529 0.13266134 147 155 54
0.35694742 -0.09431561 0.13369840 124 159 33
0.35647184 -0.09356142 0.13334444 132 162 40
0.35054949 -0.08728433 0.12965706 122 135 66
0.35692036 -0.08787403 0.13361409 164 174 41
0.35742548 -0.08790688 0.13430086 183 185 75
0.35833240 -0.09170331 0.13580492 138 146 37
0.35347533 -0.10558106 0.12758639 107 121 23
0.35504228 -0.10249674 0.12879065 145 165 44
0.35719061 -0.11716177 0.13591640 35 65 3
0.35617095 -0.11400647 0.13927008 62 88 14
0.35741067 -0.12092260 0.13729170 70 97 16
0.35663334 -0.12674618 0.13946359 83 106 18
0.35645345 -0.12498750 0.13667750 93 118 24
0.35398528 -0.12220968 0.12910046 4 15 37
0.34277290 -0.14120714 0.11809043 135 136 32
0.34697047 -0.13146925 0.12332583 75 46 90
0.34806210 -0.12952441 0.12371134 68 50 92
0.34711683 -0.12658797 0.12052121 53 64 48
0.34695554 -0.12886146 0.12136685 120 108 112
0.34587368 -0.12006250 0.11718502 75 85 24
0.34616929 -0.12034555 0.11718936 71 82 24
0.35242552 -0.12830491 0.13194573 45 71 32
0.35231736 -0.12684022 0.13043353 81 95 62
0.35206380 -0.12047829 0.12583657 64 57 91
0.34710249 -0.12018027 0.11831432 54 69 30
0.34732696 -0.11855951 0.11861524 87 101 22
0.35093415 -0.11053450 0.12388562 49 60 20
0.35310793 -0.12024723 0.12741254 39 38 70
0.34622023 -0.14219436 0.12654306 129 142 72
0.34557927 -0.14011130 0.12484080 69 81 43
0.34426168 -0.14436024 0.12200186 97 83 83
0.34325498 -0.14440830 0.11956626 94 82 68
0.34400624 -0.15100268 0.12202423 97 88 71
0.34019440 -0.14832392 0.11401388 90 112 27
0.34268922 -0.14717545 0.11871509 77 78 44
0.34959093 -0.12204922 0.12226090 89 104 19
0.34711155 -0.12328102 0.11914203 76 85 38
0.34526026 -0.11258236 0.11805270 96 107 31
0.34600779 -0.11417484 0.11834297 55 68 25
0.34845135 -0.11094883 0.12107795 67 81 28
0.33758873 -0.14919634 0.10561921 78 95 24
0.33656275 -0.15173154 0.10429434 125 144 29
0.33730820 -0.15481478 0.10956328 83 98 13
0.33486235 -0.15721735 0.10299946 124 138 24
0.33569372 -0.15988636 0.10534468 102 114 30
0.33532616 -0.16022350 0.10398392 84 101 21
0.33265212 -0.16051815 0.09808167 124 128 33
0.32898989 -0.16334374 0.08821137 162 158 58
0.32993925 -0.16008663 0.08869725 129 136 32
0.33206877 -0.15831116 0.09445319 142 144 45
0.33226117 -0.15842268 0.09520265 110 116 26
0.33056280 -0.16221359 0.09404324 151 154 51
0.33411095 -0.15520513 0.09876142 136 140 30
0.33319312 -0.15482801 0.09533904 111 115 28
0.33334240 -0.14807738 0.09656776 96 106 9
0.33558360 -0.14718217 0.10065667 110 124 26
0.32978237 -0.16473596 0.09392703 101 104 27
0.33135909 -0.14821662 0.09460735 126 128 19
0.32866123 -0.15405974 0.08952975 107 121 7
0.32485801 -0.15426606 0.08784649 147 159 11
0.32796681 -0.16155975 0.08659995 108 112 15
0.32636559 -0.15469992 0.08833250 147 157 8
0.32968366 -0.14915088 0.09253294 146 148 23
0.32786730 -0.15155393 0.09049897 136 142 16
0.32667461 -0.14511883 0.09350029 124 142 6
0.35600877 -0.10554436 0.13613859 85 112 33
0.35768205 -0.09915255 0.13529700 65 94 12
0.30422854 -0.17187859 0.08697445 42 72 0
0.30229086 -0.17768241 0.07999272 42 73 3
0.30346942 -0.17549095 0.08072687 55 82 3
0.30997360 -0.18902661 0.08152430 85 108 17
0.30560991 -0.18335165 0.08337404 64 85 18
0.30885890 -0.17934662 0.08800142 80 101 26
0.30585644 -0.17552584 0.08960716 66 89 19
0.30505401 -0.18503365 0.08180286 67 88 19
0.30500612 -0.16451283 0.09153777 49 77 0
0.30430952 -0.16226642 0.09326825 47 76 10
0.30481648 -0.16231366 0.09037677 42 72 0
0.31055576 -0.17108220 0.09420402 85 105 20
0.31213275 -0.17197569 0.09393419 92 111 19
0.30829582 -0.17432745 0.09146916 63 84 15
0.30367163 -0.21223493 0.09206764 153 165 3
0.30339810 -0.21266791 0.09314749 161 168 3
0.30750918 -0.22261161 0.10268812 197 205 6
0.30149212 -0.22271393 0.12063992 136 179 11
0.30340201 -0.22086014 0.11434864 151 179 0
0.30247289 -0.21631084 0.10376002 157 178 0
0.30795556 -0.22387820 0.11393149 160 186 3
0.30023527 -0.21826538 0.11129665 88 128 0
0.29849148 -0.21905388 0.11204456 69 108 2
0.29794002 -0.22432852 0.11693719 110 149 0
0.29483825 -0.22461194 0.12150501 126 159 0
0.29671004 -0.21447563 0.10333299 156 187 6
0.29175243 -0.21655451 0.11699241 145 171 18
0.29401270 -0.21687031 0.11618017 129 158 6
0.31300354 -0.17211927 0.13773341 220 230 22
0.31804428 -0.17100328 0.13577169 193 210 33
0.27140319 -0.20980780 0.10034204 145 169 23
0.36792222 -0.09254848 0.16128688 119 145 20
0.36681417 -0.08812684 0.16023524 146 167 72
0.36544523 -0.08883102 0.16143131 155 182 75
0.33708459 -0.16046044 0.11269048 62 78 41
0.33643436 -0.16058503 0.10814619 74 90 27
0.33595955 -0.16191876 0.10626174 93 103 32
0.33534718 -0.16972347 0.11711874 99 100 58
0.33402956 -0.16678426 0.11210456 91 96 42
0.33284277 -0.17012747 0.11501802 69 73 48
0.32419753 -0.15986057 0.09602740 91 100 17
0.32408151 -0.16331498 0.09162426 101 101 1
0.32939979 -0.16381350 0.10678992 119 119 47
0.32826382 -0.16250999 0.10881221 77 78 46
0.32329264 -0.17280462 0.08284109 121 125 5
0.32277411 -0.17558800 0.08248331 152 145 13
0.32094529 -0.15799794 0.10351312 128 134 46
0.32395741 -0.15897833 0.10809715 123 113 60
0.36165687 -0.09748726 0.14613348 126 139 34
0.32077155 -0.16891024 0.08669544 137 135 12
0.31967020 -0.15932821 0.10062096 95 108 28
0.31821692 -0.16638161 0.09423897 118 131 23
0.32990956 -0.16619925 0.10023990 116 121 29
0.31916225 -0.17287868 0.08806136 139 148 29
0.31940818 -0.17003898 0.08939921 124 131 27
0.31522319 -0.16300692 0.10071833 98 120 19
0.31709871 -0.16312672 0.09860183 90 105 24
0.32648748 -0.16113375 0.09984604 94 102 29
0.32812512 -0.16271296 0.10296079 98 99 33
0.31436351 -0.17664073 0.09018163 97 118 17
0.31284231 -0.17388622 0.09274743 114 137 23
0.31757390 -0.17391531 0.09052200 125 142 30
0.31716064 -0.17072450 0.09254915 119 137 27
0.31923595 -0.16464847 0.09357020 103 113 26
0.32261145 -0.16295214 0.09134409 132 136 26
0.30650750 -0.22723028 0.12575909 110 142 0
0.30590934 -0.22837344 0.12588987 110 142 0
0.32491356 -0.18886478 0.12456001 221 233 9
0.32212156 -0.19151062 0.11990403 188 206 0
0.32434869 -0.19152650 0.12191424 235 239 18
0.28375286 -0.21614031 0.09625069 78 103 0
0.28253365 -0.21255876 0.09792595 103 128 0
0.28159255 -0.20314464 0.10148086 184 210 1
0.28247318 -0.20745000 0.09990882 131 154 2
0.27672258 -0.20648189 0.10146003 80 96 0
0.28154528 -0.19901061 0.10419773 188 214 1
0.28947106 -0.20342198 0.09706254 176 197 4
0.28524190 -0.20222594 0.10093457 183 206 1
0.29001021 -0.19605690 0.10441970 174 196 0
0.28778574 -0.19650328 0.10474738 181 206 3
0.31006253 -0.07009183 0.14322689 192 217 11
0.31508803 -0.07594027 0.14196500 169 197 0
0.31442934 -0.07521427 0.14225586 202 224 17
0.31795201 -0.07626127 0.14081804 154 201 0
0.36670321 -0.09081136 0.14877661 143 155 31
0.36906868 -0.08824566 0.15165690 130 146 39
0.36710337 -0.09256396 0.15201657 153 170 38
0.36694965 -0.10061742 0.15786009 143 164 37
0.36817777 -0.09273836 0.15974076 115 133 23
0.36830553 -0.09189296 0.15676810 115 133 23
0.36829042 -0.09190666 0.15665662 115 133 23
0.36379519 -0.09823782 0.15132523 133 148 31
0.36123532 -0.10345904 0.14770983 94 109 28
0.32592997 -0.08557527 0.14024648 121 160 19
0.32297409 -0.08549874 0.13932770 109 157 19
0.32843047 -0.18207906 0.07990110 152 150 41
0.32344025 -0.17448702 0.08210350 121 130 0
0.32236278 -0.17818694 0.08095914 128 140 6
0.34111130 -0.12819465 0.15711971 214 230 97
0.34191746 -0.12933448 0.15597680 218 228 115
0.35839659 -0.07605344 0.13598518 87 112 46
0.36008364 -0.06782698 0.14011288 131 161 63
0.31842208 -0.16642314 0.09363121 107 120 15
0.30876642 -0.18783271 0.08160630 85 108 20
0.30614603 -0.18923627 0.07927829 84 110 21
0.29131499 -0.22614773 0.12604158 179 196 19
0.29268822 -0.22700383 0.11949781 119 147 0
0.29443336 -0.22966601 0.12183730 120 147 4
0.28801128 -0.23142643 0.13608477 189 211 2
0.29413983 -0.23096241 0.13034394 127 146 0
0.34077117 -0.10334135 0.12166917 80 112 0
0.34115961 -0.10157935 0.12633374 124 158 12
0.29537803 -0.22030835 0.11666806 130 162 0
0.31653538 -0.15368912 0.10895842 72 100 0
0.31712249 -0.15526812 0.10858891 83 100 22
0.30455935 -0.14986464 0.10895922 70 104 9
0.30477116 -0.14918792 0.11000131 81 110 17
0.30508143 -0.16444050 0.09835911 80 107 14
0.30477580 -0.15525493 0.10509367 74 101 4
0.31605601 -0.14806402 0.11468942 85 114 4
0.31298420 -0.14772309 0.11502915 73 95 0
0.31312320 -0.15052527 0.11214378 64 91 0
0.31127474 -0.14884625 0.11386611 88 109 8
0.31278560 -0.16671379 0.09774115 109 127 27
0.31094408 -0.16382451 0.09935009 82 96 17
0.30682576 -0.16748405 0.09587378 103 127 31
0.31802562 -0.15275541 0.11989668 108 119 15
0.31931949 -0.15438755 0.11688188 164 175 45
0.33334136 -0.13346499 0.15314682 174 197 54
0.32583526 -0.13778216 0.15093923 213 235 108
0.32930720 -0.13584712 0.15195040 211 235 111
0.33016673 -0.13129368 0.15285555 218 240 129
0.31522620 -0.16499005 0.14223257 222 231 50
0.31573254 -0.16372034 0.14275117 194 209 30
0.33013159 -0.12350171 0.15273230 173 208 46
0.32487044 -0.13669126 0.15053096 206 227 100
0.32945490 -0.12586127 0.15264967 183 212 58
0.30677134 -0.16685236 0.14422861 218 226 125
0.30640635 -0.16054988 0.14521837 221 231 132
0.30765250 -0.16093896 0.14515088 213 227 130
0.31104589 -0.16360050 0.14473163 232 236 89
0.37805465 -0.06329873 0.14138740 114 140 69
0.37709716 -0.06607164 0.13786796 40 72 7
0.37930334 -0.05918870 0.14153974 116 139 69
0.38883051 -0.04785382 0.12861253 64 99 33
0.39074868 -0.04518367 0.12753148 89 122 41
0.38521412 -0.05320805 0.12928928 52 90 29
0.38078246 -0.05675235 0.13186865 28 71 0
0.35916430 -0.10368822 0.14483415 95 124 18
0.35967830 -0.09224459 0.13741452 120 137 22
0.36316812 -0.08848856 0.14130005 70 96 0
0.36072922 -0.09894923 0.14579698 120 130 44
0.32690322 -0.07779303 0.14045483 127 163 29
0.31735948 -0.15018912 0.12007451 122 129 33
0.31732491 -0.15061828 0.12050282 113 121 18
0.36439750 -0.06530793 0.15250412 144 174 74
0.36588842 -0.06547637 0.15221353 157 186 80
0.37144646 -0.06045176 0.14783666 144 170 83
0.35755453 -0.08075837 0.15863182 135 171 47
0.35673788 -0.08629147 0.16021894 113 157 46
0.36818239 -0.05661884 0.14779343 135 170 80
0.36666965 -0.05543667 0.14828230 94 121 80
0.36647034 -0.06112973 0.15042934 125 157 74
0.32423866 -0.15973409 0.11348794 91 77 64
0.31710893 -0.15316477 0.12273151 114 125 5
0.32475528 -0.16541496 0.08509474 175 183 9
0.32385176 -0.16550565 0.08519530 168 177 10
0.31940973 -0.16300547 0.08591394 115 127 0
0.37696132 -0.06571524 0.14299855 86 112 38
0.37421012 -0.07258812 0.14606811 85 113 36
0.36878547 -0.06849475 0.15237565 146 181 87
0.36831579 -0.06610347 0.15159911 138 167 75
0.36048779 -0.07146448 0.15559193 164 190 81
0.35949242 -0.07697915 0.15733236 137 174 61
0.36248195 -0.07774442 0.15756264 106 145 64
0.36280820 -0.08541577 0.16208790 118 165 35
0.36593294 -0.07484700 0.15595005 128 165 87
0.30824810 -0.19056946 0.11349048 195 214 11
0.30812871 -0.18983445 0.11442878 188 207 4
0.30225942 -0.19194525 0.10922365 198 210 6
0.30643895 -0.19265932 0.10995430 172 192 0
0.29777056 -0.19860303 0.10044257 182 194 0
0.29931223 -0.19943035 0.09952321 198 210 6
0.30033916 -0.19676991 0.10303687 194 207 6
0.29696307 -0.19513285 0.10469072 210 218 21
0.30244762 -0.19512965 0.10515549 215 225 6
0.30034825 -0.19186616 0.10884170 182 198 1
0.29369810 -0.20258190 0.09598023 189 199 16
0.29315981 -0.20158026 0.09732181 170 181 0
0.29543322 -0.20533974 0.09470877 194 205 27
0.30791718 -0.19721368 0.10517684 193 207 32
0.31048059 -0.19950251 0.10518043 169 191 4
0.31181169 -0.19931747 0.10666905 171 195 0
0.31376150 -0.20249526 0.10511655 193 211 11
0.30981284 -0.19640638 0.10788543 180 198 26
0.29656640 -0.20582938 0.09421238 162 175 0
0.29952803 -0.20863062 0.09273043 167 182 5
0.31608728 -0.19538777 0.11322426 192 210 4
0.31771374 -0.19807455 0.11154290 176 191 4
0.31333500 -0.19040781 0.11645749 186 203 35
0.31505701 -0.20122093 0.10754307 196 213 13
0.37507346 -0.05797285 0.14491546 133 158 75
0.37864685 -0.05547301 0.14173087 136 160 86
0.36021248 -0.06398863 0.15397976 126 161 77
0.36036429 -0.05823094 0.15301603 128 160 77
0.34111381 -0.11999609 0.15941435 195 216 87
0.35938531 -0.10324656 0.14505830 59 83 0
0.31597114 -0.16005471 0.12454092 156 178 7
0.31545177 -0.15869838 0.12520380 160 182 9
0.36960468 -0.08598454 0.14892839 100 114 17
0.32299349 -0.16780289 0.08421229 115 124 0
0.37269577 -0.07741618 0.14532033 67 98 18
0.37353438 -0.07435953 0.14617750 43 72 16
0.32373071 -0.16244179 0.11661275 125 137 27
0.32191503 -0.15872729 0.10887765 105 101 56
0.32005581 -0.15513057 0.11251926 144 154 42
0.31725499 -0.15652806 0.10750026 104 117 45
0.33513734 -0.11030109 0.11951696 85 114 0
0.33651388 -0.10549160 0.12403660 81 114 0
0.33993155 -0.16886404 0.12227622 89 100 32
0.38639954 -0.04508817 0.12388276 57 93 6
0.38629252 -0.04278225 0.12235372 99 138 23
0.31787398 -0.18640755 0.08595562 135 146 24
0.31489450 -0.18384512 0.08632019 131 147 38
0.35627103 -0.10816396 0.14234769 90 109 17
0.30246535 -0.21572289 0.09932848 147 163 0
0.30783179 -0.22156537 0.09995496 179 191 3
0.35774511 -0.10184339 0.14221458 76 104 17
0.36423522 -0.09424384 0.14747705 153 170 42
0.35852319 -0.09881783 0.14156593 114 139 37
0.36213642 -0.09306185 0.14338025 95 110 17
0.36012191 -0.09616510 0.14245172 124 133 26
0.34887844 -0.12817585 0.12398894 58 43 82
0.34366569 -0.13130689 0.11871105 145 133 73
0.35454413 -0.12019242 0.13020334 0 6 21
0.35588387 -0.11497127 0.13303469 5 5 29
0.35365185 -0.11647786 0.12854488 46 53 72
0.35385126 -0.10863756 0.12920044 40 65 23
0.35192731 -0.10813482 0.12543160 86 96 35
0.35584638 -0.11205012 0.13846564 34 67 12
0.35580793 -0.11118170 0.13824281 38 72 12
0.31899133 -0.09647328 0.13573647 73 117 0
0.31445500 -0.10130343 0.13441961 162 207 2
0.31547472 -0.09994189 0.13480929 147 194 2
0.33805194 -0.11159744 0.11719303 100 126 0
0.33758825 -0.10984744 0.11738430 96 126 0
0.33811432 -0.13054888 0.15591499 195 219 81
0.27743775 -0.20889883 0.10116035 105 120 1
0.30702898 -0.18091984 0.13031401 182 200 2
0.30422142 -0.17946845 0.13456680 177 194 4
0.29758382 -0.17630623 0.14206694 129 156 1
0.30227587 -0.17712231 0.13987198 194 207 14
0.30850062 -0.18546620 0.12226921 191 205 8
0.30664715 -0.18241778 0.12723602 188 207 3
0.30860665 -0.18709236 0.11954274 177 194 0
0.30844131 -0.17631222 0.13636515 203 215 9
0.30881217 -0.17801012 0.13376765 196 206 0
0.31115896 -0.17739487 0.13294561 219 226 9
0.31372350 -0.17990719 0.12901862 215 230 15
0.31041941 -0.18503653 0.12266357 175 194 4
0.30947641 -0.18106331 0.12937485 217 231 12
0.31367999 -0.18092097 0.12754776 212 227 20
0.29314750 -0.21705328 0.10035496 179 206 7
0.29161268 -0.21613762 0.09618237 116 143 2
0.29341155 -0.21274343 0.09598981 167 174 6
0.33217692 -0.16582556 0.10689854 78 89 33
0.29659873 -0.17095192 0.14336769 176 195 69
0.29845750 -0.16524877 0.14224596 144 175 38
0.30302516 -0.16465800 0.14472051 193 214 119
0.29981959 -0.16330865 0.14192668 144 178 40
0.30412155 -0.15877204 0.14212334 107 144 4
0.31417719 -0.14531718 0.14311479 98 142 3
0.31722468 -0.14089197 0.14190149 77 127 2
0.31769490 -0.14052771 0.14111774 75 126 7
0.32278985 -0.14008358 0.14984351 194 219 117
0.31467175 -0.14443283 0.14655283 168 192 20
0.31454971 -0.14357528 0.14544006 113 151 6
0.32136291 -0.13360821 0.14421853 110 159 7
0.30853960 -0.15207280 0.14183275 86 129 0
0.31113908 -0.14863192 0.14394616 119 160 2
0.31166786 -0.14916646 0.14174008 57 97 0
0.30648851 -0.15627910 0.14354931 109 146 7
0.30741501 -0.15378317 0.14322102 88 125 0
0.30817187 -0.15719584 0.10554843 85 109 15
0.31005350 -0.15276577 0.10986886 90 110 13
0.31353194 -0.15719096 0.10537006 86 107 16
0.30875170 -0.16328672 0.09950006 84 104 17
0.30652663 -0.15953065 0.10329373 84 110 11
0.31603193 -0.15753880 0.10494035 100 119 30
0.29242733 -0.21750793 0.11725932 141 169 9
0.28998306 -0.21896058 0.12118558 140 169 3
0.33207428 -0.15888758 0.14237738 220 237 71
0.32973477 -0.16271161 0.14086995 213 233 56
0.33155131 -0.16980642 0.13734610 225 240 61
0.33732557 -0.16856387 0.13724384 229 244 57
0.33507076 -0.17076218 0.13648471 216 232 64
0.33124703 -0.16806050 0.13819642 215 234 64
0.31871134 -0.16780846 0.13850160 203 215 55
0.31934255 -0.16805251 0.13849029 204 216 68
0.31857282 -0.17238805 0.13452828 201 215 68
0.31905144 -0.17116112 0.13573134 187 202 61
0.32605395 -0.18312036 0.12957063 194 213 0
0.32165235 -0.18135555 0.12875642 184 207 11
0.32257134 -0.18087927 0.12945271 195 214 8
0.32712057 -0.20266445 0.12181740 236 248 42
0.33077884 -0.19938727 0.12487394 244 251 47
0.33143958 -0.18327534 0.13290410 209 228 24
0.33486229 -0.18233033 0.13290833 250 254 71
0.33127430 -0.17816950 0.13435574 253 255 84
0.34046230 -0.17163394 0.13549405 230 233 58
0.33065960 -0.18062121 0.13371184 240 251 53
0.32831335 -0.20678377 0.12367059 253 254 54
0.34042591 -0.17534904 0.13481183 247 249 60
0.33850896 -0.18333963 0.13316447 255 255 89
0.33567363 -0.18653278 0.13224150 250 255 60
0.33862644 -0.18247874 0.13333057 255 255 87
0.33912972 -0.17548355 0.13462244 248 255 64
0.33542931 -0.20277818 0.12697527 253 253 41
0.33532774 -0.20727172 0.12560698 239 241 69
0.33096170 -0.21057180 0.12552735 254 252 45
0.33726820 -0.19412796 0.13046888 249 255 23
0.33755124 -0.19300519 0.13082954 248 255 27
0.33725017 -0.19546185 0.13009010 251 254 23
0.33960798 -0.16107073 0.13819245 215 223 58
0.34030709 -0.16733597 0.13659117 224 231 65
0.33860436 -0.15953955 0.13901642 192 207 46
0.33273861 -0.15490422 0.14297973 209 228 51
0.34015477 -0.16130072 0.13786294 227 234 60
0.32600635 -0.17106517 0.13726747 195 217 21
0.32588157 -0.16932534 0.13806847 191 213 27
0.32404447 -0.16669898 0.13934672 197 217 40
0.32668364 -0.16631742 0.13941060 196 218 29
0.32508799 -0.16731240 0.13902241 218 238 52
0.33024153 -0.18124473 0.13345623 245 253 46
0.32770863 -0.18204159 0.13129199 228 237 6
0.30552492 -0.20221968 0.09803460 177 193 8
0.30433849 -0.20809036 0.09317212 145 167 0
0.30760452 -0.20507774 0.09672172 151 167 0
0.30957317 -0.20318414 0.10020003 143 163 3
0.30966905 -0.20486856 0.09836340 138 157 5
0.31355065 -0.20263481 0.10475708 188 207 4
0.31338242 -0.20736969 0.09916216 174 183 2
0.29607156 -0.21371993 0.10069488 159 180 0
0.29912788 -0.21401736 0.09853178 148 165 0
0.27442586 -0.20094278 0.09772871 84 118 0
0.29797086 -0.20349179 0.09447894 176 187 0
0.30261815 -0.20688756 0.09343550 158 178 3
0.29699770 -0.21134397 0.09460510 171 181 7
0.29649422 -0.21136515 0.09469091 171 181 7
0.27999222 -0.19871140 0.10173185 170 190 7
0.30830738 -0.21124341 0.09283389 167 181 0
0.31125760 -0.21315850 0.09365157 171 175 3
0.27332956 -0.21217099 0.10045848 99 119 6
0.28125396 -0.19750154 0.10379742 211 234 30
0.28530875 -0.19239846 0.10606083 174 200 3
0.30876544 -0.20342548 0.09589172 94 105 36
0.29862356 -0.18120171 0.12462061 171 188 11
0.29586571 -0.17861491 0.12847260 136 162 3
0.29618061 -0.17863101 0.13078471 143 168 6
0.29948607 -0.17964932 0.13260706 170 189 9
0.30188295 -0.18215963 0.12788525 172 189 0
0.29688120 -0.17766683 0.13749194 168 192 10
0.29635215 -0.17698181 0.13994430 121 152 0
0.29359862 -0.17554821 0.13997224 125 150 0
0.29453397 -0.17637470 0.13636759 128 154 3
0.35796520 -0.10376927 0.17340851 158 181 47
0.36020535 -0.10034999 0.17154551 128 162 16
0.35841271 -0.09544156 0.16728656 115 154 0
0.35866216 -0.09110095 0.16328260 115 159 22
0.35574663 -0.09869131 0.16807577 116 155 2
0.35601279 -0.09259948 0.16285324 80 116 10
0.36101487 -0.09649594 0.16898687 103 133 9
0.35931969 -0.09341739 0.16628404 107 148 7
0.36359316 -0.09350692 0.16681510 114 151 12
0.33586323 -0.11332735 0.15461800 137 165 42
0.33572006 -0.11411552 0.15517139 154 183 67
0.33864164 -0.10548039 0.15299770 109 153 0
0.33820149 -0.10802045 0.15484208 105 138 7
0.32481158 -0.12884711 0.14869356 135 168 0
0.33492205 -0.12192411 0.15601788 183 205 79
0.34356061 -0.10763470 0.16005535 170 201 82
0.34319437 -0.10398787 0.15895715 136 164 54
0.32582080 -0.12699085 0.14697114 98 139 7
0.32679871 -0.12520851 0.14790322 115 161 1
0.32773453 -0.12337702 0.14772360 106 156 7
0.32743996 -0.12379453 0.14642671 74 125 0
0.32852492 -0.12155551 0.14523429 100 149 6
0.33270726 -0.11546520 0.15003017 96 145 0
0.32796645 -0.12446977 0.15014361 115 153 5
0.33316603 -0.11726119 0.15235785 144 181 15
0.30895156 -0.21627724 0.09361186 175 181 13
0.31134489 -0.21538566 0.09432729 181 188 12
0.30759603 -0.21924977 0.09397455 174 185 0
0.33558244 -0.11544040 0.15579323 187 212 108
0.33427069 -0.11786968 0.15539183 186 212 103
0.33862439 -0.11081582 0.15695827 235 255 168
0.31384617 -0.22057876 0.09887184 159 166 1
0.31312272 -0.21356794 0.09461436 186 186 2
0.31446767 -0.21645090 0.09831119 163 172 0
0.32304686 -0.13132040 0.14337060 89 131 5
0.30280009 -0.21848164 0.11051907 154 186 1
0.30418828 -0.22009675 0.10729028 182 197 10
0.30764529 -0.15562221 0.13811615 67 114 2
0.35728770 -0.11031742 0.14516848 82 103 10
0.35485500 -0.12631719 0.14611666 111 131 32
0.35644975 -0.12275000 0.14791512 41 72 13
0.35268873 -0.13260385 0.14114396 102 126 28
0.35133335 -0.13453500 0.14155182 97 121 27
0.34843215 -0.13497369 0.14584559 177 193 22
0.34551904 -0.13292140 0.15147020 177 193 25
0.35205123 -0.13175112 0.13529541 96 117 16
0.34975561 -0.13243233 0.13231376 89 119 29
0.34891263 -0.13185470 0.12899350 78 73 79
0.35124451 -0.13274266 0.14475831 104 130 31
0.35162073 -0.13429190 0.13889091 130 148 26
0.34915200 -0.13806640 0.14093496 131 154 24
0.34750330 -0.14270481 0.13629200 150 167 29
0.34761843 -0.14394712 0.13706957 135 148 17
0.34491670 -0.14243025 0.14220735 186 199 49
0.34519386 -0.13640799 0.14800176 153 172 30
0.34341648 -0.13075820 0.15441477 216 229 89
0.34402853 -0.12637565 0.15790959 212 225 119
0.35070071 -0.13011417 0.14885299 168 186 38
0.35129616 -0.12640668 0.15321235 169 184 41
0.34806168 -0.12424298 0.15831874 217 229 95
0.34951839 -0.12769081 0.15347546 193 210 36
0.35157591 -0.12308431 0.15638314 186 204 24
0.34137917 -0.15871523 0.13701952 191 201 40
0.34056160 -0.16514975 0.13683031 236 239 72
0.34563169 -0.15202262 0.12962067 143 154 36
0.34597716 -0.14905727 0.13221425 143 152 27
0.34419689 -0.15271325 0.12266893 116 117 59
0.34219712 -0.15603866 0.12130225 63 72 43
0.34298959 -0.15864013 0.12309273 145 151 43
0.34614095 -0.14597268 0.12939036 107 129 31
0.34660599 -0.14679043 0.13521878 161 173 35
0.34502813 -0.15605147 0.13320459 175 177 32
0.34557214 -0.15257733 0.13442582 169 171 26
0.34563580 -0.15205394 0.13464768 171 175 28
0.30595636 -0.22424512 0.10911060 160 180 3
0.36987984 -0.08636823 0.15075240 67 88 19
0.32657182 -0.15179230 0.14610511 191 208 70
0.32750520 -0.15485039 0.14500488 212 230 94
0.32348478 -0.14223956 0.14957863 222 238 113
0.32552370 -0.15275358 0.14604600 225 239 118
0.32409132 -0.15462288 0.14580157 230 241 145
0.38392422 -0.05462268 0.13204846 48 84 22
0.38225427 -0.05744119 0.13219832 37 77 14
0.38498506 -0.05298977 0.13160634 42 76 16
0.32335228 -0.18512784 0.12677722 217 229 7
0.32085556 -0.18563104 0.12460374 202 221 7
0.32256925 -0.18484364 0.12651803 222 234 14
0.28700313 -0.19243002 0.10734939 179 203 5
0.29421529 -0.18286008 0.11385067 150 180 7
0.28864169 -0.19446664 0.10624845 185 210 5
0.29233748 -0.19260395 0.10633127 179 195 0
0.29481670 -0.18213402 0.11678248 127 158 5
0.38038379 -0.05917896 0.13590994 48 80 13
0.37985292 -0.06023758 0.13545595 65 105 16
0.31466523 -0.19135712 0.11574480 167 183 24
0.31512615 -0.19319277 0.11453402 164 182 18
0.31266701 -0.19768167 0.10796011 176 192 41
0.31706765 -0.20192476 0.10662121 1 2 0
0.31730032 -0.20239711 0.10603713 2 0 1
0.31853670 -0.19120486 0.11864460 162 181 4
0.31820330 -0.19606364 0.11404146 182 198 37
0.31724477 -0.19602109 0.11344197 172 190 20
0.31459889 -0.20120300 0.10602177 169 185 78
0.30863208 -0.20117344 0.09973517 130 151 24
0.31438866 -0.20304987 0.10256016 166 177 99
0.31287593 -0.20363531 0.10016606 154 164 91
0.31421843 -0.20565844 0.09775250 82 77 73
0.31760886 -0.19834946 0.11136086 182 196 38
0.32642651 -0.18850213 0.11957452 179 184 38
0.32413730 -0.18969896 0.11999449 178 186 48
0.29735908 -0.21348585 0.11193497 89 129 0
0.29697317 -0.21200036 0.11236869 80 120 0
0.30324784 -0.17784809 0.08380924 67 89 14
0.30455336 -0.18273848 0.08330357 66 88 16
0.30213520 -0.18229841 0.07784052 42 68 0
0.30422550 -0.17436157 0.08873916 87 110 28
0.32907695 -0.18856487 0.08131814 159 147 35
0.32234076 -0.19314146 0.08273575 147 151 28
0.32211149 -0.18732169 0.08310732 157 160 43
0.32318369 -0.18887140 0.08327773 118 122 0
0.31354970 -0.19255513 0.08137727 101 121 24
0.31266773 -0.18835171 0.08358744 106 123 27
0.32779697 -0.18389040 0.08024453 163 158 30
0.32056627 -0.18400404 0.08280069 162 159 30
0.31988487 -0.18306309 0.08396176 121 126 8
0.32009390 -0.18480782 0.08330746 148 147 20
0.12529099 -0.20707853 0.18294437 96 137 31
0.12678646 -0.20759602 0.17954770 62 96 20
0.14798005 -0.19653097 0.16171198 168 211 10
0.25554952 -0.21132402 0.11384875 131 157 0
0.25724366 -0.20890972 0.10989377 200 218 22
0.25904354 -0.21218660 0.11118787 180 198 38
0.17652862 -0.19279000 0.17485473 135 165 65
0.26129717 -0.23648253 0.10939308 110 125 0
0.25879940 -0.20697868 0.10575294 148 174 13
0.25846323 -0.20732062 0.10650018 138 164 5
0.25396323 -0.20837939 0.11242721 193 211 11
0.25553143 -0.20710698 0.10860498 128 150 3
0.27145573 -0.23317690 0.09779717 86 107 4
0.27283019 -0.23196176 0.09433136 62 79 0
0.22191773 -0.23734659 0.14450072 197 222 6
0.20665064 -0.21006437 0.16612311 127 168 2
0.21080105 -0.21404316 0.16441049 151 176 0
0.11831303 -0.20228130 0.18306468 112 154 28
0.11614200 -0.20030050 0.18656670 79 120 16
0.25616375 -0.21089418 0.11125501 144 171 28
0.25109214 -0.21073142 0.12788127 134 157 0
0.25122401 -0.20991996 0.11923484 141 161 10
0.25537759 -0.21636738 0.12069505 185 208 30
0.25621611 -0.21780339 0.12213957 163 185 14
0.25074071 -0.20589337 0.12176859 148 180 9
0.25044739 -0.20661411 0.12472685 133 159 10
0.25062007 -0.20725077 0.12110820 146 176 3
0.25186321 -0.20338051 0.11735723 102 136 0
0.25112346 -0.20349586 0.12203614 90 117 0
0.25124756 -0.20596609 0.11764593 124 158 1
0.26202396 -0.21789277 0.11245114 195 213 31
0.26067907 -0.22165079 0.11663488 157 183 0
0.25058961 -0.19767976 0.12623996 81 117 7
0.17542538 -0.20842907 0.15461802 100 141 0
0.17448336 -0.21076794 0.15546799 155 189 6
0.26115650 -0.20534776 0.10212459 159 184 57
0.25928095 -0.20495802 0.10270001 154 174 49
0.22153348 -0.23205051 0.13489386 165 188 9
0.20019224 -0.20483531 0.16449200 99 141 0
0.19800265 -0.20349213 0.16348965 115 156 2
0.26363072 -0.20504823 0.10100204 162 189 34
0.25554982 -0.20674261 0.10765487 182 214 71
0.23374394 -0.22938626 0.12755440 113 139 32
0.23513383 -0.22926255 0.12961960 72 101 0
0.23816867 -0.22930053 0.12754807 74 101 4
0.26959795 -0.20549475 0.09920824 163 196 45
0.25824392 -0.21367037 0.11357775 212 223 69
0.25819120 -0.21548982 0.11605012 170 184 1
0.25310990 -0.21208379 0.11770379 199 217 47
0.24421029 -0.23113835 0.11684616 126 142 7
0.24629994 -0.23214668 0.11578019 108 123 0
0.12174192 -0.19717002 0.17999803 118 156 17
0.12037718 -0.19258600 0.18460180 121 155 17
0.25388834 -0.22841859 0.12106521 201 216 13
0.25564137 -0.22827704 0.11948836 172 191 1
0.18916373 -0.21986407 0.15906698 129 167 0
0.18659179 -0.22220103 0.16014922 35 78 0
0.26049322 -0.20322233 0.10035300 215 236 105
0.26145086 -0.20366651 0.10059925 169 195 44
0.24571276 -0.20253570 0.13062443 163 188 35
0.24571931 -0.20388404 0.13069658 188 202 44
0.25292701 -0.21817291 0.12451980 169 193 0
0.24738225 -0.21660192 0.12737308 176 203 4
0.18967275 -0.21581149 0.15761803 131 164 0
0.18004620 -0.21522343 0.15636963 143 177 2
0.12428507 -0.20601308 0.17893557 82 110 36
0.12041829 -0.20598474 0.18128641 138 167 49
0.13463055 -0.19901739 0.17162518 122 161 8
0.24809448 -0.23326838 0.11377415 118 133 4
0.24381709 -0.23198645 0.11306278 149 163 14
0.19195282 -0.22940497 0.16325766 38 80 4
0.19020575 -0.22934411 0.16467957 59 100 8
0.24064422 -0.22948804 0.11844080 133 158 14
0.25383550 -0.21579935 0.12497889 160 180 0
0.25399172 -0.21639870 0.12468743 175 195 2
0.25044510 -0.21135069 0.12800802 174 199 19
0.14005123 -0.20015137 0.16743167 85 125 0
0.22499853 -0.20673575 0.12929729 89 131 0
0.21926022 -0.20996433 0.14574343 113 137 0
0.21874543 -0.20547795 0.14500768 157 183 0
0.17614380 -0.21673441 0.16703849 99 123 49
0.18074255 -0.22026716 0.16877060 103 132 48
0.17685662 -0.21593511 0.16863126 78 104 43
0.12345123 -0.18670990 0.17930149 101 144 3
0.12747002 -0.20111676 0.17453666 81 119 10
0.12167943 -0.19810173 0.17961594 160 197 21
0.11825231 -0.19889350 0.18632054 124 161 30
0.13543065 -0.20278640 0.18404835 136 171 15
0.13877103 -0.20401043 0.18218744 127 163 27
0.20916513 -0.20422632 0.16296910 140 167 0
0.21547514 -0.20526251 0.15722094 164 187 9
0.21461585 -0.20553648 0.16167153 130 156 7
0.21898811 -0.21196195 0.14459807 165 189 3
0.22264007 -0.23369451 0.13967171 190 203 0
0.21857941 -0.21509458 0.14832194 142 168 0
0.21737368 -0.23870549 0.15454295 129 166 0
0.21880282 -0.21648890 0.15228401 166 199 4
0.22330882 -0.22511172 0.13425311 134 160 0
0.22247964 -0.21779327 0.13319893 167 194 17
0.18655172 -0.19048677 0.16615833 90 125 5
0.22158420 -0.23084086 0.15225577 128 164 0
0.21951972 -0.23370060 0.15445673 173 202 0
0.21902436 -0.23096950 0.15630166 132 165 0
0.22040270 -0.23536327 0.14939910 149 176 1
0.21729845 -0.23611377 0.15647955 120 154 0
0.21944436 -0.21933812 0.15344854 112 141 0
0.22027123 -0.22035520 0.15243523 106 141 0
0.22334816 -0.23585322 0.14394040 202 222 9
0.23544021 -0.22973908 0.12006651 107 130 0
0.20000026 -0.20857887 0.16303062 173 206 3
0.19815001 -0.20973186 0.16135159 154 183 0
0.20501375 -0.22034295 0.16324548 169 196 3
0.20667613 -0.22009243 0.16378708 209 227 1
0.20353068 -0.21887803 0.16286741 198 218 7
0.20419957 -0.21391055 0.16427588 180 204 6
0.20424134 -0.20994453 0.16558538 135 167 0
0.23778346 -0.22904535 0.11825348 82 108 0
0.10178611 -0.19216162 0.17340051 111 148 16
0.12469660 -0.19474615 0.17646457 87 127 0
0.12924008 -0.19378532 0.17293628 139 176 18
0.21251981 -0.23632011 0.15990256 160 196 12
0.11165217 -0.20232926 0.18718530 111 147 51
0.21102941 -0.21958297 0.16423015 192 210 2
0.21003620 -0.21740453 0.16474915 200 221 4
0.14106779 -0.19733168 0.18533406 150 190 6
0.13853911 -0.19942285 0.18577914 101 141 0
0.13726497 -0.20006225 0.18597858 122 160 0
0.21168810 -0.20919719 0.16439554 164 204 20
0.14079186 -0.19880359 0.16650751 128 155 22
0.21395986 -0.20859231 0.16338800 157 189 4
0.23321690 -0.20519416 0.12948334 156 177 0
0.23637135 -0.20325211 0.13144715 148 173 0
0.23296505 -0.20130447 0.13170120 135 170 5
0.23298451 -0.21951254 0.12651138 193 205 17
0.21692392 -0.22749096 0.15806396 166 185 0
0.21287483 -0.22792231 0.15984662 169 191 0
0.21808192 -0.22721635 0.15756324 153 173 0
0.25330597 -0.22303520 0.12371427 124 158 0
0.25103521 -0.22586538 0.12428169 144 166 0
0.12673695 -0.18817772 0.18311101 110 150 17
0.13623710 -0.19178249 0.18528350 104 149 7
0.12768005 -0.18892278 0.18349369 126 164 29
0.11944158 -0.18831606 0.18221530 90 125 21
0.12094791 -0.18484756 0.18081494 106 137 34
0.12204831 -0.19869888 0.17869641 167 202 22
0.24513951 -0.23004314 0.11428542 165 180 3
0.23981868 -0.22759560 0.12126385 131 152 11
0.25906682 -0.23390606 0.11331305 198 212 37
0.26411107 -0.23406863 0.11049692 108 123 0
0.14861372 -0.20360309 0.16242000 106 140 4
0.24597941 -0.21858007 0.12691532 116 150 4
0.24411802 -0.22180058 0.12570566 150 173 0
0.24794848 -0.23651160 0.10648724 115 131 0
0.23833239 -0.21075600 0.12916689 171 204 3
0.11317820 -0.19984730 0.18778181 87 136 29
0.11446172 -0.19940798 0.18746054 63 106 26
0.13805795 -0.19163546 0.16997132 125 164 0
0.17446770 -0.21401964 0.16831847 64 92 34
0.15900651 -0.18271436 0.16595839 57 96 5
0.12958676 -0.20193750 0.17441870 93 127 14
0.12934098 -0.20283131 0.17492422 105 145 20
0.15516043 -0.17738423 0.17446682 62 91 27
0.15595496 -0.17775235 0.17424716 62 91 25
0.24841182 -0.20979424 0.12917820 184 204 11
0.24795406 -0.21184140 0.12867160 197 206 35
0.16957548 -0.18826093 0.17237964 136 168 67
0.17004319 -0.18841967 0.17105916 93 125 28
0.16506809 -0.18408899 0.16722362 72 105 36
0.15388258 -0.17925380 0.17023012 70 108 21
0.15640183 -0.18014714 0.17004308 58 89 29
0.15979417 -0.18066701 0.17320116 121 157 25
0.16328904 -0.18391357 0.17486283 119 152 39
0.16644871 -0.18561307 0.16952249 110 143 28
0.16448216 -0.18457113 0.17243423 64 99 5
0.16273579 -0.18347998 0.17586926 138 173 53
0.15740299 -0.18125167 0.18240528 182 209 104
0.16819854 -0.18868610 0.17699346 150 177 70
0.16946998 -0.18911538 0.17568794 157 185 74
0.25990492 -0.22468689 0.11656459 112 142 0
0.25324881 -0.19865309 0.13043459 127 163 31
0.25244227 -0.20514624 0.13086212 107 130 13
0.25281543 -0.19744645 0.12807985 88 113 0
0.25172266 -0.20502722 0.12935871 102 127 7
0.25037277 -0.20862259 0.12566493 191 203 31
0.25177443 -0.20778288 0.13277996 161 179 17
0.25125986 -0.21120469 0.13247272 182 187 22
0.24680807 -0.19716884 0.13193262 121 152 33
0.24460289 -0.19465391 0.13039778 95 126 32
0.24784988 -0.19504991 0.13076837 109 133 47
0.24706119 -0.20883721 0.12971291 177 199 13
0.23800318 -0.21804628 0.12622891 149 178 0
0.23507804 -0.21771352 0.12663531 162 189 0
0.25643396 -0.23058790 0.11831754 200 216 19
0.24470490 -0.22482611 0.12417514 200 216 21
0.24704018 -0.22531095 0.12433980 198 214 17
0.23275816 -0.21132886 0.12715304 103 140 0
0.23373497 -0.21130958 0.12717001 105 148 7
0.12531663 -0.20113370 0.18694462 97 146 18
0.15805201 -0.20731601 0.16916828 104 142 31
0.16116668 -0.20611146 0.17306961 121 153 26
0.26674533 -0.21957071 0.10687964 127 144 4
0.26657206 -0.21996385 0.10718552 118 136 0
0.23237836 -0.23042704 0.12367845 94 116 15
0.12566897 -0.19580710 0.18562862 100 144 5
0.12512924 -0.19653946 0.18596701 115 162 0
0.12042376 -0.19990247 0.18775792 121 177 8
0.13359892 -0.19315889 0.18548767 91 130 3
0.13142909 -0.19570331 0.18578121 96 139 0
0.15887719 -0.18481456 0.16491987 143 185 39
0.16046298 -0.18883666 0.16342875 160 198 17
0.16136011 -0.18744481 0.16340663 89 132 0
0.17051408 -0.19254771 0.15870480 121 161 12
0.21835032 -0.21225856 0.15933774 184 219 11
0.26661175 -0.22737671 0.10563836 68 92 0
0.26611146 -0.22595103 0.10717962 77 104 0
0.16628665 -0.19127809 0.16047435 136 173 16
0.11368190 -0.19069529 0.18394184 133 170 13
0.18358120 -0.22268333 0.16080025 18 65 0
0.18185604 -0.22027268 0.15964667 40 89 0
0.17021295 -0.21396421 0.16052732 39 74 16
0.17004177 -0.21408993 0.16122290 29 65 4
0.17982176 -0.22051582 0.16693622 73 98 41
0.18246557 -0.22222811 0.16273399 34 77 0
0.18406792 -0.22309057 0.16468796 52 85 6
0.20330149 -0.20424050 0.16666697 163 201 0
0.20173092 -0.20379449 0.16579419 148 189 0
0.19607353 -0.19948527 0.16299163 184 214 4
0.11645766 -0.19910106 0.18728240 79 120 26
0.23935744 -0.21357700 0.12787932 100 139 0
0.26440066 -0.23257563 0.11062890 120 143 13
0.22200836 -0.22978476 0.13085222 122 150 5
0.22436453 -0.22571322 0.13159497 149 175 6
0.14547458 -0.20634302 0.17121629 47 86 7
0.14562806 -0.20635369 0.17140500 47 86 7
0.11197276 -0.20205043 0.18862745 106 149 44
0.20381418 -0.22465225 0.16100876 128 167 0
0.20567462 -0.22504702 0.16096826 142 177 0
0.11272830 -0.20355509 0.18885818 137 178 60
0.16401352 -0.21048154 0.15953153 59 94 26
0.18521905 -0.18681931 0.16316904 118 147 55
0.17175983 -0.18576509 0.16180606 83 111 50
0.11899912 -0.19390538 0.18504430 116 157 3
0.10326026 -0.19588818 0.17741227 73 111 10
0.14972109 -0.20643134 0.16758259 53 90 12
0.15057494 -0.20637605 0.16662998 52 89 12
0.10907535 -0.19056329 0.18067433 146 179 12
0.22768554 -0.22614704 0.12774014 155 185 12
0.11923292 -0.20362501 0.18673277 103 150 46
0.12247626 -0.20614824 0.18525884 110 153 38
0.21824576 -0.20856130 0.13584867 187 209 10
0.21832661 -0.20544274 0.14226368 142 168 6
0.11705844 -0.20592798 0.18706951 121 164 48
0.10687377 -0.19877714 0.18553051 84 119 29
0.26475552 -0.20774126 0.10365058 166 189 0
0.26606873 -0.20799777 0.10312434 168 193 13
0.10649375 -0.19325705 0.17893293 101 140 11
0.09808850 -0.19307347 0.17134966 76 117 21
0.24741313 -0.22811079 0.12263372 127 148 0
0.24033619 -0.22580068 0.12257904 108 128 0
0.12311162 -0.19559424 0.17822003 86 121 0
0.12214331 -0.19348010 0.18082446 103 132 0
0.26276702 -0.22694321 0.11280758 121 149 13
0.26035255 -0.22701347 0.11553699 131 158 1
0.27418897 -0.20914917 0.09813495 103 132 0
0.27466756 -0.20939739 0.09747691 94 123 5
0.26389626 -0.22789089 0.11094809 81 107 6
0.26418212 -0.21375649 0.10866490 215 228 78
0.26921612 -0.21054278 0.10328723 192 216 32
0.11276419 -0.19597155 0.18624289 123 165 21
0.22242375 -0.22728932 0.13713390 135 166 2
0.22283714 -0.23253770 0.14019211 179 186 0
0.26510966 -0.21714450 0.10822368 188 204 20
0.26929399 -0.21705636 0.10406341 116 134 0
0.26971072 -0.21989739 0.10371853 109 132 0
0.16909699 -0.21216476 0.15784071 82 123 1
0.17369846 -0.21334568 0.15697439 143 180 22
0.24280886 -0.22985217 0.11074544 136 154 0
0.12459166 -0.18272884 0.17650990 116 154 6
0.12629372 -0.18612310 0.17538664 107 142 38
0.12757622 -0.18729044 0.17496154 125 162 56
0.11883424 -0.18618700 0.18182613 74 111 0
0.11491966 -0.19858959 0.18684305 90 127 24
0.25178263 -0.19878429 0.13112228 129 168 17
0.14295109 -0.19084874 0.16865490 163 194 0
0.14565100 -0.19127275 0.16748038 158 188 0
0.22562198 -0.20395105 0.12859288 129 168 1
0.22899674 -0.20699209 0.12735203 109 153 4
0.20642492 -0.24209079 0.16516916 81 120 0
0.20162715 -0.23763987 0.16796041 68 96 37
0.14303845 -0.18498279 0.17101316 159 187 6
0.14180297 -0.18943033 0.16991928 140 178 5
0.27232313 -0.20644982 0.09890535 193 224 32
0.14868659 -0.19296886 0.16490123 167 196 7
0.15062335 -0.19553788 0.16192862 146 184 3
0.15809944 -0.18472242 0.16519955 120 159 18
0.15504462 -0.20734979 0.15875703 84 119 15
0.15186454 -0.20694850 0.16115874 71 100 18
0.15940395 -0.19456275 0.16178243 167 196 8
0.15495151 -0.19856709 0.15883692 143 187 12
0.15554075 -0.19492936 0.16167499 102 137 0
0.15387426 -0.19054392 0.16629452 167 204 3
0.15369311 -0.19145559 0.16538727 134 171 3
0.15410013 -0.18278219 0.16764414 126 172 3
0.15376227 -0.18130118 0.16797613 129 177 0
0.12948436 -0.20632324 0.17666598 59 85 38
0.22991897 -0.23014851 0.12598027 92 120 20
0.23142715 -0.23047173 0.12490191 119 148 32
0.15162377 -0.18862407 0.16853391 125 172 0
0.16262540 -0.19403230 0.16116506 125 165 6
0.16562080 -0.19395381 0.15999520 91 130 0
0.19087523 -0.20403261 0.15935977 155 191 7
0.18897842 -0.20316225 0.15876484 148 181 4
0.18974212 -0.21234038 0.15745488 167 198 8
0.18912931 -0.20163947 0.17704275 211 233 161
0.18293542 -0.19557837 0.17551908 133 165 80
0.17875744 -0.20834731 0.15506566 128 163 0
0.17732731 -0.21066594 0.15512027 176 204 5
0.17035809 -0.19858119 0.15749353 148 183 5
0.18323579 -0.21317250 0.15634981 127 168 2
0.18019815 -0.21268468 0.15591606 143 181 6
0.14324336 -0.18377310 0.17123976 147 183 11
0.14769696 -0.18588762 0.17003386 98 133 0
0.17682549 -0.20618090 0.15448833 142 180 5
0.17776248 -0.20555259 0.15509583 116 160 3
0.17268826 -0.19844101 0.15774086 102 136 0
0.19501548 -0.18674701 0.16519120 162 195 30
0.13251744 -0.19326881 0.17123951 91 128 0
0.18985009 -0.18617824 0.16514169 80 117 12
0.17554343 -0.20300476 0.15599553 133 168 4
0.19940202 -0.21327609 0.16124868 211 228 10
0.19309963 -0.19913512 0.16131447 125 173 3
0.19570437 -0.19493683 0.16355169 187 217 9
0.19336049 -0.19660643 0.16195211 181 210 8
0.19777811 -0.18854730 0.16123296 149 188 21
0.24255371 -0.21567528 0.12731476 113 152 0
0.16437215 -0.20930049 0.16769132 85 120 30
0.16141024 -0.20986722 0.16460608 98 131 42
0.18710200 -0.19565375 0.16167475 142 183 0
0.19233629 -0.19368650 0.16261914 180 211 9
0.18518728 -0.19326900 0.16234262 166 202 8
0.19317615 -0.19006792 0.16384882 145 178 0
0.18629709 -0.19587730 0.16153805 130 177 3
0.18316284 -0.19597547 0.16096225 97 140 0
0.18475583 -0.19057855 0.16303328 136 175 8
0.18564919 -0.18851450 0.16320838 111 153 17
0.17769033 -0.18679322 0.16175437 77 106 40
0.18155174 -0.20284897 0.15756221 181 202 1
0.18450624 -0.20544344 0.15688139 132 171 2
0.18070821 -0.20055357 0.15846466 152 187 7
0.25504616 -0.20416096 0.10468055 116 145 3
0.17295015 -0.21086021 0.17185536 126 150 38
0.19664255 -0.19015650 0.16433546 161 187 2
0.19997236 -0.19003108 0.16257092 120 160 0
0.17209508 -0.19244237 0.15915725 132 168 20
0.13701870 -0.20122594 0.18509929 153 188 8
0.14204152 -0.20437212 0.18127763 116 150 38
0.14241086 -0.20523883 0.18031189 129 167 20
0.13995363 -0.19315208 0.18530458 103 144 14
0.14227949 -0.19359905 0.18511458 104 148 11
0.15902232 -0.20476373 0.17696697 108 137 21
0.15813568 -0.20387971 0.18028365 114 145 25
0.14652954 -0.20577621 0.17938353 114 155 17
0.13141890 -0.20679034 0.17899449 63 106 14
0.12992826 -0.20571312 0.18375213 100 136 66
0.14277205 -0.20624329 0.17688638 73 113 24
0.14154898 -0.20633395 0.17641182 78 121 6
0.13365367 -0.20347290 0.17388730 59 89 17
0.13274859 -0.20674774 0.17548171 63 91 40
0.16454461 -0.20608926 0.17501885 81 111 23
0.17910844 -0.19547361 0.16027550 114 149 0
0.17708959 -0.19688179 0.15905687 165 195 11
0.10143230 -0.19458868 0.17956105 76 108 41
0.09923714 -0.19049047 0.17365940 84 119 27
0.24613258 -0.23476480 0.10734885 128 138 0
0.10965967 -0.19533694 0.18475510 119 155 21
0.17637995 -0.19442685 0.17764775 140 171 78
0.25046867 -0.23306116 0.11203469 128 144 0
0.25346714 -0.23395394 0.11290011 158 177 7
0.16059196 -0.20989974 0.16204947 76 109 38
0.15658216 -0.20787194 0.16686293 70 105 13
0.18018945 -0.18818927 0.16453275 78 108 34
0.18181728 -0.18968730 0.16543290 117 149 50
0.16104212 -0.18399860 0.18054548 166 194 75
0.24036717 -0.22256422 0.12496281 195 210 21
0.23702320 -0.22553678 0.12338585 123 144 15
0.22804496 -0.22060129 0.12848087 210 219 38
0.22841126 -0.21779303 0.12897906 203 210 34
0.25385442 -0.23369880 0.11410001 146 164 2
0.24865402 -0.23145652 0.11406588 123 138 0
0.24813096 -0.23092528 0.11514208 126 145 0
0.13920708 -0.18554358 0.17136845 122 152 2
0.24197216 -0.22942080 0.11594484 130 144 5
0.25002316 -0.20759009 0.13543521 234 236 103
0.25283745 -0.21430385 0.12804006 154 169 6
0.12968737 -0.19035895 0.17357320 116 154 19
0.10632732 -0.19738047 0.18158408 83 123 8
0.15396598 -0.20716870 0.16514310 56 91 9
0.15169004 -0.20659208 0.16449252 34 68 7
0.26682308 -0.21306460 0.10449319 153 172 31
0.10800040 -0.19431369 0.18305665 110 153 22
0.17530334 -0.21132334 0.17349420 101 126 43
0.17881927 -0.21359299 0.17316623 123 148 54
0.16474651 -0.20507997 0.15623496 125 173 0
0.25186098 -0.21671669 0.13157801 207 220 29
0.25075290 -0.21471940 0.13391976 200 207 15
0.16290304 -0.20841397 0.15679388 126 167 9
0.16289513 -0.20969394 0.15725696 92 133 1
0.16847579 -0.20700377 0.15607092 141 181 7
0.16779359 -0.19991866 0.15771365 139 179 3
0.11761740 -0.19211866 0.18363856 94 131 17
0.16392398 -0.20341514 0.15630254 117 159 13
0.10935925 -0.19663060 0.18461306 59 100 6
0.15792716 -0.19936407 0.15834026 106 149 0
0.15437222 -0.19902875 0.15850623 86 122 0
0.26370987 -0.21005383 0.10507905 185 205 58
0.15584491 -0.20811723 0.15850140 90 128 29
0.25306684 -0.21169217 0.11535654 136 157 0
0.15966809 -0.18890025 0.18446827 150 178 120
0.15903759 -0.18740931 0.18431009 199 224 184
0.25924906 -0.21451540 0.11184276 201 212 58
0.25663099 -0.21354048 0.11317895 219 217 44
0.25658119 -0.21301296 0.11236375 216 217 61
0.25641063 -0.21724567 0.11954629 141 159 0
0.25397614 -0.21468295 0.11811320 156 172 4
0.25541729 -0.21129674 0.11212429 132 157 4
0.25190619 -0.21213016 0.12869404 172 187 6
0.21556020 -0.21700680 0.16288903 190 219 15
0.22851050 -0.22338189 0.12773912 152 170 0
0.23212673 -0.22257282 0.12614128 98 124 0
0.22018129 -0.21571143 0.14199771 153 185 0
0.16699329 -0.20685467 0.17471091 78 110 25
0.16805729 -0.20791000 0.17289977 109 139 41
0.21914226 -0.21160325 0.13628013 163 189 6
0.21858175 -0.21148710 0.13848220 163 190 15
0.21565619 -0.22254965 0.16140243 217 231 12
0.21403261 -0.22558282 0.16000597 182 207 2
0.22144271 -0.21871087 0.14305694 198 211 18
0.15676376 -0.20262249 0.18134277 115 146 29
0.15134098 -0.19878986 0.18388098 145 179 32
0.22241430 -0.22330137 0.13608812 140 172 9
0.22202715 -0.22013448 0.14725427 168 192 10
0.22375505 -0.22693944 0.14355260 207 229 7
0.22230281 -0.21950264 0.14401956 153 178 0
0.22340715 -0.22288050 0.14410700 198 221 7
0.22578032 -0.22836593 0.12844339 103 121 1
0.22321300 -0.21175523 0.13150419 185 205 10
0.22495334 -0.20879333 0.12984306 128 162 13
0.21892451 -0.20829168 0.13295667 115 152 0
0.21951401 -0.20803118 0.14739043 140 167 10
0.21860333 -0.21951291 0.15958391 214 236 13
0.21835266 -0.21984516 0.15986721 213 236 8
