0.46576834 -0.28398558 0.11973177 109 143 49
0.48540747 -0.26283458 0.11647739 68 96 0
0.49155107 -0.26273569 0.11278132 76 109 5
0.46300989 -0.28725415 0.12222461 134 160 115
0.48456752 -0.26438293 0.10685451 117 144 3
0.49401960 -0.26353982 0.11354554 89 121 22
0.47446474 -0.31651348 0.12643659 66 97 0
0.46150732 -0.29355922 0.13096741 96 120 32
0.46218765 -0.29424292 0.13127647 114 141 38
0.49241030 -0.29745477 0.11570279 110 140 50
0.49340457 -0.27843952 0.11677990 182 209 114
0.49964502 -0.27236238 0.11278707 85 116 22
0.48603189 -0.29819399 0.12185726 142 168 94
0.48386142 -0.29774949 0.12329637 154 176 112
0.48329422 -0.28729260 0.12258077 157 188 71
0.41040191 -0.31217086 0.15226899 139 169 107
0.42176551 -0.31080911 0.13913825 121 150 66
0.46413285 -0.32442078 0.14080431 89 124 30
0.41621274 -0.31005272 0.14553514 82 116 19
0.47063267 -0.31977263 0.13217565 162 193 55
0.46335477 -0.31791165 0.14129680 143 180 77
0.46763292 -0.31887525 0.13763689 108 138 64
0.46923938 -0.32578489 0.12687671 76 104 27
0.48971319 -0.29554820 0.11921120 144 170 99
0.46847484 -0.32438937 0.11996982 91 123 48
0.49916944 -0.29505882 0.11251757 82 116 22
0.49222451 -0.26455915 0.11648455 81 119 0
0.48979691 -0.26770970 0.11911712 163 192 110
0.46517611 -0.32666865 0.13760322 184 217 86
0.49771416 -0.26874194 0.11378620 84 117 12
0.47696751 -0.30403444 0.12839122 132 164 88
0.47185117 -0.32165340 0.12440627 77 114 18
0.49490842 -0.29552609 0.11615195 128 166 57
0.46824419 -0.28780320 0.10734547 187 215 55
0.46597642 -0.28569609 0.11036439 128 162 16
0.49601480 -0.29228890 0.11498359 125 155 57
0.46650499 -0.27422851 0.11142097 102 133 0
0.46470597 -0.27592152 0.11274589 167 198 34
0.46358609 -0.28441364 0.11881624 86 124 3
0.45136258 -0.31999561 0.14370863 153 187 100
0.46747673 -0.28886804 0.11437638 96 130 7
0.60933006 -0.17497383 0.02696627 82 109 54
0.61115104 -0.17403097 0.03027754 180 189 80
0.59927374 -0.16359302 0.03068269 102 120 0
0.62024915 -0.12271320 0.04393749 86 95 52
0.61808020 -0.11965233 0.04363858 192 191 21
0.60697424 -0.16314937 0.03558385 211 220 67
0.60845095 -0.17447224 0.03691738 132 144 0
0.58334690 -0.17739893 0.01598445 174 194 43
0.59001029 -0.17813638 0.01347265 82 100 0
0.60894793 -0.10039908 0.05082900 184 197 3
0.63624722 -0.09149397 0.05573789 133 159 6
0.60118884 -0.15928815 0.03232475 111 132 0
0.62627602 -0.12252189 0.05588279 55 77 0
0.58990389 -0.14441667 0.04697637 44 62 10
0.58890206 -0.15338305 0.04351838 53 75 13
0.59102356 -0.15175396 0.04104356 58 81 9
0.62613237 -0.11990412 0.06183292 103 123 0
0.62270409 -0.12179969 0.06105770 134 161 46
0.62048030 -0.08644981 0.06250377 118 150 4
0.62449098 -0.08992299 0.06304959 72 110 0
0.62740731 -0.11462267 0.06326479 136 156 25
0.61663270 -0.10768025 0.05273165 202 216 15
0.62043339 -0.10585149 0.05580511 102 133 13
0.61021948 -0.17740600 0.03038987 108 112 17
0.62514371 -0.11105607 0.05186043 118 107 41
0.61731225 -0.09649244 0.05836894 118 143 15
0.63209945 -0.11666636 0.06125539 178 185 29
0.60942125 -0.08868539 0.05747205 121 146 0
0.59915966 -0.12154353 0.04326458 114 137 3
0.60123569 -0.11973307 0.04321792 154 180 11
0.59709036 -0.14076804 0.03691049 134 160 24
0.60693264 -0.11820508 0.04352941 108 136 0
0.60552222 -0.11786818 0.04415068 176 198 25
0.60964119 -0.14184934 0.03683760 130 149 8
0.60702640 -0.15347771 0.03489908 103 119 0
0.59574687 -0.17347653 0.01998166 161 173 101
0.62482160 -0.09428933 0.06115195 113 146 0
0.62398541 -0.09298905 0.06207592 63 105 0
0.59101611 -0.18524958 0.01103789 83 107 19
0.61013824 -0.17655547 0.03806297 206 214 67
0.62662429 -0.11081909 0.05155082 131 117 56
0.61177748 -0.12230472 0.06172390 110 135 54
0.61005402 -0.12379293 0.06103559 111 135 61
0.61575311 -0.11829891 0.06392195 123 145 72
0.59955758 -0.10364819 0.05053581 126 149 0
0.60833538 -0.14421576 0.03711184 160 175 48
0.61956882 -0.11174268 0.06303570 120 137 31
0.59847212 -0.12542577 0.03995769 56 83 0
0.59500784 -0.12708533 0.04133584 167 186 6
0.63008499 -0.12003059 0.05425234 120 130 18
0.61044079 -0.17172290 0.03335135 117 114 19
0.60903180 -0.17088442 0.02845969 64 73 54
0.59919411 -0.15815328 0.03281442 112 132 17
0.61757118 -0.12547332 0.05221113 110 135 43
0.60487753 -0.15578364 0.03570445 171 189 51
0.57384777 -0.18219987 0.02404815 115 135 50
0.61120725 -0.17673986 0.03505336 113 117 7
0.62273967 -0.11651102 0.04734565 146 160 49
0.60425931 -0.13602202 0.03718404 115 141 14
0.60723078 -0.13836755 0.03809267 142 167 47
0.57316273 -0.19950368 0.01429774 52 73 17
0.58989978 -0.13310668 0.04874599 61 84 4
0.59139514 -0.13289703 0.04063087 71 96 0
0.59122837 -0.13164952 0.04170061 60 92 0
0.59098697 -0.13321650 0.04281218 69 97 20
0.62735444 -0.11557305 0.05080042 90 108 48
0.58523035 -0.19132826 0.00892668 50 74 0
0.56991863 -0.19020082 0.02210221 72 91 27
0.57314754 -0.19145359 0.02266665 88 111 29
0.63203329 -0.10798418 0.05717793 147 158 19
0.59646142 -0.18033502 0.01535420 110 133 0
0.59791559 -0.17910069 0.01766552 121 143 9
0.59772921 -0.18171565 0.03328916 102 122 9
0.59507114 -0.18464187 0.01293816 81 101 14
0.60061586 -0.18374088 0.01608551 108 125 33
0.63546526 -0.09200904 0.05561249 138 164 5
0.59607130 -0.17067704 0.02130557 95 100 78
0.59832817 -0.17057711 0.02221154 89 97 74
0.60557520 -0.12512715 0.03842474 198 199 17
0.60787535 -0.12390017 0.03963256 185 196 14
0.58322251 -0.18345688 0.02794008 62 87 21
0.58159643 -0.18015128 0.03138183 49 75 2
0.62785429 -0.09670610 0.05880537 140 170 14
0.61292768 -0.13206911 0.04207895 87 108 17
0.61574852 -0.12831880 0.04574296 158 177 62
0.59911865 -0.17829931 0.03558340 68 88 1
0.60367393 -0.18053854 0.03631028 62 86 0
0.59285867 -0.12041093 0.05059921 72 99 2
0.59562963 -0.12263463 0.04544235 126 160 4
0.58160222 -0.17534928 0.02758651 65 83 21
0.58059120 -0.18814692 0.02391024 54 82 8
0.58188438 -0.18920611 0.02263085 62 87 22
0.60078299 -0.09748568 0.05109480 190 218 12
0.60361451 -0.10090517 0.04940829 183 205 6
0.57288915 -0.19468872 0.01788853 95 120 54
0.61745864 -0.11625880 0.04599398 167 182 29
0.62076968 -0.11616167 0.04677710 171 183 37
0.61882889 -0.11097386 0.05028690 152 170 22
0.59810454 -0.13041179 0.03737109 79 98 0
0.60204011 -0.13283350 0.03712761 96 119 13
0.62750435 -0.12126121 0.05158294 79 94 0
0.58356827 -0.17458089 0.03167464 106 123 53
0.57993942 -0.18024117 0.02878147 84 108 30
0.60320622 -0.12827817 0.03713604 162 177 32
0.60514849 -0.12945305 0.03710898 141 169 7
0.60265970 -0.12923995 0.03713598 64 78 0
0.61308032 -0.13065745 0.05473197 105 125 26
0.59680176 -0.12171782 0.04520000 211 230 14
0.60501999 -0.07937782 0.06322698 131 172 18
0.61276495 -0.11622125 0.04521139 158 174 5
0.61330062 -0.11530677 0.04596844 190 210 17
0.59267008 -0.16269952 0.03229141 80 101 22
0.58574849 -0.16744980 0.03284589 74 89 24
0.58767641 -0.16692069 0.03135470 85 102 32
0.61364800 -0.06487950 0.06804620 115 149 0
0.61212742 -0.07290209 0.06874544 144 183 14
0.61282742 -0.10899851 0.05005919 149 173 13
0.60533857 -0.10564097 0.04774305 183 201 1
0.61045194 -0.07054520 0.06825303 150 185 21
0.61391604 -0.07243834 0.06735704 80 116 8
0.61739165 -0.07247728 0.06429335 100 127 10
0.61475372 -0.07741545 0.06577143 87 117 17
0.59969699 -0.18154432 0.02851049 165 178 47
0.60117745 -0.14689466 0.03744556 57 76 0
0.60175496 -0.13844925 0.03722768 68 94 5
0.56936204 -0.18420549 0.02058733 185 205 108
0.59321082 -0.15808262 0.03483202 56 76 5
0.59141952 -0.15572856 0.03835919 87 108 29
0.61888540 -0.12634875 0.04497081 138 160 49
0.61625344 -0.12865837 0.04198082 100 124 30
0.62014240 -0.12538671 0.04583558 122 143 42
0.60688472 -0.08069635 0.06250610 128 163 0
0.57133889 -0.18050086 0.01916091 147 167 68
0.57493532 -0.17969243 0.02201150 82 102 13
0.61467236 -0.08167437 0.06306513 134 164 16
0.61241466 -0.07929876 0.06464343 82 115 24
0.62167251 -0.10949093 0.05272913 90 106 0
0.61814547 -0.10782579 0.05351256 133 156 6
0.62616313 -0.08701078 0.06409603 76 117 0
0.62344366 -0.08414948 0.06384607 176 201 13
0.62570280 -0.07530175 0.06633337 185 208 16
0.60163569 -0.09586747 0.05204978 192 211 21
0.60557514 -0.09713840 0.05067707 148 176 13
0.60540533 -0.16276136 0.03678263 141 148 0
0.61953068 -0.07813217 0.06365887 128 153 0
0.61915874 -0.07333615 0.06406416 129 160 5
0.62379980 -0.12290265 0.04839225 127 140 32
0.60851264 -0.16477218 0.03377702 169 183 38
0.59191442 -0.12583037 0.04679039 91 112 11
0.59245378 -0.12398093 0.04828694 101 124 34
0.63043177 -0.11605474 0.05319094 113 140 47
0.63072681 -0.10853422 0.05269152 98 98 12
0.60629272 -0.09597178 0.05141423 133 162 22
0.60889065 -0.10942086 0.04816136 158 185 8
0.61104548 -0.10974831 0.04896997 183 201 5
0.60020798 -0.14584380 0.03797694 132 157 27
0.60295510 -0.11825320 0.04440217 68 90 0
0.60155356 -0.11835133 0.04452774 157 185 23
0.57684451 -0.17865357 0.01816275 45 60 0
0.62093025 -0.10624988 0.06209628 94 119 18
0.62189025 -0.10324853 0.06138701 105 131 32
0.59340960 -0.16894925 0.02300541 99 100 86
0.59143507 -0.16708496 0.02734245 135 146 24
0.60452342 -0.16540816 0.03056950 155 168 0
0.61439401 -0.08974998 0.05916787 153 173 0
0.61456323 -0.09130955 0.05879103 182 204 8
0.59925967 -0.11433399 0.04855733 94 119 1
0.57135761 -0.19090815 0.01296133 86 106 37
0.62193406 -0.11597262 0.06146348 120 141 4
0.60217583 -0.14909858 0.03671904 158 172 25
0.61152446 -0.06193567 0.06786787 131 153 0
0.58669066 -0.17897975 0.01373701 191 214 48
0.59009600 -0.18044415 0.01158618 158 181 28
0.58986074 -0.17024596 0.02376328 230 236 88
0.58536530 -0.17126209 0.02282106 154 161 32
0.56874895 -0.18754995 0.01575350 49 77 2
0.58539152 -0.20304374 0.00290271 148 171 55
0.58526903 -0.20096244 0.00396274 146 170 58
0.57491893 -0.19908994 0.00617747 59 81 16
0.57312715 -0.19357319 0.00809854 148 168 99
0.57415235 -0.19393469 0.00678782 54 70 31
0.60594577 -0.16061230 0.03483574 99 118 0
0.57811582 -0.19029157 0.01055228 45 69 11
0.63300556 -0.11463200 0.06320392 201 209 46
0.62781066 -0.11795916 0.06286687 190 206 74
0.62682921 -0.10017181 0.05836328 105 131 22
0.58512473 -0.19273359 0.00822963 118 141 51
0.58581769 -0.19644065 0.00666436 68 91 9
0.57431120 -0.18618332 0.01337547 17 42 12
0.62061417 -0.12305450 0.05920349 65 85 13
0.61943936 -0.12297081 0.06016473 80 100 31
0.58533454 -0.18058375 0.01330753 152 166 8
0.58752996 -0.18925370 0.01002289 133 164 45
0.57264113 -0.18819979 0.01115322 19 38 10
0.58220834 -0.19314501 0.00692270 103 133 33
0.60300875 -0.08567318 0.05855152 113 146 5
0.57571971 -0.19285327 0.00745278 99 118 72
0.58306664 -0.18655556 0.01188139 139 169 39
0.58184659 -0.18957734 0.01060949 55 88 0
0.57156813 -0.19227903 0.01479934 49 72 20
0.57246667 -0.18100230 0.01765322 42 60 10
0.60202217 -0.11371791 0.04647129 165 182 16
0.59967929 -0.10975598 0.04943595 243 255 60
0.58677924 -0.19069324 0.02381136 43 61 1
0.63302898 -0.11682899 0.05513921 149 166 72
0.62406814 -0.10677120 0.06014965 119 136 34
0.60874945 -0.16424944 0.03245064 195 200 54
0.60661530 -0.07574751 0.06585705 97 130 0
0.60768801 -0.07263158 0.06667756 101 128 0
0.57753831 -0.19880974 0.01455873 67 89 27
0.57891607 -0.19825801 0.01522466 74 95 36
0.60666215 -0.17618458 0.02325907 66 82 56
0.60445362 -0.14610925 0.03789506 152 166 11
0.60811985 -0.09340216 0.05358024 121 145 0
0.62021613 -0.09728537 0.06012614 98 128 4
0.62399417 -0.10240616 0.05682900 87 128 0
0.60962963 -0.13741767 0.03883289 79 94 9
0.59594923 -0.13999978 0.03707568 88 115 0
0.62693214 -0.11043772 0.06062827 150 175 32
0.62980729 -0.10640760 0.05818686 144 163 19
0.58997142 -0.17159802 0.01936634 205 217 131
0.61129433 -0.12345848 0.04064284 206 208 21
0.61145830 -0.12186150 0.04146814 103 113 0
0.59962589 -0.16928110 0.02397098 78 84 70
0.60316318 -0.16748311 0.02759854 91 92 74
0.58486903 -0.19770813 0.01784968 47 67 8
0.58025014 -0.19408663 0.01860657 59 80 21
0.61897606 -0.11813717 0.06220411 181 203 92
0.59618294 -0.15407632 0.03495797 58 79 4
0.59620231 -0.15629393 0.03400698 60 81 6
0.57634526 -0.19250895 0.02106474 61 85 25
0.60688835 -0.17960373 0.02365960 103 121 1
0.61329806 -0.10531452 0.05205034 104 134 0
0.56965804 -0.19109398 0.01836235 73 96 44
0.60748333 -0.17959835 0.03652196 60 78 0
0.59086001 -0.14325014 0.04477213 72 96 18
0.59211415 -0.14571497 0.04234645 51 74 4
0.59159297 -0.13682647 0.04010357 74 102 18
0.61969715 -0.09597168 0.06044742 99 133 12
0.61703485 -0.09273253 0.05973341 152 178 9
0.49358848 0.06230058 0.19338515 123 122 76
0.52758497 -0.04735231 0.18933356 69 94 2
0.49204254 0.06144697 0.19149803 109 116 65
0.52736259 -0.02751857 0.20959321 49 77 0
0.54738802 -0.05208432 0.21386945 138 166 105
0.53552651 0.00648393 0.21418421 133 153 90
0.53696841 -0.02647339 0.21466434 184 204 115
0.50511146 0.05119086 0.20392311 129 132 87
0.54414076 -0.03329590 0.21534270 154 181 74
0.52737767 0.01006632 0.21584986 148 176 99
0.50652856 0.05114194 0.20387906 114 119 79
0.54869235 0.00384378 0.21157272 121 133 87
0.54503638 0.00602468 0.21221663 123 137 86
0.52549070 -0.01951491 0.20235819 75 111 13
0.52783841 -0.02728642 0.20048043 45 70 5
0.54307991 -0.00531129 0.20776658 97 129 2
0.53053415 -0.03485924 0.19757608 49 74 9
0.52465945 0.02582973 0.20901310 148 157 94
0.52554101 0.02611051 0.20715310 139 149 88
0.55680972 -0.04970907 0.22075333 142 166 90
0.52003121 0.01757735 0.22030662 149 173 77
0.52175969 0.01860904 0.21645352 137 155 69
0.55369264 -0.04022692 0.22160786 136 165 21
0.52577806 -0.02401431 0.21155396 51 79 0
0.52841794 -0.03030054 0.20646031 87 118 14
0.55489993 -0.03773785 0.22235461 131 153 6
0.51910472 0.01559660 0.22218011 195 221 94
0.53950596 -0.02848776 0.21445855 169 192 120
0.50510627 0.05436530 0.20080698 120 117 82
0.54448277 -0.00753489 0.21331717 176 195 87
0.53330052 -0.05924282 0.20487630 109 133 45
0.53860080 -0.01824847 0.21461901 137 161 85
0.54443240 0.00137935 0.19956997 159 187 17
0.49176043 0.06987751 0.18758017 94 100 56
0.54232371 0.01016870 0.20713252 146 165 83
0.53779924 0.01298946 0.19498961 106 123 52
0.53793657 0.01191576 0.19456282 74 94 22
0.54545814 -0.01812156 0.21531105 146 168 60
0.49869424 0.06279819 0.19315889 138 136 87
0.53046817 0.00043142 0.20895192 93 133 1
0.52887994 -0.00428325 0.20757973 110 144 0
0.55166119 -0.00589467 0.19963624 82 108 0
0.54758626 -0.00305461 0.20214511 109 130 0
0.55833668 -0.01063701 0.21418226 140 158 46
0.54947269 -0.04028790 0.21796994 141 172 19
0.54640102 -0.04618855 0.21479261 145 172 103
0.54594088 -0.04468057 0.21474415 110 138 63
0.55013591 -0.01052898 0.20831315 164 188 4
0.56099045 -0.00814846 0.20282860 113 119 19
0.53588808 0.01813392 0.20431696 139 154 73
0.51619518 0.02307244 0.22380711 99 124 32
0.51643413 0.02456612 0.21859981 106 123 29
0.51764065 0.02052717 0.22254811 130 157 62
0.51032233 0.01780725 0.22778122 76 122 23
0.49833873 0.04243904 0.20633957 137 142 84
0.51125038 0.04854104 0.20470572 120 124 91
0.52766955 -0.04958573 0.19158293 108 139 22
0.54971200 0.00460601 0.21023223 141 152 92
0.54147232 0.00390037 0.19694743 44 78 4
0.53987849 0.00675752 0.19307157 71 92 27
0.49218372 0.05226575 0.19337682 89 104 39
0.51795107 0.01699726 0.22338314 125 148 58
0.50998688 0.02881784 0.22849193 141 132 91
0.51997262 0.01098103 0.22195855 187 214 71
0.53355569 -0.01316853 0.21595706 162 187 83
0.52356857 0.00072750 0.22004952 140 178 67
0.53159130 -0.00243297 0.21608050 145 171 82
0.53285962 -0.00658617 0.21603554 155 179 81
0.54185200 0.01093466 0.19760405 148 163 96
0.54203600 0.01276515 0.19860676 131 144 75
0.54272771 -0.04578543 0.21262802 164 189 131
0.53868389 -0.04234260 0.21266431 179 197 115
0.55240947 -0.02672428 0.21836618 159 182 68
0.49761057 0.05086342 0.20214897 134 137 80
0.53613824 0.01801767 0.19765438 132 143 77
0.53697115 0.01757173 0.19960488 122 132 79
0.53311312 0.01372265 0.21205962 115 137 73
0.54468697 -0.05239359 0.21089803 155 178 122
0.55158788 -0.04960060 0.21676338 98 126 42
0.54922456 0.00654335 0.20526935 102 112 59
0.55029780 -0.05510041 0.21508202 121 151 61
0.55389053 0.00179821 0.20808674 129 144 79
0.54300302 0.00624315 0.19497250 52 71 7
0.54509205 -0.04781420 0.21357350 152 180 106
0.52460235 -0.02026276 0.21519527 119 150 21
0.52293015 -0.00983149 0.21908547 160 192 85
0.51470363 0.03166288 0.21417160 153 163 50
0.51660788 0.03666316 0.20922345 147 154 74
0.51883721 0.02919193 0.21219893 114 126 40
0.55175245 -0.00433124 0.21350525 120 139 60
0.53716373 -0.01704664 0.21492045 161 182 105
0.55345768 -0.00861305 0.20586157 173 199 14
0.55459648 -0.01147778 0.20706315 172 195 16
0.50082952 0.04945830 0.20455237 126 124 75
0.55390525 -0.04940858 0.21856476 103 135 26
0.52120566 -0.00523449 0.22014211 173 200 71
0.55320960 0.00297923 0.20467374 112 123 67
0.54235935 0.00480604 0.21360880 165 177 91
0.52283651 -0.01540703 0.20658651 71 100 7
0.51663947 0.00199224 0.21275859 40 78 0
0.52192903 -0.01393487 0.21684663 100 124 40
0.52469707 0.00268492 0.21923020 157 185 75
0.53801966 -0.01662550 0.20246552 140 174 2
0.53346115 -0.01259034 0.20453651 134 170 10
0.53742701 -0.01251897 0.20623381 164 195 6
0.49735147 0.04338086 0.20204028 164 174 124
0.51533222 -0.00305945 0.21736141 68 88 27
0.51396298 0.00089876 0.21691655 54 78 2
0.52475297 0.00220176 0.21031784 75 105 5
0.51254135 0.01286145 0.22482798 105 131 0
0.52785158 -0.00634775 0.20696442 69 104 2
0.53362757 -0.00954726 0.20675012 143 182 3
0.53685760 -0.00922772 0.20746084 102 143 2
0.53620309 -0.00323361 0.20760806 89 127 0
0.55656499 -0.00395512 0.20000993 117 122 58
0.53947341 -0.05941409 0.20925227 194 212 112
0.55823451 -0.00286655 0.20494209 112 130 12
0.56048065 -0.00626405 0.20629667 153 169 47
0.55585253 -0.01593259 0.20928627 172 208 38
0.54986930 -0.03220304 0.21894649 86 111 0
0.51740223 0.01034947 0.21956003 145 166 0
0.51086652 0.05192807 0.19914737 129 133 98
0.50927287 0.05550880 0.19625433 118 120 83
0.52881962 -0.03078321 0.19504629 54 83 3
0.52833647 -0.03598285 0.19061030 62 90 3
0.53076142 -0.04511253 0.19638221 119 147 34
0.52953964 -0.03876456 0.19302312 57 86 0
0.54584700 -0.01400273 0.21462440 184 206 82
0.53638119 -0.03820857 0.21327271 162 185 105
0.51602310 0.00304512 0.21377288 39 73 0
0.53549433 -0.03648926 0.21345329 134 163 81
0.51177835 0.01305911 0.22526123 146 176 44
0.55302268 0.00287255 0.20248009 88 99 56
0.55116010 0.00516013 0.20256388 111 121 71
0.53746086 -0.06594978 0.20628427 182 203 112
0.52645546 -0.05316167 0.19172058 78 104 3
0.51280957 0.04893493 0.20030095 125 126 110
0.53651798 -0.05031534 0.20986259 190 214 94
0.54046464 -0.06069194 0.20936391 178 197 107
0.53308368 -0.03752255 0.21280771 121 150 31
0.55051011 0.00230727 0.19721247 82 94 28
0.49965850 0.05755760 0.19750920 135 134 88
0.53119767 -0.04000661 0.20643748 64 94 4
0.51002967 0.03002676 0.22639821 139 140 80
0.52056324 -0.01028444 0.21843669 120 142 77
0.52669519 -0.00131915 0.21855471 181 201 50
0.52836150 -0.01251987 0.21809475 165 182 67
0.50711954 0.04949555 0.20469773 118 119 85
0.53329051 -0.02927474 0.21426171 130 158 71
0.53022718 0.01892544 0.21021652 125 145 74
0.52742738 0.02285532 0.20928501 137 151 90
0.54351050 -0.02373104 0.21537092 148 176 65
0.55592102 -0.04271252 0.22265679 130 154 0
0.55734575 -0.00156314 0.20317465 128 143 50
0.52984363 -0.01833183 0.21748260 148 178 82
0.52379048 -0.02027679 0.20895481 67 96 4
0.55434781 -0.00256011 0.21183728 128 139 83
0.55364943 -0.02850339 0.21917583 167 180 66
0.51481926 0.00522534 0.21666068 45 75 3
0.52457833 -0.01987337 0.20593649 99 127 24
0.53187996 -0.05192342 0.20231594 110 138 28
0.54882038 -0.05732139 0.21283044 122 150 76
0.52051055 0.00793954 0.21645300 136 160 2
0.53966886 -0.01640618 0.21448028 151 175 91
0.53037101 -0.04174007 0.19511676 56 85 0
0.53352594 -0.05387986 0.20588027 149 173 53
0.53372401 -0.01446281 0.20283361 162 191 3
0.53129220 -0.02071416 0.19823506 99 129 0
0.53199071 -0.02009778 0.19873190 100 130 0
0.49476671 0.05089699 0.19917968 93 104 38
0.51777995 0.00270662 0.22292255 93 140 26
0.54336661 -0.03811638 0.21454199 141 171 85
0.50897390 0.05601838 0.19600703 137 139 102
0.52881932 -0.04315833 0.19191456 84 113 20
0.53930444 -0.01089799 0.21373168 153 178 94
0.51474613 -0.00153550 0.21964768 66 82 20
0.52010953 -0.01121193 0.21070470 65 92 13
0.54228544 0.00913330 0.21132211 129 149 78
0.52837563 -0.03828124 0.18946007 66 92 1
0.53026569 -0.04861771 0.18555199 117 149 3
0.52908242 -0.04100354 0.18837629 68 92 8
0.52472490 -0.01039671 0.20694225 32 63 0
0.50308990 0.05307871 0.20166928 121 120 76
0.51473069 -0.00241055 0.21871117 62 79 24
0.53628689 0.01401932 0.20889916 150 168 68
0.52454525 -0.00652304 0.20764759 46 81 0
0.53300953 -0.00379704 0.21549356 181 201 114
0.55757153 -0.01260884 0.20626459 164 193 17
0.53542548 -0.04632661 0.21052012 143 167 43
0.51115000 0.02686237 0.22921032 123 114 71
0.54004997 -0.00956878 0.21340671 165 192 99
0.52375758 0.02112920 0.21266197 132 143 74
0.51845121 0.02624056 0.21429761 134 145 51
0.52621168 -0.05787170 0.19413216 115 144 36
0.54128450 -0.04933129 0.21118811 228 246 188
0.53116077 -0.03690834 0.21114862 68 96 9
0.54380876 -0.05547473 0.21024343 166 187 130
0.52920449 -0.02984195 0.21350828 83 112 19
0.54604226 -0.00956730 0.21372281 202 225 93
0.53021216 -0.02884348 0.19301035 96 125 6
0.53109133 -0.02721130 0.19353862 114 136 1
0.54024875 0.01442700 0.20352808 143 158 75
0.50707936 0.05415453 0.20094872 113 115 78
0.55202419 -0.00639452 0.20088223 103 129 0
0.53305805 0.01146672 0.21277417 136 161 95
0.53172785 0.00971338 0.21373676 135 160 92
0.53752381 0.00466503 0.21407409 168 192 106
0.53985453 0.00168882 0.21405940 142 165 77
0.53681380 -0.00247392 0.21363975 173 194 99
0.54219949 -0.00316062 0.21360527 171 190 83
0.55203640 -0.01545260 0.21499704 143 167 47
0.52119339 -0.01334037 0.21586421 62 91 7
0.53029031 -0.03615069 0.20123889 63 88 22
0.54873079 -0.00945785 0.21386534 153 173 76
0.53726196 0.00179925 0.21405539 161 180 98
0.53792638 -0.00428403 0.21338370 169 193 97
0.55620795 -0.02337557 0.21857102 167 181 36
0.53533471 -0.03818545 0.18778910 85 114 4
0.53367275 -0.03141690 0.19123723 109 138 12
0.50787973 0.04389643 0.20982943 106 112 74
0.56102717 -0.01562611 0.21577008 119 131 31
0.55976897 -0.03274807 0.22391546 201 208 43
0.55756623 -0.03623998 0.22373347 106 133 0
0.52628535 -0.02093286 0.19938786 56 84 10
0.56173909 -0.03202914 0.22427921 172 180 68
0.54139531 -0.03257662 0.21434797 148 175 104
0.49439293 0.06832334 0.18903631 105 111 75
0.55820602 -0.01539113 0.21662708 137 156 31
0.50140023 0.05933540 0.19613242 103 101 63
0.50355375 0.05847267 0.19693309 104 104 66
0.50763696 0.02131725 0.22835661 151 179 77
0.50680655 0.02510953 0.22886069 187 184 69
0.54658931 -0.03454373 0.21673471 132 158 49
0.53210372 -0.05919670 0.20302005 129 161 50
0.50289899 0.04118721 0.21255091 168 156 108
0.53928685 -0.00069475 0.20724013 163 189 6
0.51159602 0.00650705 0.21982276 62 86 12
0.51267856 0.03524669 0.21401116 145 148 67
0.51260990 0.03678655 0.21304287 175 183 98
0.51161790 0.03263256 0.21831298 161 168 90
0.51424223 0.02776618 0.22185858 117 135 61
0.48886138 0.06058443 0.18563506 78 85 43
0.49153376 0.05455323 0.19290648 103 118 53
0.52166015 0.01687358 0.21848868 165 186 81
0.49463221 0.04786419 0.19593820 101 120 64
0.49082318 0.05900197 0.19109522 97 107 55
0.52385712 -0.00717852 0.21967250 132 169 55
0.52843940 -0.01565740 0.21812379 163 179 54
0.52157503 0.02971059 0.20909926 129 139 86
0.52310753 0.02704767 0.20982739 133 151 77
0.52227587 0.03029160 0.20598987 124 134 73
0.53071642 -0.04095852 0.20192498 49 74 8
0.49749866 0.04763564 0.20489146 102 104 54
0.53486717 -0.02609409 0.19405545 113 131 0
0.52949941 -0.02336544 0.19610697 80 114 0
0.52746367 0.00801544 0.21688201 125 153 79
0.53745431 0.01060298 0.21227156 144 168 90
0.52925336 -0.03195827 0.20268005 47 71 11
0.52900308 -0.03140696 0.20340255 43 67 9
0.52123022 -0.01399104 0.21058039 57 83 10
0.52539980 0.02929622 0.20040852 111 122 66
0.53236198 0.02080981 0.19450143 109 121 59
0.53047305 0.02348632 0.19769669 102 111 68
0.52638924 0.02815229 0.20214063 127 142 75
0.52729166 0.02687163 0.20301907 135 147 83
0.51487428 0.04767319 0.19003896 62 82 21
0.51981544 0.01854385 0.20974597 58 88 0
0.51579583 0.04320699 0.18999311 79 106 13
0.50475729 0.03687177 0.21725205 169 163 89
0.50399226 0.04012891 0.19866450 83 122 0
0.53537977 0.00423229 0.20608340 119 155 7
0.51651752 0.04380000 0.19421683 98 117 38
0.52206290 0.03272700 0.19907865 117 134 66
0.51480985 0.04470899 0.18207967 57 79 7
0.52005577 0.01979243 0.20728022 126 155 49
0.51724362 0.02520296 0.20660630 58 87 0
0.49042928 0.05780961 0.18137245 33 57 0
0.51997393 0.01279936 0.21599296 73 112 0
0.48817578 0.06353626 0.18132868 94 105 71
0.51657808 0.03172502 0.19709702 68 100 0
0.52204657 0.01306493 0.21082348 73 105 0
0.53283596 0.01185580 0.19939220 83 107 0
0.50048459 0.04377901 0.19468535 23 57 0
0.50175077 0.04472087 0.19370994 22 57 0
0.50476855 0.04634071 0.19203006 106 148 2
0.51115453 0.04781032 0.18204592 29 56 0
0.51417106 0.02529157 0.21193106 109 135 2
0.49960685 0.04178159 0.21072447 139 142 55
0.50295800 0.03509719 0.20593631 78 106 0
0.50165719 0.03661875 0.20394616 18 52 0
0.50187141 0.03817967 0.20166151 16 50 0
0.50143266 0.02985137 0.21602374 76 88 16
0.50196308 0.03046720 0.21441261 69 82 0
0.52622885 0.00484157 0.21038473 70 98 0
0.52540749 0.00809878 0.20884925 102 138 2
0.50316805 0.03669506 0.21707386 152 142 93
0.51726681 0.01837766 0.21592462 166 179 14
0.52918887 0.01189286 0.20502368 150 176 5
0.51389819 0.04872368 0.18616278 51 72 16
0.50814474 0.03153484 0.22551529 148 149 83
0.51804239 0.02851790 0.19918488 69 101 0
0.52192128 0.02528081 0.19901040 107 139 14
0.52982336 0.02365385 0.19288641 122 133 77
0.52067459 0.03535423 0.18849444 88 106 48
0.51939064 0.03640459 0.18916780 76 94 44
0.49647477 0.05024374 0.18205452 30 65 9
0.49880087 0.05102286 0.18107741 31 66 0
0.52587390 0.02289712 0.19117548 118 139 46
0.54073668 0.00466475 0.19743204 23 59 0
0.53918254 0.00613442 0.20004818 103 134 4
0.51295739 0.01858597 0.22361822 181 187 25
0.51237625 0.02022839 0.22245117 156 172 14
0.50116324 0.02912964 0.22130015 123 126 69
0.52660000 0.01692172 0.19322349 54 82 0
0.51378357 0.04269323 0.18717310 32 66 0
0.51434547 0.04581897 0.18419622 57 80 10
0.48950717 0.05884881 0.18527685 113 121 84
0.50812602 0.02303567 0.22394444 106 125 0
0.48986381 0.06042018 0.17694801 61 93 26
0.53600180 0.00978958 0.19725001 114 140 15
0.51992559 0.03561409 0.18772726 94 116 18
0.51115495 0.04425444 0.18779773 35 72 0
0.53511345 0.00939653 0.19232337 66 84 22
0.53637892 0.00811153 0.20168513 87 113 6
0.51202494 0.03545072 0.20085584 109 147 36
0.50769877 0.02349604 0.22236125 91 106 0
0.51807314 0.04043420 0.20018846 86 104 42
0.52282995 0.02723004 0.19440350 42 74 0
0.52335960 0.02499181 0.19194224 67 97 9
0.48849294 0.06887937 0.18168990 85 93 46
0.53240311 0.01331544 0.19222091 49 69 0
0.53343427 0.01553727 0.19292690 101 117 42
0.49421254 0.04991490 0.18660656 31 62 5
0.52970606 0.01597328 0.19664642 61 92 0
0.50092673 0.04123011 0.21217680 167 165 78
0.53759581 0.00243168 0.20592445 162 190 18
0.49569431 0.04793953 0.18741752 52 93 14
0.49525020 0.04639061 0.19269148 27 57 0
0.50832450 0.04304658 0.19461565 109 148 5
0.50701493 0.04336620 0.19539243 82 112 0
0.49877235 0.04091664 0.20120482 43 73 9
0.50446272 0.03290077 0.22146313 173 164 109
0.51392621 0.02263647 0.21524520 153 169 10
0.51900327 0.03840366 0.20108546 89 104 45
0.51746053 0.03979954 0.20267107 119 132 62
0.51684397 0.04039747 0.20325094 153 163 100
0.52797508 0.02555949 0.19490202 112 122 69
0.52257526 0.03214115 0.19965279 115 131 68
0.52781236 0.01916220 0.19867158 95 129 8
0.52394325 0.02823136 0.18903451 105 121 48
0.52763802 0.02468950 0.19125484 106 122 51
0.50312626 0.02912238 0.22523993 122 123 57
0.50446218 0.03160401 0.22326352 136 127 84
0.52717489 0.01792270 0.20122437 84 112 0
0.52605736 0.02070548 0.19930394 79 112 7
0.50716341 0.03035626 0.21091703 90 108 0
0.51301324 0.03908993 0.19575271 80 113 8
0.49074745 0.07270456 0.18462826 124 128 77
0.50821680 0.02364956 0.22148278 143 159 11
0.50005704 0.03570876 0.21074243 167 178 118
0.50466281 0.02402128 0.22625078 126 146 12
0.52447283 0.01080877 0.20824485 103 138 12
0.50169861 0.03010103 0.22149214 97 98 38
0.50813335 0.04896594 0.18146585 43 80 3
0.49883324 0.03450108 0.21474996 109 106 63
0.52218151 0.02683988 0.19570389 79 114 14
0.50718564 0.02768828 0.21400625 187 193 0
0.50003529 0.03404451 0.21301198 247 253 189
0.51399165 0.04835416 0.19602510 112 121 64
0.51343572 0.04893078 0.19833165 160 166 118
0.51452583 0.02796522 0.20836258 125 155 9
0.48805222 0.07180079 0.17999557 144 146 96
0.51688915 0.03393157 0.19350037 86 119 14
0.49696130 0.05268704 0.17838879 21 60 0
0.52103531 0.02024866 0.20494476 122 156 10
0.52333772 0.02086588 0.20185237 129 164 12
0.50943720 0.04461448 0.18907985 80 121 17
0.51169443 0.04228609 0.19220734 69 106 1
0.49351865 0.05258844 0.18291183 30 61 4
0.49455434 0.05225023 0.17969844 10 48 0
0.50847352 0.03393503 0.20606789 71 106 0
0.51687139 0.03956528 0.18683344 46 74 0
0.52148253 0.03253527 0.18736252 96 112 37
0.51248336 0.03295908 0.20380205 60 90 0
0.51452917 0.04796586 0.19340736 110 122 60
0.51524830 0.04682130 0.19299857 108 124 51
0.53276891 0.00467958 0.20727360 130 165 9
0.61907297 -0.07034685 0.06730973 160 175 92
0.63742197 -0.01456001 0.05234726 161 183 38
0.64084589 -0.05758024 0.06668957 181 189 41
0.62939125 0.00197428 0.04094961 134 147 67
0.62983859 0.00142907 0.04086045 139 150 74
0.63012040 -0.08808862 0.06286527 180 197 59
0.62959731 -0.08786260 0.06335130 171 192 63
0.63800299 -0.06488083 0.07260305 196 199 32
0.62278414 -0.06570888 0.06731980 144 153 86
0.61801708 -0.05677134 0.06471965 61 95 0
0.61799324 -0.06071668 0.06469250 63 97 11
0.63315201 0.01960710 0.01998391 54 80 0
0.63281262 -0.01089955 0.05038703 108 125 47
0.63732141 0.01312904 0.02233017 93 124 0
0.62933904 -0.04882987 0.06464978 150 165 70
0.63982356 -0.00245950 0.04138726 176 194 82
0.63354105 0.01226262 0.02952408 119 126 56
0.63796377 0.01507359 0.02571667 117 137 76
0.60921198 -0.06154426 0.06638594 177 192 47
0.63988590 0.03404202 0.00799063 108 126 27
0.63496786 -0.08892442 0.05888026 94 119 27
0.62106937 -0.05547807 0.06637961 145 163 61
0.62915397 0.03181793 0.00662105 78 92 17
0.62451601 0.03404551 0.00000130 89 104 23
0.62819529 0.03382439 0.00273906 82 94 30
0.61697012 -0.07773834 0.06686174 140 154 75
0.61892629 -0.05623870 0.06767789 176 193 65
0.64606249 0.00228100 0.02409096 92 119 52
0.62791312 0.03095638 0.00527542 89 107 33
0.63112360 0.02980339 0.00801117 59 86 5
0.61506385 -0.05509536 0.06881061 152 164 38
0.62469816 -0.06071847 0.06716056 124 133 52
0.62021154 -0.06210233 0.06700224 146 163 57
0.60950398 -0.07729100 0.06888095 159 180 49
0.62819970 -0.05142621 0.06528883 159 175 77
0.63819718 0.01921229 0.01874924 133 163 33
0.64175546 -0.04993244 0.06030055 134 149 24
0.64093566 -0.05138807 0.06148989 126 142 33
0.63264245 -0.07865997 0.06676579 172 193 66
0.62339866 -0.02869278 0.05900643 126 145 30
0.62628675 -0.02950261 0.05924708 125 143 43
0.63463634 -0.07433204 0.06546172 224 241 41
0.62870824 -0.06840716 0.06547511 143 166 23
0.61608446 -0.07147888 0.06721012 136 156 61
0.64580470 0.00672358 0.01466277 100 131 63
0.64482796 -0.07021309 0.07537207 133 140 2
0.63841558 0.00813125 0.03104136 105 122 44
0.63849342 0.00677228 0.03253655 145 163 81
0.63675755 0.04373370 -0.00272702 69 85 10
0.63362956 0.03992710 -0.00204629 68 80 16
0.62045646 -0.06606279 0.06720854 140 155 64
0.62333488 -0.05543657 0.06350222 88 119 0
0.63323796 0.03293784 0.00755678 71 90 24
0.64355618 -0.00029422 0.03679375 109 125 50
0.64512336 -0.00009704 0.03234501 109 127 45
0.63413477 0.00157846 0.03879535 145 157 83
0.63306677 0.00367598 0.03698132 129 139 68
0.63239616 -0.08011580 0.06601895 180 200 66
0.62967205 0.02158233 0.02226469 96 105 42
0.63108838 0.02611969 0.01632041 99 120 43
0.63916028 -0.00395498 0.04291653 167 185 65
0.63862216 -0.01798730 0.05485373 105 128 37
0.63450468 -0.01578243 0.05307706 104 125 34
0.64292139 0.03364921 0.00846205 98 108 39
0.63718867 0.02319672 0.02016873 108 126 50
0.64664733 -0.05401873 0.06283890 180 187 58
0.64618468 -0.05128900 0.06011496 165 178 47
0.63427210 -0.03016863 0.05813216 186 203 97
0.63331294 -0.03480190 0.05888555 130 150 61
0.64016527 -0.02350451 0.05643066 136 153 57
0.63897681 -0.02890374 0.05644875 147 168 49
0.64025247 0.01792833 0.01727623 63 94 0
0.62427431 -0.01119515 0.05390607 165 183 83
0.63905793 -0.00910301 0.04737480 183 200 70
0.63870591 -0.01140522 0.04975623 174 194 47
0.63648778 -0.04203082 0.05825553 163 179 70
0.63706177 -0.05000181 0.06258163 160 166 40
0.64600933 0.00512250 0.01547828 82 113 35
0.63887668 -0.08456979 0.06037028 159 184 40
0.62740105 0.01879629 0.02477838 90 117 14
0.63044733 0.00280210 0.03911819 134 144 71
0.62034887 -0.03312819 0.06130041 166 178 50
0.62137872 -0.03449688 0.06185068 118 137 12
0.63193285 -0.04136312 0.06145704 150 166 77
0.63418710 -0.04118839 0.05962673 133 152 44
0.63407242 -0.00712020 0.04715620 116 131 50
0.62417507 -0.06654501 0.06557558 183 216 37
0.64779544 -0.05051865 0.05267677 80 89 26
0.63355887 -0.02493411 0.05788572 104 123 41
0.63609999 -0.02478503 0.05735854 159 181 80
0.65096432 -0.05267388 0.05788670 221 213 89
0.62850660 -0.03098706 0.05987578 145 157 85
0.64725918 -0.05546846 0.05393775 83 102 21
0.65111184 -0.05408346 0.05596179 53 90 23
0.63787329 -0.06158334 0.06135777 88 113 0
0.64392316 0.03331199 0.00739500 97 100 47
0.60945958 -0.06678180 0.06581075 191 210 66
0.62660038 -0.09481424 0.05954217 116 142 19
0.63275713 0.02305585 0.01658038 89 115 18
0.63772988 -0.06535232 0.06203653 158 184 0
0.63386017 -0.06671664 0.06419517 198 229 30
0.63650686 0.03351367 0.00770352 98 119 24
0.64940464 -0.05650065 0.05768099 54 81 26
0.63950324 -0.07248987 0.06484650 109 121 47
0.60742074 -0.07650012 0.06914864 190 211 74
0.60610908 -0.07546704 0.06919528 160 179 51
0.62117404 -0.08278787 0.06680164 110 140 42
0.61975485 -0.08140626 0.06686012 134 158 70
0.64662331 -0.06353667 0.06898972 147 153 91
0.64737284 -0.06455643 0.06966268 156 167 98
0.64735776 -0.06684271 0.07348667 120 122 0
0.64727730 -0.06915081 0.06903929 112 122 35
0.64193207 -0.05993877 0.06222500 124 136 24
0.64479017 -0.07142226 0.06436800 134 145 69
0.64126050 -0.06596962 0.06247192 191 204 73
0.63765776 -0.07512917 0.07035991 80 108 23
0.64242226 0.02001179 0.01662176 86 106 37
0.63924444 -0.07771818 0.06699066 132 152 41
0.64567298 -0.05873283 0.06339433 151 162 31
0.64654797 -0.07459385 0.06952433 136 153 21
0.64442015 0.02262772 0.01259434 132 153 76
0.64450151 -0.07353541 0.07215542 139 164 34
0.64497435 -0.05530974 0.06429412 158 164 40
0.62773508 -0.07075745 0.07072578 186 201 82
0.63413900 -0.06544617 0.07166483 121 135 38
0.63507336 -0.00128771 0.04133222 128 143 62
0.61728138 -0.04846039 0.06793509 168 183 56
0.61408275 -0.04873197 0.06944445 202 217 76
0.64300424 -0.07914405 0.06160330 152 171 4
0.63874775 -0.07511347 0.06428117 141 160 8
0.63793522 -0.06331576 0.07142280 157 167 19
0.62559426 -0.05732435 0.06656305 115 130 45
0.62721717 -0.05578036 0.06652640 151 167 69
0.63715953 -0.08993980 0.05728149 63 95 0
0.62967002 -0.01906980 0.05571910 119 135 62
0.63468200 -0.05562779 0.06570656 133 137 26
0.62832963 -0.07349100 0.07106030 120 139 34
0.63544315 -0.07354275 0.07185783 182 201 60
0.64090675 0.02638815 0.01529926 132 152 67
0.64242828 -0.07843862 0.06538047 151 165 54
0.64725018 0.00011368 0.02673395 101 121 60
0.64003485 -0.08383160 0.06174137 68 98 0
0.63202697 -0.07031666 0.07168351 134 150 28
0.63748676 -0.07180151 0.07259468 153 164 60
0.63299811 -0.04876766 0.06351990 139 156 50
0.63014352 0.02829620 0.01107467 57 78 1
0.61607063 -0.05095556 0.06882071 163 175 37
0.63039750 0.02530624 0.01431252 77 99 24
0.62855637 -0.07749132 0.06883746 127 154 39
0.62817496 -0.04815497 0.06475133 121 135 47
0.62779170 -0.04848326 0.06490742 125 139 52
0.62341189 -0.07482789 0.06942087 102 130 30
0.61864769 -0.07383502 0.06762291 170 183 103
0.63904530 0.01888231 0.02150799 111 133 51
0.64001113 0.01220259 0.02602829 138 164 77
0.63410765 -0.05797498 0.06684598 145 151 19
0.63073099 -0.05987904 0.06828339 193 205 67
0.64125490 0.00049965 0.03815711 146 166 71
0.63702637 -0.08163172 0.06418482 170 190 67
0.63842416 -0.08277146 0.06225592 131 149 41
0.63440728 0.01571559 0.02675088 96 105 38
0.63503104 0.02191823 0.02156381 98 115 44
0.64822155 0.00176715 0.02142075 94 123 59
0.64857823 -0.00212976 0.03126052 136 156 85
0.63464832 0.02877969 0.01014046 61 93 0
0.64225006 0.00424782 0.02870648 135 158 80
0.64083284 0.03934503 0.00291546 121 136 33
0.63146722 -0.01390507 0.05243220 136 153 75
0.62900400 -0.06248091 0.06420708 158 184 22
0.62589037 -0.06761681 0.06572230 163 175 5
0.63120228 -0.05958414 0.06335925 179 204 40
0.63321477 -0.08300990 0.06418963 111 151 0
0.63003039 -0.08635093 0.06422393 164 187 8
0.63485855 -0.08742968 0.06240235 123 152 8
0.63276470 -0.08861425 0.06184728 159 186 11
0.63784492 -0.07821450 0.06366745 147 170 38
0.64646387 0.00305802 0.02162269 87 115 56
0.64312214 0.00205312 0.02973965 142 162 73
0.64116621 0.00641909 0.02906608 87 107 38
0.64258510 0.01102156 0.02032234 120 144 46
0.62038213 -0.06467579 0.06442788 85 115 3
0.64499569 0.00488173 0.01426771 61 89 4
0.64351487 0.01286456 0.01625742 84 106 33
0.65146303 -0.00149481 0.02492593 99 120 51
0.63050729 -0.08309759 0.06473013 153 188 8
0.62926680 -0.07918224 0.06542487 70 113 0
0.62902927 -0.07702284 0.06575521 159 202 24
0.64422035 0.02000495 0.01340076 74 92 32
0.62297773 -0.04089696 0.06397282 148 168 47
0.62282515 -0.04059619 0.06393833 145 164 46
0.63039845 0.01616606 0.02548133 39 67 0
0.62488157 0.01752413 0.02785817 82 107 0
0.57934546 -0.23042390 0.09030825 110 133 3
0.55324227 -0.07642994 0.18300541 108 129 54
0.55463874 -0.07986072 0.18352959 92 116 20
0.55656457 -0.10407799 0.18197933 97 124 27
0.55694592 -0.10566916 0.17912762 79 104 21
0.55764925 -0.08595954 0.18619581 63 89 15
0.56680512 -0.12941141 0.15702674 133 156 16
0.56584954 -0.12853099 0.15949097 125 149 35
0.55368203 -0.09605924 0.17891569 116 138 30
0.55242211 -0.09744551 0.17523202 135 151 27
0.59410775 -0.24647382 0.14183238 143 171 34
0.57953024 -0.17027897 0.12195732 188 196 49
0.58192092 -0.16965321 0.11891036 133 152 24
0.56288719 -0.25871602 0.11275703 138 159 18
0.56314069 -0.26038051 0.10996753 125 155 7
0.56849581 -0.25489101 0.10570156 172 201 25
0.56800014 -0.25556239 0.10622343 169 199 26
0.53740454 -0.19647840 0.09898664 96 130 9
0.55384320 -0.21734028 0.11205652 155 184 40
0.54051358 -0.20428360 0.07709868 123 138 9
0.57616442 -0.24042310 0.12067495 142 167 14
0.58211833 -0.23818350 0.12774082 199 206 48
0.56284022 -0.25971732 0.10026731 113 141 20
0.55934680 -0.15489225 0.14520071 130 157 52
0.57442784 -0.24527466 0.08143020 143 162 46
0.55364662 -0.26086015 0.11709155 149 163 14
0.56237513 -0.25652337 0.09172518 175 191 82
0.56047833 -0.25777870 0.09454168 192 208 101
0.55174530 -0.19992712 0.08213354 130 152 5
0.60793078 -0.22134687 0.15576503 197 208 16
0.60536909 -0.22198565 0.15207009 160 184 10
0.55641103 -0.10063268 0.18515678 94 123 30
0.56159043 -0.12034826 0.16577725 110 136 11
0.53322130 -0.07420272 0.20361859 184 202 100
0.56775451 -0.04319070 0.20514935 123 146 32
0.56036246 -0.24763781 0.12187865 189 204 63
0.56439716 -0.04433029 0.22342670 108 132 46
0.54773521 -0.08873318 0.17414126 99 123 27
0.54644436 -0.09072680 0.17253545 109 132 26
0.55357009 -0.18663971 0.10962903 158 186 50
0.58371592 -0.22040001 0.11726888 176 193 25
0.58250374 -0.22193326 0.11319581 160 178 8
0.58134776 -0.21902770 0.11427076 201 208 66
0.55918276 -0.19550879 0.09980021 124 151 10
0.55441958 -0.09414119 0.18098986 89 111 13
0.55660123 -0.08800679 0.18450879 76 103 8
0.54017347 -0.18206668 0.10678884 182 210 107
0.56707364 -0.15385872 0.14516529 133 171 26
0.54874855 -0.10404805 0.16279797 100 121 16
0.55154353 -0.10062224 0.17277218 75 95 8
0.55159557 -0.09520611 0.17447488 69 94 13
0.56683934 -0.12690128 0.15333314 129 149 18
0.57130939 -0.20269898 0.08547749 93 117 31
0.56748050 -0.20361042 0.08667285 126 149 61
0.55432749 -0.05855436 0.21161953 146 176 126
0.56423569 -0.05398572 0.20051736 38 63 6
0.58911759 -0.16294008 0.13484539 165 183 23
0.53585267 -0.07576955 0.20437998 169 191 109
0.56331915 -0.20824409 0.09986700 77 110 3
0.60282612 -0.20722067 0.14995618 180 199 11
0.56496745 -0.12667879 0.16136479 103 132 16
0.56538266 -0.12614216 0.15595129 184 199 46
0.52314895 -0.08507928 0.19923602 143 168 67
0.52475935 -0.09340087 0.20384888 140 162 64
0.52410316 -0.09366162 0.20383251 134 156 58
0.55366325 -0.26543242 0.11573055 153 179 18
0.57291889 -0.14812481 0.14552459 139 165 16
0.57672638 -0.14917015 0.14205648 203 217 36
0.53041565 -0.19470569 0.10095966 117 138 17
0.56022590 -0.11715757 0.16845439 99 126 9
0.53123343 -0.06766308 0.20227656 129 154 63
0.56314015 -0.24579465 0.12155309 70 112 0
0.56665397 -0.04147093 0.22604017 160 183 105
0.53629851 -0.18929124 0.10472578 198 222 124
0.57689202 -0.24412432 0.09709520 91 115 1
0.54090619 -0.21445295 0.11123005 146 164 28
0.53271490 -0.17945705 0.10266124 161 183 38
0.56824183 -0.03848515 0.22743160 139 150 32
0.56438285 -0.25193688 0.11454079 100 130 0
0.53386962 -0.26140824 0.12904386 137 170 3
0.53426623 -0.26002118 0.12897758 194 208 27
0.54150617 -0.20427161 0.10824146 150 179 27
0.54406154 -0.20486768 0.10725316 149 179 23
0.56813061 -0.25465575 0.09420831 138 163 36
0.54332256 -0.25579199 0.12203870 187 202 25
0.57405782 -0.24571440 0.07977284 134 154 31
0.57341480 -0.24520934 0.07318951 165 175 62
0.52628994 -0.26020247 0.13325185 242 252 42
0.53086525 -0.26118326 0.12888563 234 246 50
0.59462881 -0.15539798 0.12775116 103 133 0
0.59431255 -0.15204509 0.12689683 148 160 26
0.55947924 -0.07200978 0.20068112 125 154 87
0.54861182 -0.19708027 0.10435489 195 214 98
0.54617935 -0.20150931 0.10567745 173 195 68
0.56568164 -0.03748002 0.20512387 96 113 17
0.54150563 -0.20885365 0.07393520 124 145 8
0.56647235 -0.03023133 0.20919059 108 127 9
0.55589455 -0.16211627 0.13622198 164 179 50
0.56840706 -0.04093352 0.20717470 115 135 22
0.54401904 -0.25730646 0.11680710 132 144 0
0.54365164 -0.25821319 0.11709454 158 168 11
0.53721148 -0.26001886 0.12296454 238 245 53
0.57319707 -0.17243099 0.12485657 158 176 16
0.57007599 -0.16799243 0.13228999 145 178 9
0.56855512 -0.03157695 0.21244270 99 117 5
0.56934583 -0.25174600 0.08405977 134 152 14
0.56546819 -0.25524208 0.08722798 188 201 85
0.56914067 -0.03082350 0.21602266 90 102 0
0.54475707 -0.08877018 0.17106338 85 105 36
0.54458672 -0.08958180 0.17023906 83 102 38
0.55866677 -0.09100148 0.18848202 70 98 13
0.56935918 -0.03770364 0.21056156 82 100 0
0.54800254 -0.25402430 0.10976709 153 174 19
0.54942954 -0.25249451 0.10541401 143 164 11
0.54940921 -0.25278339 0.10573348 150 171 18
0.56161642 -0.17885609 0.11748166 136 167 48
0.60707676 -0.22589149 0.15517819 155 171 10
0.60814756 -0.22619188 0.15690382 167 185 23
0.56423020 -0.25761595 0.09205094 178 196 58
0.57027215 -0.24291277 0.11993718 135 167 32
0.57432258 -0.24163422 0.12199428 128 159 19
0.56763619 -0.02464056 0.21487698 104 118 23
0.54828101 -0.26446843 0.11128080 140 163 13
0.54807192 -0.26031685 0.11189572 138 162 16
0.54971629 -0.26152480 0.10959304 103 124 0
0.56588984 -0.03042522 0.20834829 142 162 39
0.54854918 -0.25058392 0.12490723 125 149 11
0.53382015 -0.26561144 0.12704128 207 214 56
0.52992922 -0.26484421 0.13005197 212 221 52
0.53518355 -0.26747394 0.12625417 201 209 25
0.56217563 -0.01588454 0.20756862 118 132 9
0.52915013 -0.18154836 0.10240728 150 161 69
0.53200978 -0.18160249 0.10590871 163 185 139
0.53563654 -0.09018883 0.20354593 202 210 73
0.56020302 -0.11602707 0.17210099 105 130 38
0.55241770 -0.25369102 0.10066622 143 164 33
0.55607241 -0.25483426 0.09571762 136 155 40
0.55421275 -0.25829065 0.10146541 184 206 69
0.54219705 -0.19821809 0.10585544 107 129 31
0.56891072 -0.14963266 0.14809014 103 139 13
0.57123464 -0.14423050 0.14822054 153 175 12
0.55627644 -0.25335068 0.15427375 151 176 23
0.55411249 -0.25519994 0.15216389 97 118 0
0.54867637 -0.21958217 0.11068450 165 183 37
0.56338871 -0.05501574 0.20875607 95 118 48
0.56040514 -0.03557413 0.20288786 89 109 20
0.54208130 -0.21636550 0.11029845 118 141 9
0.57512724 -0.18083650 0.09282637 131 150 6
0.57579714 -0.18137111 0.09775559 138 147 2
0.57035619 -0.12550078 0.14683752 119 136 0
0.56180727 -0.24566945 0.11955301 82 119 3
0.56278008 -0.25097141 0.08041766 164 176 78
0.54961914 -0.20539846 0.08095415 128 150 23
0.54474372 -0.20042472 0.08080453 130 150 17
0.54101980 -0.19779271 0.08225961 170 197 82
0.57743728 -0.23748793 0.09732431 142 165 15
0.55224383 -0.15770930 0.13126670 85 98 19
0.53486001 -0.18243065 0.10585929 189 211 138
0.56960917 -0.04494791 0.21769488 89 111 11
0.57608318 -0.23900618 0.08499201 141 161 40
0.53581059 -0.26145881 0.12421278 236 245 56
0.53826261 -0.26458883 0.12234309 209 218 51
0.55714959 -0.17223987 0.12611067 171 192 29
0.54795289 -0.25707415 0.15383643 75 105 7
0.57504249 -0.21605429 0.08271687 101 125 1
0.56278336 -0.04498547 0.20204572 88 114 17
0.53354251 -0.18494584 0.10504224 176 200 142
0.52678752 -0.27209240 0.13873743 219 230 66
0.56538957 -0.19926764 0.09111848 135 168 38
0.57168353 -0.20108406 0.08650808 119 142 51
0.54464573 -0.26748914 0.12127157 119 139 6
0.58780062 -0.24802877 0.13826202 161 188 55
0.58610106 -0.22587198 0.11884560 149 170 29
0.58585322 -0.22692816 0.11779997 144 166 21
0.58414507 -0.22693758 0.11233268 152 175 25
0.54483193 -0.18674603 0.10675503 231 235 99
0.54136550 -0.19847570 0.10604364 107 129 28
0.58565915 -0.16543393 0.11938576 132 152 31
0.58608109 -0.16452920 0.12023373 140 159 34
0.52205217 -0.06612048 0.19373773 134 158 74
0.55047446 -0.20534411 0.08226366 109 134 4
0.53048408 -0.09088098 0.20291309 169 185 78
0.57168168 -0.20963326 0.08626842 87 100 10
0.57611585 -0.22238921 0.09787491 189 206 50
0.57539511 -0.22418071 0.09347663 152 170 8
0.56863034 -0.20700587 0.09374934 127 152 8
0.56385738 -0.06140690 0.20414415 120 137 67
0.57697219 -0.23916556 0.11302710 170 189 3
0.57505405 -0.23983881 0.11353170 95 126 0
0.56826818 -0.20620114 0.08585905 105 124 58
0.56322920 -0.03588659 0.20338072 131 163 28
0.55867475 -0.04232723 0.20105642 144 161 23
0.60058743 -0.24502926 0.14610240 131 159 36
0.55190009 -0.21190852 0.11107044 77 108 14
0.54324836 -0.24978781 0.14880222 114 138 26
0.54984647 -0.07146727 0.20335485 169 194 137
0.58770704 -0.16248293 0.12597556 143 154 16
0.58853650 -0.16193129 0.12627077 149 160 19
0.55676705 -0.07009159 0.20375898 172 197 167
0.57151449 -0.14236237 0.14875931 181 199 17
0.60583282 -0.24007912 0.14454383 193 209 12
0.53842217 -0.19583139 0.10467532 127 151 53
0.55741495 -0.07318999 0.20142178 171 198 167
0.55554444 -0.20808223 0.10260806 70 104 9
0.53873479 -0.08087897 0.20380130 225 226 107
0.55312473 -0.07006986 0.20479397 162 189 136
0.56548780 -0.04608905 0.20298305 59 81 19
0.56773257 -0.18465506 0.10947942 113 143 43
0.57089704 -0.18370707 0.10908642 151 185 39
0.53678697 -0.17191856 0.10897552 171 195 121
0.60704380 -0.23645504 0.14959864 185 208 12
0.58873057 -0.23786142 0.14021400 212 217 11
0.60051697 -0.24028014 0.14248666 216 222 0
0.53870851 -0.16316605 0.10832144 106 128 19
0.56409723 -0.25939667 0.10143146 136 161 41
0.59275186 -0.23913705 0.14230417 155 172 0
0.59229004 -0.24710609 0.13702528 95 121 0
0.57010829 -0.21087319 0.12108161 151 180 4
0.58896261 -0.24523333 0.13766296 158 183 3
0.56407470 -0.25060540 0.07717458 162 174 74
0.59613270 -0.23791674 0.14502174 214 221 4
0.61013472 -0.23276410 0.15867600 202 214 20
0.60774261 -0.23552957 0.15103278 187 202 13
0.60327852 -0.23268163 0.15327348 179 198 12
0.60213560 -0.23330033 0.15116115 211 220 9
0.61405998 -0.22848210 0.16235042 180 198 18
0.56077331 -0.04901481 0.21932426 129 155 32
0.54115081 -0.15881865 0.10907067 105 129 19
0.54403949 -0.20317097 0.07907901 102 120 0
