-0.17747591 0.12761717 -0.02667257 101 130 2
-0.17233980 0.10924593 -0.01408594 149 180 120
-0.17112102 0.10234554 -0.01274339 152 187 107
-0.17997855 0.17305662 -0.03337592 169 203 2
-0.18100478 0.17653438 -0.03352078 114 146 0
-0.15675026 0.14806601 -0.04109136 155 193 9
-0.15849411 0.14900318 -0.04452907 127 165 0
-0.18212369 0.20425385 -0.05396530 77 102 0
-0.18499175 0.20493740 -0.06423409 75 101 4
-0.18547249 0.20505306 -0.06595833 87 117 19
-0.18059398 0.20614706 -0.05463596 119 146 15
-0.15217410 0.15569113 -0.04560479 56 88 12
-0.15198165 0.15490437 -0.04617989 59 92 11
-0.15300862 0.15832977 -0.04465310 68 100 27
-0.15479015 0.15963404 -0.05125818 45 76 8
-0.13575149 0.10529964 -0.01932865 155 187 112
-0.13373291 0.10347626 -0.02387606 143 176 87
-0.16315971 0.15547757 -0.04303147 104 150 0
-0.18139260 0.11799963 -0.02246616 58 69 11
-0.13337643 0.10103244 -0.02381603 144 190 40
-0.13344137 0.10151251 -0.02229124 124 169 4
-0.17088227 0.15849067 -0.04746598 140 181 1
-0.17129272 0.18865687 -0.04011790 126 157 20
-0.17603312 0.18597101 -0.03622026 176 208 23
-0.19151646 0.18130529 -0.03466240 146 176 0
-0.17507210 0.15892474 -0.03939408 97 132 4
-0.14744326 0.09878134 -0.01989633 155 187 124
-0.14926592 0.09335335 -0.02099439 167 194 139
-0.18683039 0.16363142 -0.03455431 169 196 101
-0.16885263 0.16302937 -0.04488876 118 150 5
-0.13911922 0.11829751 -0.01262039 149 194 16
-0.17233999 0.17024264 -0.03815268 155 188 45
-0.16997929 0.12371229 -0.01740451 154 196 8
-0.17304875 0.12383427 -0.01801517 135 174 5
-0.17389026 0.12584157 -0.01900251 110 144 0
-0.15580042 0.10432360 -0.01822679 141 190 10
-0.15110523 0.09415446 -0.02133839 123 157 44
-0.15459852 0.09610532 -0.01950632 141 192 11
-0.17196611 0.16484901 -0.04189025 148 190 5
-0.18926057 0.19952023 -0.06006291 46 75 0
-0.16478284 0.17170970 -0.04760831 59 92 0
-0.16846997 0.15800114 -0.03984878 146 178 53
-0.16618849 0.15859233 -0.04843592 133 167 21
-0.18055333 0.14537601 -0.03224245 170 199 10
-0.14356565 0.07923414 -0.02513327 169 200 143
-0.14605780 0.08620888 -0.02292325 169 196 141
-0.14619428 0.07740911 -0.02552843 171 196 157
-0.18194242 0.14358869 -0.03373488 151 181 21
-0.13845094 0.05812684 -0.03513199 165 195 143
-0.14030169 0.06426027 -0.03204672 167 196 140
-0.13891035 0.05204576 -0.03590481 153 178 138
-0.13816106 0.06035468 -0.03497000 145 172 127
-0.17957881 0.11154103 -0.01858631 76 100 12
-0.16172172 0.15268247 -0.04414912 152 188 16
-0.16836935 0.16026279 -0.05108099 144 179 27
-0.13808773 0.02666483 -0.05328480 121 148 113
-0.13833745 0.03047906 -0.04997601 124 150 121
-0.16238336 0.14635213 -0.03278810 103 142 0
-0.18515606 0.20370771 -0.06186908 64 91 0
-0.18673615 0.19989841 -0.05793798 69 96 0
-0.18221210 0.12302469 -0.02751389 66 80 29
-0.13249040 0.03708810 -0.05461412 14 47 2
-0.13325237 0.03721600 -0.05508672 3 42 0
-0.13059279 0.04669082 -0.05218922 56 84 25
-0.18676643 0.20239155 -0.06205989 101 129 18
-0.15344352 0.14703228 -0.04068007 103 140 1
-0.16664438 0.11327959 -0.01513575 189 223 5
-0.16514069 0.11643732 -0.01559539 155 191 0
-0.17023058 0.11075665 -0.01420582 156 202 16
-0.16728331 0.13234189 -0.01938367 110 152 0
-0.16179954 0.13441505 -0.02010620 104 161 0
-0.15949532 0.11540554 -0.01714455 130 171 0
-0.15620816 0.11552934 -0.01842789 81 130 0
-0.15597717 0.11200155 -0.01815639 90 150 0
-0.15588820 0.11146469 -0.01813588 81 137 0
-0.18686572 0.16002686 -0.03517444 108 137 19
-0.16869123 0.18166451 -0.03917513 108 145 3
-0.17100067 0.18293722 -0.03792265 112 147 0
-0.15321666 0.13579644 -0.03615852 122 163 0
-0.15538445 0.13547409 -0.03478979 164 202 5
-0.13333839 0.07409630 -0.03630621 81 115 28
-0.13303824 0.07841822 -0.03293161 114 160 10
-0.18239538 0.16526103 -0.03512035 144 174 14
-0.16277426 0.11461915 -0.01600852 168 197 105
-0.16156317 0.10606815 -0.01665051 170 200 104
-0.14623983 0.11859532 -0.01511623 149 177 118
-0.14776516 0.12411211 -0.01544369 159 190 123
-0.15106265 0.11290950 -0.01779903 167 192 163
-0.15158233 0.11270564 -0.01803016 216 234 220
-0.14903688 0.11915246 -0.01619409 176 206 132
-0.14943939 0.12442016 -0.01602166 154 188 128
-0.15222774 0.12427076 -0.01689034 160 189 141
-0.13910732 0.08604004 -0.02433572 121 167 9
-0.14028661 0.08520921 -0.02346914 108 153 0
-0.13652942 0.06582622 -0.03784806 100 152 18
-0.17792898 0.16443357 -0.03686991 184 217 16
-0.15538666 0.16219398 -0.04914609 60 91 24
-0.15687083 0.16761588 -0.04569279 63 90 23
-0.15411209 0.16265628 -0.04155377 81 114 35
-0.15625729 0.16678804 -0.04420465 90 120 34
-0.18983205 0.19062716 -0.04453932 82 114 5
-0.18125618 0.11248547 -0.01961608 84 101 46
-0.13459818 0.07493752 -0.03203490 98 136 17
-0.13479647 0.07517399 -0.03177032 115 154 11
-0.13446423 0.07977431 -0.02981629 71 114 0
-0.18948294 0.19507375 -0.05004080 91 124 20
-0.14460200 0.13873501 -0.03353125 53 91 6
-0.14363486 0.13952632 -0.03185339 61 100 11
-0.13199745 0.04752900 -0.04193992 165 193 142
-0.13539971 0.09345049 -0.02514955 136 181 2
-0.13469025 0.09512722 -0.02594768 88 131 0
-0.13560365 0.08959550 -0.02582695 110 155 12
-0.13571388 0.08979294 -0.02569270 116 161 16
-0.19241820 0.18352298 -0.02985855 146 176 52
-0.18954608 0.18600559 -0.03343005 69 103 0
-0.17670193 0.15510920 -0.03891327 138 174 22
-0.14121523 0.11163934 -0.01616880 161 193 118
-0.14248908 0.11750955 -0.01398906 158 191 112
-0.14512028 0.12142570 -0.01349869 150 191 9
-0.17813516 0.14199042 -0.03023880 135 173 0
-0.15946034 0.10275443 -0.01752811 152 178 81
-0.15971696 0.11236422 -0.01715153 189 216 123
-0.16894928 0.20392430 -0.05032250 121 154 15
-0.17568395 0.20893420 -0.05293111 122 157 27
-0.17665420 0.16238926 -0.03714522 135 175 1
-0.17757219 0.19679771 -0.04403859 152 184 23
-0.17538166 0.20285420 -0.04964806 134 170 18
-0.17332108 0.20216107 -0.05015019 70 100 0
-0.14198200 0.08096227 -0.02471139 114 166 0
-0.14302889 0.08385316 -0.02376314 133 184 4
-0.14881696 0.14476077 -0.04150296 32 67 3
-0.18360421 0.19973324 -0.04955687 94 124 2
-0.18429208 0.19901943 -0.04946742 95 128 0
-0.17976093 0.19865815 -0.04487811 95 125 1
-0.16297357 0.16583046 -0.05026571 87 122 4
-0.15733080 0.16264391 -0.05299462 35 70 6
-0.16523729 0.16925879 -0.04860301 63 97 0
-0.14932932 0.13114567 -0.03073088 103 146 4
-0.18051219 0.14041784 -0.03224947 141 175 18
-0.18578720 0.18397909 -0.03373864 175 206 24
-0.18398720 0.18599285 -0.03521265 66 100 0
-0.17137295 0.19612277 -0.04631806 89 118 0
-0.17164864 0.19114928 -0.04187495 102 133 0
-0.17066526 0.19525751 -0.04588144 90 119 1
-0.19141610 0.17607938 -0.03176708 161 202 24
-0.17383836 0.13004591 -0.02009206 105 151 1
-0.17008418 0.12693237 -0.01839856 174 214 4
-0.15432434 0.09807249 -0.01902535 181 208 111
-0.15743239 0.09850154 -0.01832111 172 195 91
-0.15180351 0.09815870 -0.01949152 171 202 126
-0.19297199 0.17837118 -0.02944320 172 199 84
-0.19263023 0.18281063 -0.03401681 104 137 0
-0.13665764 0.12174731 -0.01304130 90 131 9
-0.13595578 0.09801985 -0.02301092 135 163 88
-0.13534872 0.09555881 -0.02522129 107 138 70
-0.15728511 0.16575675 -0.05171284 49 80 23
-0.14727283 0.09752832 -0.01945918 139 192 14
-0.14599128 0.10117756 -0.01772039 95 140 0
-0.17822859 0.16821587 -0.03672856 192 221 17
-0.19097787 0.18734242 -0.03783378 55 89 0
-0.19174656 0.18561815 -0.03429108 62 101 0
-0.18684109 0.19084781 -0.04170750 99 129 0
-0.18281251 0.19321255 -0.04171281 99 134 4
-0.15961170 0.10920576 -0.01688746 176 212 0
-0.16315849 0.11835948 -0.01618744 209 235 16
-0.14689478 0.10447273 -0.01680600 128 175 11
-0.14928789 0.10007824 -0.01923725 91 133 0
-0.14903092 0.09930177 -0.01942186 99 144 0
-0.16102192 0.09947009 -0.01676986 135 170 0
-0.15908447 0.09515680 -0.01759498 189 216 0
-0.17651056 0.14588916 -0.03135979 137 174 6
-0.17705199 0.14946808 -0.03389764 126 161 9
-0.14085847 0.10556935 -0.01791325 144 178 102
-0.14847808 0.10339789 -0.01875904 151 180 124
-0.15579581 0.13191885 -0.02194943 123 169 0
-0.15920657 0.13672365 -0.02494248 104 149 0
-0.16000870 0.15238987 -0.04857442 86 121 0
-0.16227317 0.15495886 -0.04734183 87 127 0
-0.15369351 0.11105057 -0.01717164 142 173 56
-0.14895986 0.10942627 -0.01611416 116 167 0
-0.12933677 0.02271809 -0.04945635 185 214 170
-0.13017160 0.02352935 -0.04947633 172 204 157
-0.12837975 0.03846324 -0.04688710 166 188 139
-0.13099727 0.04590740 -0.04286155 145 173 115
-0.17307374 0.12323523 -0.01848211 108 141 62
-0.17212175 0.12817647 -0.01983680 72 106 46
-0.17936221 0.10893644 -0.01462543 96 124 39
-0.16241856 0.12652932 -0.01675724 187 213 106
-0.16351593 0.12778196 -0.01653608 156 181 98
-0.13380590 0.12572432 -0.01933011 104 148 24
-0.18152188 0.11948628 -0.02137331 34 47 4
-0.17940320 0.12589231 -0.02342552 138 162 104
-0.12939097 0.04401455 -0.04742292 136 159 77
-0.13105395 0.05077483 -0.04944429 131 155 81
-0.13274670 0.05384560 -0.04289732 126 150 92
-0.16783352 0.14894927 -0.02957966 137 176 0
-0.16019043 0.13403259 -0.02041214 96 140 0
-0.16131231 0.12782677 -0.01830252 136 181 0
-0.16078949 0.12852748 -0.01864416 113 163 0
-0.17780927 0.11433725 -0.01643855 193 219 146
-0.18174148 0.18435779 -0.02999506 190 222 115
-0.18707015 0.18441947 -0.02922753 151 182 44
-0.14014730 0.08454785 -0.02652772 166 199 110
-0.14148836 0.08720581 -0.02414520 154 188 114
-0.13894209 0.08492536 -0.02719184 125 155 95
-0.13744012 0.08239409 -0.02962231 115 146 68
-0.15618071 0.13213971 -0.02938508 166 209 5
-0.15551497 0.13054903 -0.03179404 122 168 0
-0.15007465 0.13165455 -0.02379815 124 162 0
-0.15311927 0.12995975 -0.02117868 102 142 0
-0.18985289 0.19123761 -0.04329075 61 95 0
-0.17029421 0.17599706 -0.03643831 122 158 8
-0.17848273 0.17589757 -0.03373627 151 186 8
-0.18651123 0.19757056 -0.05285125 74 99 0
-0.18455046 0.19978550 -0.05288582 109 135 8
-0.15199603 0.11708530 -0.01592275 126 169 19
-0.15065162 0.11833891 -0.01450879 99 149 0
-0.15402320 0.12060147 -0.01902815 139 171 48
-0.14185780 0.09409410 -0.01914774 169 206 12
-0.15923254 0.16184147 -0.05290744 27 56 0
-0.16687767 0.16509072 -0.04919310 120 158 13
-0.13802812 0.12315841 -0.01350415 76 123 0
-0.17339180 0.13630584 -0.02504064 87 122 6
-0.17348105 0.13426410 -0.02429293 88 122 9
-0.13143642 0.11156601 -0.01693066 148 183 89
-0.18147238 0.12225183 -0.02819129 65 83 23
-0.16852289 0.11886757 -0.01534505 144 182 109
-0.16818318 0.11838340 -0.01504322 138 178 105
-0.38656053 0.11615334 -0.14792690 76 117 0
-0.38721433 0.11523720 -0.15071769 54 99 0
-0.37846521 0.11799709 -0.14293283 55 102 10
-0.38210613 0.11783104 -0.14078432 47 90 0
-0.37515959 0.11429143 -0.14101480 156 182 134
-0.37660855 0.11223008 -0.14473318 155 170 141
-0.41314730 0.12049498 -0.18779117 40 69 3
-0.41345897 0.14719284 -0.13092571 122 153 36
-0.38247913 0.12479760 -0.12049301 88 130 6
-0.37991714 0.12106258 -0.12249922 38 82 0
-0.39783415 0.07034869 -0.28971958 43 87 0
-0.38671669 0.12302802 -0.12834156 103 143 11
-0.38565910 0.12255155 -0.12820017 76 117 15
-0.42033485 0.13218611 -0.14279062 98 139 17
-0.42037311 0.13070886 -0.15081753 32 74 2
-0.41824758 0.14512299 -0.13155456 75 111 24
-0.39794064 0.07727785 -0.20054483 86 111 56
-0.39335421 0.07755065 -0.20265898 3 42 0
-0.39412484 0.06413922 -0.30452281 37 69 22
-0.39623243 0.07015027 -0.29624271 25 58 11
-0.39565212 0.06279381 -0.30262390 25 59 9
-0.41758853 0.13258661 -0.13941534 102 142 30
-0.37721068 0.11784094 -0.13836113 27 70 0
-0.37878427 0.11801975 -0.13588478 41 86 0
-0.39049491 0.07752241 -0.22770329 144 159 128
-0.40661204 0.07150869 -0.26861000 117 133 107
-0.40465540 0.06841925 -0.27705124 120 137 121
-0.40770969 0.07036174 -0.27501750 105 120 89
-0.40869704 0.14001587 -0.13211814 102 143 23
-0.41070354 0.13681014 -0.13425431 90 132 20
-0.40859348 0.14003295 -0.13205841 93 134 16
-0.40078601 0.06865736 -0.27654245 145 155 144
-0.40439650 0.07329038 -0.26481897 119 122 103
-0.40196675 0.07224893 -0.26792228 130 147 129
-0.40351996 0.06950919 -0.27378824 136 154 138
-0.40170008 0.07056412 -0.27188295 141 155 140
-0.41330552 0.12659201 -0.14450149 53 98 3
-0.41106969 0.12835951 -0.14123845 76 115 0
-0.41218483 0.13826901 -0.13448524 56 97 5
-0.39858767 0.09224427 -0.18468685 52 97 0
-0.39714080 0.08573827 -0.18927196 32 75 0
-0.39795932 0.09421028 -0.18237278 74 121 7
-0.40788758 0.06593140 -0.28442106 109 113 86
-0.40517300 0.06617948 -0.28334931 149 154 134
-0.40847135 0.12032118 -0.15685479 94 135 3
-0.39855286 0.07199394 -0.27935916 128 146 124
-0.40097392 0.06747393 -0.28099105 152 158 144
-0.39890125 0.07140473 -0.27743101 160 171 157
-0.39965823 0.07004195 -0.27615640 153 163 152
-0.40025458 0.06867332 -0.28558096 168 187 159
-0.39602321 0.07887918 -0.27384010 28 69 0
-0.40434045 0.09768755 -0.19309863 35 69 0
-0.39945447 0.09724450 -0.18263681 42 86 0
-0.40301046 0.09509110 -0.19216296 25 62 0
-0.40033153 0.09195377 -0.18866211 66 108 0
-0.39676288 0.07825690 -0.28928176 39 75 3
-0.39391947 0.08471435 -0.18714392 31 88 9
-0.39674938 0.07742762 -0.28125075 35 74 0
-0.39299363 0.07874064 -0.25057438 163 181 157
-0.38941911 0.08033501 -0.24114311 152 168 142
-0.40884110 0.11542869 -0.16792412 60 100 4
-0.41204712 0.11900625 -0.16754723 74 111 6
-0.41143152 0.11790080 -0.19208816 30 59 1
-0.40105188 0.10026537 -0.18049254 50 95 0
-0.40469375 0.10102978 -0.18694772 26 58 0
-0.40331593 0.10368796 -0.17805526 49 93 0
-0.39996928 0.09895631 -0.18094119 81 131 10
-0.41800815 0.14116703 -0.13514054 95 133 24
-0.40151498 0.08670993 -0.21260768 13 52 0
-0.40049517 0.08559786 -0.21435025 22 62 0
-0.40593129 0.09218610 -0.21159737 19 56 2
-0.40611526 0.10495329 -0.18178174 43 78 0
-0.40732852 0.10742468 -0.18296497 63 109 10
-0.40910372 0.11041234 -0.18683442 71 109 0
-0.39750019 0.13765500 -0.12772395 63 102 0
-0.39410159 0.13311662 -0.12863857 38 76 0
-0.37897301 0.11067663 -0.14356324 130 150 113
-0.38015017 0.11054482 -0.14075217 121 142 99
-0.39659268 0.07645342 -0.28510854 41 81 0
-0.40919217 0.11163328 -0.18134592 79 118 3
-0.41182280 0.11760831 -0.17064585 98 132 11
-0.41023183 0.11436594 -0.17474052 43 80 3
-0.41231638 0.11861928 -0.17236832 51 87 0
-0.41164052 0.11963162 -0.17867875 58 92 5
-0.39172074 0.11809805 -0.14833611 121 161 13
-0.38936064 0.11554759 -0.15133883 92 131 2
-0.39020726 0.11829785 -0.14640981 53 95 0
-0.40296438 0.13298084 -0.13452424 68 110 0
-0.40400049 0.12949620 -0.13742538 52 94 0
-0.39184684 0.07745091 -0.23239401 142 158 132
-0.39719227 0.07396649 -0.27943000 48 88 0
-0.39832702 0.07313956 -0.27793911 48 91 9
-0.40159762 0.10585598 -0.17200302 63 108 7
-0.40545934 0.10814934 -0.17377715 50 86 0
-0.39985603 0.10447174 -0.17172346 52 94 0
-0.40649980 0.10194527 -0.20150481 52 86 2
-0.40678459 0.09484790 -0.21096972 13 47 0
-0.39530617 0.07426044 -0.29801893 41 72 2
-0.41021580 0.11629623 -0.18448369 35 67 0
-0.39549035 0.08537252 -0.24727060 25 79 3
-0.39759469 0.08620259 -0.25041705 55 106 5
-0.40689781 0.11742523 -0.19564462 3 35 0
-0.40817896 0.10528408 -0.20572378 74 109 9
-0.40709770 0.10274491 -0.21039569 78 116 5
-0.39270678 0.07467351 -0.30081561 36 65 7
-0.39061394 0.08224903 -0.22721477 41 84 0
-0.40282974 0.10226400 -0.21422966 47 84 7
-0.40566975 0.09484380 -0.21427386 16 54 0
-0.40372175 0.09673825 -0.21742551 58 97 8
-0.40471828 0.10439119 -0.20722668 58 98 2
-0.40363428 0.10440254 -0.21001905 34 70 0
-0.40567052 0.11126648 -0.19824049 67 103 3
-0.40528142 0.11051437 -0.19989200 65 101 1
-0.40552166 0.09409441 -0.20508227 18 56 0
-0.40488604 0.09416636 -0.20180488 27 62 0
-0.40493208 0.09086810 -0.20799735 38 76 0
-0.39754450 0.08505301 -0.23229206 31 74 0
-0.39711893 0.08590341 -0.23927163 37 88 11
-0.39186615 0.08023735 -0.21770453 15 48 3
-0.40412375 0.08297499 -0.21300083 104 124 61
-0.40209875 0.10257806 -0.21591748 36 73 6
-0.40320486 0.08675680 -0.22979459 18 58 0
-0.40378103 0.08740833 -0.22753237 21 61 1
-0.40346211 0.09384488 -0.22117332 51 92 0
-0.38878289 0.08079510 -0.22256935 50 80 26
-0.38955486 0.07194124 -0.30648810 20 54 3
-0.39010364 0.07395249 -0.30320445 51 81 31
-0.40620869 0.11586725 -0.19867982 22 57 1
-0.40523028 0.11129372 -0.20368141 33 68 0
-0.39495739 0.07479143 -0.27262232 42 82 9
-0.40666544 0.10040998 -0.21514070 58 91 12
-0.40088451 0.09877707 -0.22382183 32 68 7
-0.40534729 0.10041995 -0.21821941 58 95 2
-0.40817499 0.07440456 -0.26137617 116 127 110
-0.38723773 0.11288143 -0.15781732 29 82 0
-0.38474020 0.11226703 -0.15948793 67 121 9
-0.39476398 0.08235631 -0.25810450 1 47 0
-0.39654943 0.08026819 -0.28147712 40 79 0
-0.38509870 0.11877936 -0.13741392 29 69 0
-0.38622111 0.11913431 -0.13812698 86 127 9
-0.39925954 0.07777959 -0.19407098 9 41 0
-0.39833817 0.07322212 -0.21465720 83 119 83
-0.40812862 0.09592184 -0.21811455 58 91 4
-0.41415653 0.11622590 -0.18745589 35 62 9
-0.39264774 0.07793369 -0.21114279 0 33 0
-0.38190231 0.11008687 -0.16187160 41 105 0
-0.42070511 0.12362111 -0.16917945 71 103 40
-0.40614954 0.10151820 -0.20544671 33 68 2
-0.40574217 0.10566646 -0.20200326 65 101 3
-0.37860304 0.11675233 -0.14865668 33 80 0
-0.38768494 0.08374415 -0.25036737 18 49 17
-0.39300305 0.08239114 -0.26790908 20 55 1
-0.39086244 0.08405583 -0.26340473 30 65 1
-0.39429942 0.07604102 -0.28340462 37 69 22
-0.39632681 0.07302627 -0.29146364 38 69 27
-0.39296463 0.07596087 -0.22722748 138 153 124
-0.41058937 0.12006502 -0.19010434 21 50 2
-0.40382567 0.12406924 -0.14543714 39 83 0
-0.39840266 0.12214018 -0.14588693 42 80 0
-0.40190682 0.12406874 -0.14418462 57 108 7
-0.39790592 0.07681132 -0.25838628 152 163 147
-0.39924437 0.07694974 -0.25579560 133 145 135
-0.40429229 0.07635023 -0.25250122 154 168 133
-0.39006245 0.07318079 -0.30672330 26 59 4
-0.39412865 0.07778979 -0.28780785 24 56 7
-0.39295787 0.07725111 -0.28462121 43 73 37
-0.39464673 0.07888890 -0.26032627 53 76 48
-0.39283964 0.08142778 -0.26127738 23 54 12
-0.39580730 0.07522560 -0.28085169 42 75 32
-0.39577371 0.07542220 -0.27915794 41 74 31
-0.39767820 0.07319074 -0.28507003 31 63 24
-0.39603156 0.07560907 -0.27501529 46 73 38
-0.38812366 0.08358994 -0.25270084 28 59 18
-0.39590999 0.11097680 -0.16003852 78 126 6
-0.39592177 0.11800084 -0.15061131 72 119 7
-0.41047859 0.09335081 -0.21561010 99 131 20
-0.40921602 0.09353502 -0.22090158 64 94 4
-0.41545817 0.12400451 -0.14956406 49 94 3
-0.41382515 0.12131533 -0.16317478 78 117 11
-0.41447371 0.12233126 -0.15884466 46 81 0
-0.38430724 0.09761772 -0.17056832 129 156 115
-0.39535698 0.07044511 -0.29719019 26 59 12
-0.39504865 0.07024655 -0.29788661 23 56 9
-0.38818994 0.08277671 -0.23949988 63 87 53
-0.39278957 0.08442677 -0.23771831 28 79 13
-0.40781209 0.11325977 -0.20007116 23 58 0
-0.39600721 0.06955823 -0.29679963 65 104 25
-0.39666176 0.07197766 -0.28866923 55 96 2
-0.42398039 0.12661563 -0.15126465 61 96 0
-0.37807992 0.11888640 -0.12160778 174 214 128
-0.38988596 0.08333976 -0.25800541 42 78 17
-0.39093047 0.08276798 -0.25910792 34 65 8
-0.42317668 0.13152468 -0.13773327 22 55 0
-0.40164277 0.08621823 -0.20590523 3 42 0
-0.39764875 0.08172899 -0.21055076 35 77 3
-0.39895892 0.08249021 -0.19904959 57 100 10
-0.39685479 0.08071104 -0.19811104 9 47 0
-0.39419457 0.07876371 -0.20953961 2 44 4
-0.39550191 0.07976502 -0.20600419 12 59 7
-0.39460161 0.07911348 -0.21022370 9 52 7
-0.38513675 0.09728461 -0.17329045 55 110 6
-0.39208442 0.09160452 -0.17958517 34 84 0
-0.39226303 0.09266508 -0.17877497 26 75 0
-0.38381571 0.10404819 -0.16600080 75 132 0
-0.38315690 0.10387382 -0.16593151 155 191 104
-0.38915774 0.11149088 -0.15881556 86 130 7
-0.38862026 0.09509221 -0.17569248 48 112 16
-0.39066306 0.09273145 -0.17825916 39 95 4
-0.42148829 0.12799931 -0.15807813 47 80 9
-0.40883228 0.10967457 -0.19101349 66 102 6
-0.37896642 0.10827298 -0.15843898 139 150 118
-0.37934029 0.10846258 -0.16016744 156 174 134
-0.39337376 0.08076299 -0.18225852 162 187 147
-0.39368287 0.08113318 -0.18220362 169 195 150
-0.39198339 0.08903516 -0.17773782 139 166 121
-0.39136297 0.08272743 -0.18223877 218 231 205
-0.40191129 0.07719041 -0.19796306 110 127 72
-0.42045370 0.12888984 -0.16689378 41 73 0
-0.40140712 0.07713483 -0.19547477 111 123 77
-0.39801273 0.07681849 -0.24551633 113 127 112
-0.40005675 0.07663450 -0.24008425 110 117 110
-0.39613426 0.07732660 -0.25765276 154 168 155
-0.39594302 0.07099270 -0.21032347 87 102 79
-0.40323791 0.08615560 -0.22952941 22 62 0
-0.40060455 0.08561265 -0.21572438 16 56 0
-0.40225828 0.08715226 -0.21785946 46 93 0
-0.40528417 0.09036368 -0.21961646 18 59 0
-0.38794637 0.08382560 -0.25051704 8 47 3
-0.39393687 0.07146280 -0.21187533 103 119 93
-0.39916056 0.07712542 -0.19736037 69 97 49
-0.39579326 0.07441705 -0.22250690 123 148 116
-0.39555258 0.07427822 -0.22518665 124 139 108
-0.40082508 0.09199801 -0.23536122 20 59 0
-0.40209064 0.08896025 -0.23292531 37 79 3
-0.40103695 0.09090392 -0.23664801 23 64 0
-0.39466885 0.07200875 -0.29921708 61 97 23
-0.40236256 0.09083748 -0.19454509 27 68 0
-0.40078157 0.08573341 -0.19538769 29 67 0
-0.40308288 0.08870076 -0.20270894 30 70 0
-0.40644458 0.10290495 -0.19282773 65 102 6
-0.40551019 0.10042347 -0.19653827 29 69 0
-0.40725386 0.10505017 -0.19115596 56 96 0
-0.39496735 0.08385956 -0.25088161 14 62 4
-0.40857744 0.11972797 -0.18914330 36 67 0
-0.39980009 0.08463298 -0.22772805 40 85 0
-0.40002504 0.08356860 -0.22325049 21 65 0
-0.38974172 0.12126088 -0.13596520 86 124 15
-0.39440602 0.12085881 -0.14506564 82 124 14
-0.38849026 0.08207501 -0.23160250 75 99 65
-0.39239243 0.08340047 -0.23024723 48 94 6
-0.37920135 0.11912141 -0.12522775 56 105 0
-0.37764615 0.11480737 -0.13583329 122 149 98
-0.41767085 0.12627202 -0.16072769 49 87 0
-0.41860515 0.12781411 -0.16414015 78 116 5
-0.38010216 0.11758877 -0.14505394 24 69 0
-0.42201269 0.12907881 -0.16035108 59 92 13
-0.37578472 0.11742777 -0.13366735 17 58 0
-0.37793562 0.12490029 -0.11431229 55 91 0
-0.39305115 0.07183649 -0.21627732 111 126 95
-0.39204013 0.07350104 -0.21159363 123 137 114
-0.40427008 0.08293638 -0.20569459 105 130 46
-0.40999579 0.12157213 -0.18585868 38 68 0
-0.41314691 0.12329237 -0.17849083 48 83 1
-0.39111549 0.07524309 -0.22270143 131 145 112
-0.40410265 0.11549723 -0.16234897 29 70 0
-0.38816661 0.12762649 -0.12636112 89 125 19
-0.38786077 0.12465657 -0.12862854 53 90 0
-0.39070097 0.13062371 -0.12807718 49 83 0
-0.39120790 0.11042902 -0.15993585 109 155 5
-0.39086011 0.10845143 -0.16181737 133 171 8
-0.41788444 0.12703940 -0.14496061 62 107 6
-0.41194886 0.12043258 -0.16397178 39 76 0
-0.41409349 0.12190758 -0.15879110 69 107 4
-0.40807050 0.11906651 -0.15918116 47 88 0
-0.39950436 0.11389033 -0.15863200 39 86 0
-0.39775380 0.11662887 -0.15323012 40 84 0
-0.39728969 0.12066536 -0.14783673 51 96 5
-0.41174385 0.12482847 -0.14635785 77 119 9
-0.40966740 0.12325738 -0.14966793 54 93 2
-0.39536482 0.10529954 -0.16645741 67 110 0
-0.39448240 0.10169398 -0.17125320 112 158 8
-0.39603564 0.10673972 -0.16474257 117 157 8
-0.40421945 0.11013356 -0.16941589 39 77 0
-0.39908433 0.10862734 -0.16451654 85 129 14
-0.41389522 0.12263284 -0.17195812 71 111 14
-0.39603186 0.12967610 -0.13138798 35 71 0
-0.39451998 0.12808102 -0.13410409 46 82 8
-0.39625794 0.12949955 -0.13172042 33 70 0
-0.42019826 0.12858915 -0.14922717 39 81 0
-0.40152720 0.12755381 -0.13704550 46 86 0
-0.40059498 0.12584516 -0.13985159 54 99 8
-0.40394753 0.11974659 -0.15425375 49 92 0
-0.40125772 0.11967883 -0.15259646 50 88 3
-0.42371076 0.13177460 -0.13396893 120 150 64
-0.38918689 0.08121527 -0.23001237 151 172 133
-0.39270326 0.07946931 -0.25468910 33 58 28
-0.38805810 0.08186627 -0.24501774 48 72 36
-0.42098677 0.13112977 -0.14946309 37 77 7
-0.42031151 0.13296549 -0.14590974 48 91 1
-0.42090860 0.13355905 -0.14174102 110 152 28
-0.39496729 0.07745923 -0.25115997 147 161 144
-0.39503044 0.07708281 -0.24252126 126 143 124
-0.39324802 0.07782492 -0.24362908 130 143 126
-0.39310497 0.12481201 -0.13729805 44 87 0
-0.39081788 0.12580936 -0.13265704 44 82 0
-0.39317691 0.12715763 -0.13530132 34 70 0
-0.39043254 0.09156904 -0.17919916 30 85 2
-0.39327455 0.08255231 -0.18507954 156 182 137
-0.39776602 0.07960962 -0.18625301 139 155 119
-0.39656976 0.07948127 -0.18475641 143 166 124
-0.41818401 0.12713122 -0.17044115 59 94 10
-0.37676066 0.11442023 -0.14459155 70 103 34
-0.39999583 0.08930400 -0.24004565 17 57 0
-0.40040019 0.08734878 -0.23672529 44 88 11
-0.40562463 0.11185407 -0.20291294 33 70 0
-0.40195850 0.07939079 -0.20620920 117 135 49
-0.41130748 0.15172507 -0.12829466 184 213 147
-0.40823564 0.15382917 -0.12641355 141 173 97
-0.41707993 0.12166298 -0.17927338 53 85 2
-0.42044827 0.12842621 -0.16704872 46 77 7
-0.40897065 0.13141702 -0.13708320 53 94 0
-0.40216523 0.13598399 -0.13163991 59 99 2
-0.40471569 0.13664018 -0.13144507 78 123 18
-0.07224670 0.30855969 -0.03525991 89 122 17
-0.06578119 0.30891770 -0.03265655 117 152 22
-0.07395974 0.30453679 -0.02889154 172 204 131
-0.07982638 0.30227780 -0.03115314 169 203 119
-0.04789352 0.31581023 -0.02015842 84 120 10
-0.04575351 0.31382516 -0.01825478 161 198 102
-0.07451662 0.30898169 -0.03638139 102 133 40
-0.08120518 0.31086424 -0.02997859 122 166 29
-0.08095948 0.31328839 -0.03157307 90 123 18
-0.07472134 0.30990222 -0.02734097 102 141 52
-0.07370765 0.30931053 -0.02674890 117 158 62
-0.05608279 0.31574327 -0.02740941 60 91 23
-0.05281325 0.31640670 -0.02358830 81 111 25
-0.04011933 0.31856781 -0.02095911 53 82 18
-0.04808136 0.31720138 -0.02360041 28 50 4
-0.07607431 0.31663638 -0.03542757 81 106 22
-0.05272026 0.31543085 -0.02813775 24 53 0
-0.04091379 0.31561691 -0.02304764 49 84 0
-0.04395113 0.31725815 -0.02446501 70 105 3
-0.03725092 0.31898972 -0.01802959 78 93 26
-0.06085644 0.31588122 -0.03010544 36 65 0
-0.06045310 0.31563178 -0.02940668 43 72 8
-0.07086463 0.31578633 -0.03136064 81 104 36
-0.05549540 0.31073087 -0.02887428 83 114 38
-0.05785196 0.31032667 -0.02982301 79 107 33
-0.05492402 0.30925003 -0.02707092 97 132 28
-0.07207214 0.31561583 -0.03419050 90 118 33
-0.06834939 0.31626198 -0.03280980 52 77 9
-0.07103030 0.30662280 -0.02509376 170 204 120
-0.07002284 0.30700573 -0.02468383 172 206 119
-0.07683734 0.30714127 -0.02735866 128 171 82
-0.07756757 0.31281993 -0.03788862 43 74 0
-0.07878804 0.31459138 -0.03768650 52 79 0
-0.06177394 0.31226873 -0.02390150 104 141 48
-0.05084958 0.31235948 -0.01953015 163 201 102
-0.06404501 0.30663431 -0.02598052 168 198 126
-0.07006870 0.30551100 -0.02921889 128 169 67
-0.04587392 0.31759015 -0.02016484 66 98 15
-0.05900565 0.30869162 -0.02186259 185 222 117
-0.05120986 0.30994198 -0.02003340 163 197 111
-0.05954547 0.30735829 -0.02708812 82 118 22
-0.06126126 0.31021437 -0.03138566 85 115 25
-0.05843887 0.31295258 -0.03039946 70 98 24
-0.05200971 0.26611286 -0.23555893 47 94 0
-0.05807115 0.27035773 -0.23198724 52 99 0
-0.10233326 0.28401673 -0.24196491 59 91 8
-0.10179789 0.29709145 -0.23402371 54 81 28
-0.10163166 0.29759046 -0.23609355 43 70 15
-0.05799120 0.25140086 -0.23566313 89 131 19
-0.06224562 0.25239009 -0.23345399 108 150 42
-0.07003665 0.25777426 -0.23155092 130 166 66
-0.05598386 0.24993414 -0.23979726 70 107 14
-0.05875387 0.24927062 -0.23741589 98 136 33
-0.10267229 0.27562004 -0.23732817 68 98 36
-0.10444386 0.27401814 -0.23707794 69 100 43
-0.11832528 0.30157253 -0.23058224 80 111 54
-0.11818159 0.29565096 -0.23250909 83 107 55
-0.11480913 0.29664123 -0.23134936 92 118 70
-0.11288262 0.30669370 -0.23296924 75 103 52
-0.11426733 0.30375025 -0.23207475 70 99 45
-0.06712391 0.25808960 -0.23287536 66 104 0
-0.12039033 0.29056501 -0.23371172 75 113 26
-0.11795079 0.29370797 -0.23297255 89 115 54
-0.12308556 0.29552880 -0.23372430 84 109 52
-0.05890100 0.26162478 -0.23402932 33 62 4
-0.09560499 0.28664327 -0.24139409 51 85 1
-0.09274734 0.27959704 -0.23635975 49 77 3
-0.09150355 0.28627133 -0.23795643 52 90 5
-0.09234148 0.27849168 -0.23572491 40 73 2
-0.07571012 0.26090583 -0.23425822 68 102 0
-0.07866839 0.27340716 -0.23129912 60 90 4
-0.11563010 0.30344400 -0.23883389 80 124 11
-0.11553223 0.29520974 -0.23820321 70 106 10
-0.09760358 0.28707218 -0.24202444 44 76 3
-0.07269834 0.27489269 -0.22961822 48 78 14
-0.10143078 0.29743826 -0.24059661 46 75 8
-0.06675904 0.26110429 -0.23200463 56 91 7
-0.06291690 0.26122847 -0.23196107 41 65 17
-0.06386074 0.25320092 -0.23204772 91 133 21
-0.09630992 0.28148583 -0.23932742 71 101 13
-0.10018981 0.28216815 -0.24042432 58 88 2
-0.11361969 0.28117749 -0.23641345 74 112 37
-0.11164457 0.29594737 -0.23149355 92 120 71
-0.11665145 0.30251795 -0.23109232 70 100 46
-0.08670177 0.27818596 -0.23468971 48 78 0
-0.08157250 0.27964804 -0.23459841 43 82 3
-0.09869277 0.28666654 -0.24259661 39 69 5
-0.08666801 0.27374429 -0.23350768 35 65 5
-0.10560291 0.29658061 -0.24149141 44 78 4
-0.10667411 0.30350250 -0.23960775 67 86 54
-0.11160709 0.29593745 -0.24037221 56 96 8
-0.11318992 0.30574617 -0.23930126 56 100 2
-0.05841434 0.26522714 -0.23385495 45 90 0
-0.05415151 0.26360098 -0.23556298 43 85 0
-0.06816889 0.26908633 -0.23178981 52 87 7
-0.06295993 0.25520292 -0.23566654 111 146 2
-0.11610670 0.28363031 -0.23512721 63 104 26
-0.11053299 0.28346846 -0.24121077 95 127 54
-0.09840532 0.29580954 -0.23585039 39 66 15
-0.06819078 0.25272879 -0.23133406 114 149 31
-0.07595451 0.27725640 -0.23010159 58 91 12
-0.08053478 0.27936742 -0.23390314 44 83 2
-0.06437447 0.26977006 -0.23099709 62 102 6
-0.06340101 0.27010387 -0.23103891 72 114 12
-0.07469422 0.26331466 -0.23303793 91 130 24
-0.11493905 0.30963516 -0.23574677 117 122 102
-0.12331723 0.28877053 -0.23550735 65 103 18
-0.12255646 0.29092243 -0.23439114 88 127 36
-0.12214289 0.29317617 -0.23715502 82 117 1
-0.11483665 0.28912547 -0.23948510 58 90 7
-0.12148874 0.28726944 -0.24051180 88 119 41
-0.12058508 0.28754061 -0.24116139 104 136 60
-0.09931555 0.29747769 -0.23918626 44 66 17
-0.10178225 0.29107445 -0.24082725 52 85 4
-0.10325865 0.29113832 -0.24116214 57 91 5
-0.11146367 0.27915227 -0.23942141 74 105 45
-0.10128352 0.29444835 -0.23221618 44 70 23
-0.10779303 0.29293048 -0.23182192 84 111 66
-0.10946678 0.30515012 -0.23522763 63 91 43
-0.10608342 0.30209804 -0.23907889 55 80 40
-0.11017053 0.28628680 -0.24192522 42 74 0
-0.11983673 0.29483607 -0.23692960 59 92 1
-0.07788061 0.26966247 -0.23160107 65 97 21
-0.06530777 0.25244486 -0.23574097 103 140 11
-0.08093780 0.26665822 -0.23295070 73 113 1
-0.11792102 0.28822288 -0.24131726 44 77 0
-0.08015972 0.26465029 -0.23368132 67 107 0
-0.07624870 0.27135664 -0.23161745 65 94 14
-0.13292597 0.31264839 -0.24183753 35 70 4
-0.13945831 0.30213147 -0.23913768 68 93 38
-0.13890108 0.30087426 -0.23914744 43 67 9
-0.13587385 0.30949411 -0.24249560 55 90 8
-0.14077795 0.30771700 -0.24293813 63 81 41
-0.12738444 0.30352598 -0.23939951 55 95 0
-0.12711291 0.29933634 -0.23803459 40 68 10
-0.12334226 0.28840125 -0.23970905 52 86 2
-0.13920875 0.31233734 -0.24760740 55 89 12
-0.11957592 0.30966836 -0.23767319 67 107 8
-0.11550818 0.30960241 -0.23568386 98 105 87
-0.14019124 0.30459046 -0.24007429 47 69 23
-0.13658272 0.30335775 -0.23932372 53 72 40
-0.13061140 0.29216054 -0.23873766 63 98 6
-0.14478992 0.30765927 -0.24841534 48 73 15
-0.11930367 0.31113660 -0.23326121 89 115 70
-0.12003919 0.30692959 -0.23088399 87 122 58
-0.11813727 0.31262147 -0.23416960 114 134 99
-0.11906133 0.30297518 -0.23835081 83 132 6
-0.13015595 0.31524563 -0.23772691 73 91 39
-0.13746493 0.31387040 -0.24069129 70 88 36
-0.13502683 0.31519046 -0.24002659 69 82 29
-0.13641584 0.31705800 -0.24766064 33 64 7
-0.13284463 0.31737849 -0.24451797 48 78 16
-0.13725577 0.31691080 -0.24815178 32 61 7
-0.13114621 0.29660752 -0.23756120 53 80 9
-0.12804407 0.29138437 -0.23655730 83 122 33
-0.13189650 0.29238138 -0.23776357 43 74 0
-0.12383763 0.30350661 -0.23172428 85 114 56
-0.12813166 0.30164933 -0.23482586 87 111 53
-0.13666493 0.31222329 -0.24001864 72 91 35
-0.12903894 0.30503181 -0.23522429 88 112 52
-0.13908498 0.30616215 -0.23951711 85 108 54
-0.13903919 0.30703536 -0.23974346 82 105 53
-0.13022545 0.30050179 -0.23604341 104 124 65
-0.12694503 0.31448776 -0.23813589 46 83 5
-0.12757951 0.31463838 -0.23828001 49 86 9
-0.13056575 0.30216050 -0.23860113 57 75 37
-0.14065094 0.30030698 -0.24001335 60 84 26
-0.14147231 0.30398813 -0.23955210 74 97 41
-0.13261904 0.29720154 -0.23691407 87 118 42
-0.13063577 0.30712685 -0.24029292 54 92 9
-0.12915759 0.31160656 -0.23982388 41 74 3
-0.13065164 0.31396413 -0.24114200 31 67 3
-0.13427897 0.31619990 -0.24651945 29 59 9
0.17890890 0.00542300 -0.29946768 79 109 75
0.17402458 0.02855723 -0.25700080 31 61 0
0.17080824 0.03389330 -0.25693041 55 84 17
0.16983774 0.02904076 -0.24620596 51 91 3
0.16993016 0.02877690 -0.24688268 56 96 8
0.17599167 0.02882831 -0.25259045 43 67 5
0.17434494 0.01739258 -0.26616979 63 106 37
0.17783287 0.01725408 -0.26451874 105 142 62
0.16427048 0.03389876 -0.24330169 56 88 15
0.16895320 0.03193070 -0.23862575 88 127 46
0.16465904 0.03211952 -0.24811897 46 76 6
0.16609384 0.03201371 -0.24508463 54 85 15
0.16646078 0.03760746 -0.24895149 32 73 0
0.16721784 0.02973041 -0.25358275 32 67 1
0.17305189 0.03442752 -0.24032870 43 73 0
0.17552058 0.02551752 -0.26201135 36 65 1
0.17221688 0.03262500 -0.25174525 33 61 2
0.17883469 0.01037745 -0.28277504 22 64 0
0.18231028 0.02610807 -0.26327181 44 75 0
0.17204696 0.02901210 -0.24390893 130 172 90
0.17184162 0.02845480 -0.24433017 121 163 77
0.17576714 0.03124613 -0.24623348 55 79 3
0.17829686 0.02312496 -0.28264099 59 91 16
0.17777477 0.01860319 -0.28642151 67 99 32
0.17411871 0.03378276 -0.24660008 39 65 4
0.17958440 0.00399824 -0.29162946 66 107 28
0.17721935 0.01308724 -0.28806704 42 73 16
0.17880900 0.01096016 -0.28167719 25 66 0
0.18212436 0.02156681 -0.26958719 48 83 0
0.16894917 0.02784115 -0.25995576 37 67 3
0.17044093 0.02747384 -0.26544917 58 101 9
0.18448296 -0.00376618 -0.31251642 138 164 125
0.16917475 0.03226767 -0.25800353 35 73 0
0.16763212 0.03659611 -0.25168791 31 71 0
0.17997268 0.00654152 -0.28993881 26 57 0
0.18181591 0.00409613 -0.30624479 21 59 2
0.17862716 0.01281758 -0.29222524 70 104 53
0.18219642 0.02744486 -0.27229029 71 104 15
0.17948218 0.02560589 -0.27576113 67 102 10
0.18177199 0.02473221 -0.27239293 59 93 7
0.18188228 0.02352127 -0.26652035 48 82 0
0.18221344 0.01843413 -0.27524158 42 76 2
0.17973848 0.00788517 -0.28835994 29 64 0
0.18136621 0.02551676 -0.26299393 45 76 0
0.17637976 0.01192157 -0.28676793 36 66 4
0.17258470 0.03178310 -0.25351876 33 61 2
0.17262264 0.03602026 -0.24431804 50 76 31
0.17985627 0.00797591 -0.29984084 101 137 89
0.17287411 0.01623536 -0.27653667 42 81 16
0.17405640 0.01373908 -0.27380529 52 92 29
0.17622192 0.00928845 -0.27880073 73 110 40
0.18025620 0.01319812 -0.27288863 89 127 26
0.17960158 0.01184785 -0.27433506 112 153 59
0.17901270 0.02911208 -0.25987330 48 75 6
0.17597315 0.02816757 -0.25095958 82 110 33
0.17226705 0.03126154 -0.25967667 52 82 10
0.17090252 0.02287170 -0.26676908 43 79 15
0.17020276 0.02214461 -0.26211867 45 82 15
0.17441943 0.02286384 -0.25583011 110 149 70
0.17323817 0.01972841 -0.26235867 63 103 32
0.17706062 0.01514592 -0.26824245 94 133 76
0.17711070 0.01392313 -0.26990026 87 128 72
0.18406583 0.00010733 -0.30743751 131 158 123
0.18024053 0.00519373 -0.30546841 26 72 0
0.17645946 0.02517300 -0.26004192 37 61 0
0.17766371 0.00336513 -0.30397421 29 65 1
0.17674057 0.00126913 -0.30446467 12 44 0
0.07645839 0.09458753 -0.13556744 155 186 127
0.07554802 0.09021970 -0.13668652 158 191 110
0.07458374 0.10815176 -0.12749648 122 151 93
0.07370009 0.10930837 -0.12731922 126 150 98
0.07224227 0.14417577 -0.10792637 110 149 8
0.07230616 0.14403997 -0.10908988 106 143 12
0.07289615 0.13665703 -0.12223957 44 80 0
0.07291174 0.13467346 -0.12331008 54 88 0
0.07250085 0.13821378 -0.12344585 80 117 12
0.07279795 0.13216512 -0.12516797 49 81 0
0.09617269 0.08481437 -0.15806723 88 115 70
0.10098209 0.08518472 -0.16602060 69 103 27
0.07512403 0.12352385 -0.12635975 44 73 6
0.07792845 0.11614360 -0.12675530 109 139 41
0.07107915 0.10876679 -0.13083053 120 155 71
0.07251090 0.12971498 -0.12194997 58 89 9
0.07181559 0.13191490 -0.11935677 60 94 7
0.05236641 0.13565430 -0.09499735 91 128 0
0.07506055 0.11127293 -0.12312942 80 125 6
0.04889905 0.13415645 -0.09976215 144 175 116
0.04666593 0.13712412 -0.10109162 141 173 106
0.05097603 0.13292219 -0.09751369 104 137 82
0.07202910 0.11020316 -0.12548301 59 100 8
0.04056636 0.14926095 -0.09364350 88 132 9
0.03753209 0.15005355 -0.08932060 95 141 6
0.04171307 0.14499871 -0.09493827 52 97 0
0.07867713 0.09986719 -0.13258772 122 152 98
0.06405378 0.11049244 -0.11827041 103 136 45
0.06437527 0.11218675 -0.11902718 90 127 14
0.07467429 0.11331075 -0.12072205 90 134 0
0.11136752 0.07856393 -0.17701085 96 126 66
0.11240499 0.07792450 -0.17846693 107 136 78
0.11071431 0.07883050 -0.17245439 117 145 84
0.11563876 0.07579512 -0.17935748 94 119 61
0.05107174 0.13386521 -0.09727109 89 138 0
0.04689581 0.13044031 -0.10122028 119 163 4
0.05121590 0.12509826 -0.10077930 176 205 139
0.05306114 0.12526783 -0.09909178 152 177 120
0.05039386 0.12706745 -0.09883171 97 144 2
0.07756218 0.09501737 -0.13853201 62 113 0
0.06042624 0.15608972 -0.09455661 136 176 18
0.04396227 0.14157812 -0.09421628 50 91 0
0.07627863 0.11812308 -0.12818517 41 68 0
0.07455211 0.12413374 -0.12679052 51 80 13
0.06384937 0.11487763 -0.11597950 57 92 0
0.06965227 0.11306723 -0.12163820 88 132 8
0.06592868 0.11646329 -0.11259578 76 115 9
0.06843925 0.11564901 -0.11470923 85 124 7
0.06807400 0.11741252 -0.11102101 134 182 12
0.09586994 0.10739937 -0.13844030 57 87 15
0.05474490 0.11415643 -0.10186850 173 197 149
0.05418725 0.11471772 -0.10210395 174 195 152
0.07333641 0.14577386 -0.11398546 56 91 0
0.07452184 0.14982949 -0.11100842 40 85 2
0.10393101 0.08813342 -0.15882161 1 35 2
0.10319845 0.08797752 -0.16367882 0 38 0
0.07712188 0.12311094 -0.11719442 96 134 21
0.07354379 0.10337749 -0.13510875 113 142 75
0.11877470 0.09016026 -0.16206960 36 62 25
0.05637570 0.11451821 -0.10020353 132 175 7
0.05609083 0.11189225 -0.10172822 172 198 137
0.07153517 0.12912330 -0.13223170 62 90 5
0.06402554 0.11742262 -0.10888103 94 140 15
0.06148301 0.11664661 -0.10386686 32 73 0
0.06581874 0.11938152 -0.10534580 124 171 13
0.10001834 0.09108950 -0.15559573 19 54 21
0.10283095 0.09707209 -0.15629195 0 33 0
0.10622629 0.08977174 -0.16120709 0 26 0
0.10946278 0.08612106 -0.17154509 0 17 0
0.11039613 0.08598201 -0.17051142 0 21 0
0.11272371 0.09420425 -0.15677156 40 69 11
0.11103640 0.09542747 -0.15455902 42 73 14
0.09963584 0.08686437 -0.15925041 84 121 41
0.10641912 0.09980995 -0.14502051 43 79 9
0.09700681 0.10657936 -0.13868727 43 73 1
0.11382953 0.08851236 -0.16843224 0 29 0
0.11529838 0.08822875 -0.17057067 22 57 17
0.11537138 0.08676280 -0.17716299 0 34 0
0.07949909 0.10559504 -0.13929830 5 46 0
0.10447951 0.08744660 -0.17063777 114 158 34
0.09429017 0.10152856 -0.14720082 29 68 11
0.09191593 0.09823442 -0.14946935 22 62 0
0.09462874 0.09920671 -0.14985824 44 83 18
0.09835342 0.09806488 -0.15303691 35 74 9
0.09447327 0.10641000 -0.14208467 7 43 0
0.08644773 0.10603687 -0.13995418 46 91 22
0.08489458 0.10553219 -0.14005233 14 58 0
0.11610278 0.08508597 -0.18266277 34 70 8
0.11768863 0.08685158 -0.18341954 50 90 17
0.08978772 0.09829982 -0.14863390 20 61 3
0.08264485 0.10439393 -0.14064507 5 46 0
0.11226713 0.09040871 -0.16579504 9 38 10
0.07192453 0.12554340 -0.13239776 60 87 10
0.06669091 0.11210858 -0.11956804 108 138 52
0.10805222 0.08814062 -0.16507146 9 35 6
0.09482806 0.08699263 -0.15540148 68 99 40
0.10267034 0.08792526 -0.15771675 2 38 2
0.07864004 0.11807434 -0.12298113 78 113 11
0.06605920 0.11223967 -0.11430377 106 139 48
0.10994163 0.07914329 -0.16802892 105 133 74
0.10690136 0.08048249 -0.17348908 107 135 74
0.06250364 0.10971645 -0.11489472 96 128 29
0.06296542 0.10912885 -0.11471469 89 121 24
0.10382353 0.08162720 -0.16502975 112 140 65
0.10494710 0.08115169 -0.16716102 131 157 92
0.10806628 0.08344366 -0.17718847 14 46 0
0.10292751 0.08251224 -0.17043032 105 136 68
0.06554032 0.10993280 -0.12225074 114 143 59
0.07442454 0.10725087 -0.12757522 67 112 7
0.10107261 0.10295518 -0.14531352 36 70 9
0.09788633 0.10528450 -0.14343999 40 75 11
0.10505086 0.10074245 -0.14530590 43 82 3
0.05786158 0.14999846 -0.09592392 135 182 4
0.07454345 0.11062063 -0.13425866 117 160 10
0.12327827 0.08703648 -0.17063725 32 61 7
0.12689209 0.08604183 -0.17462640 51 74 18
0.07613185 0.13264027 -0.11056523 46 81 0
0.07457630 0.12827042 -0.11706626 39 69 5
0.10377050 0.08540179 -0.17089319 32 71 0
0.06447104 0.10959841 -0.11855679 102 135 46
0.07216574 0.12044366 -0.10696039 113 151 3
0.07437987 0.11973731 -0.10969415 127 169 9
0.07501282 0.12004422 -0.10953809 161 203 17
0.04274444 0.15141910 -0.08902574 101 140 11
0.04079634 0.15087102 -0.08970726 130 174 15
0.10639877 0.09651097 -0.15785812 9 44 2
0.10991039 0.09484321 -0.15878348 0 24 0
0.06758095 0.14975272 -0.09734879 131 177 6
0.05455532 0.11882620 -0.09869871 92 137 0
0.04913609 0.12066724 -0.10193633 97 144 6
0.12150545 0.08119252 -0.18906781 3 35 0
0.12145053 0.08223195 -0.18856019 5 37 0
0.09049261 0.09164477 -0.15170427 8 46 0
0.09298531 0.08827937 -0.15408893 39 73 13
0.03490647 0.14980341 -0.08899580 92 135 2
0.03577422 0.15045513 -0.08780258 103 150 8
0.05140768 0.12368844 -0.09906314 93 138 0
0.07555430 0.09585419 -0.13785881 145 195 74
0.05734979 0.12665227 -0.09628172 83 135 0
0.05909562 0.12793617 -0.09631573 115 155 4
0.07374725 0.13996182 -0.10733535 51 86 6
0.07741833 0.13394836 -0.10782907 57 88 0
0.04893989 0.13361928 -0.09870068 111 159 11
0.08305261 0.10712787 -0.12166458 173 203 107
0.07677271 0.10997865 -0.12097374 107 135 76
0.08300449 0.10412025 -0.12440859 126 156 94
0.05369353 0.15326814 -0.09201533 58 96 0
0.05416478 0.15610507 -0.09128459 86 123 7
0.05849537 0.13609207 -0.09390751 152 190 7
0.07237191 0.11944263 -0.13512133 49 75 4
0.07233372 0.12179347 -0.13329518 62 87 19
0.06036660 0.13543704 -0.09476698 102 143 0
0.05983531 0.13483267 -0.09450992 139 178 11
0.06733029 0.12914884 -0.10012978 93 130 0
0.05684247 0.13527715 -0.09286540 128 169 5
0.04858021 0.13976760 -0.09288409 68 111 0
0.06151532 0.14467181 -0.09682961 113 160 0
0.05651244 0.14036572 -0.09568255 137 176 5
0.07469936 0.16149496 -0.10526878 41 86 0
0.07160386 0.14336140 -0.10473757 46 79 0
0.07062844 0.14185293 -0.10324405 57 92 0
0.06752937 0.13967170 -0.09952530 173 216 15
0.05173055 0.14760938 -0.09125057 102 146 0
0.06811401 0.15373021 -0.09736279 132 173 0
0.12815696 0.08562861 -0.17730431 45 70 15
0.12118962 0.08733417 -0.18015902 19 51 10
0.12037373 0.08780822 -0.17669471 10 42 3
0.07720179 0.10246452 -0.13875407 28 82 0
0.07714967 0.10118309 -0.13857977 64 121 0
0.04667709 0.14940932 -0.09364120 62 104 0
0.06028212 0.14370452 -0.09689802 158 204 10
0.06190041 0.11412930 -0.11337297 89 132 0
0.06283779 0.11136410 -0.11567534 111 144 40
0.05995767 0.11485136 -0.10745846 61 101 4
0.06395156 0.12088694 -0.10017432 111 157 9
0.05938439 0.12108403 -0.09829664 90 140 9
0.05052618 0.11614319 -0.10425036 101 140 11
0.11858661 0.08036108 -0.18643738 10 44 0
0.11365058 0.07965150 -0.18241423 63 93 43
0.12087477 0.07327734 -0.18507834 86 116 52
0.04128613 0.13984878 -0.09998051 126 163 21
0.12206800 0.07385484 -0.18799120 49 75 27
0.12260578 0.07511619 -0.19141629 23 55 8
0.07875355 0.16159327 -0.11053357 101 137 27
0.07867047 0.12397720 -0.11365283 92 132 20
0.07930726 0.12804812 -0.10991785 83 129 0
0.07276827 0.11002970 -0.12707022 121 143 94
0.07450352 0.14975119 -0.11406711 88 132 9
0.05069369 0.11524519 -0.10516186 105 139 27
0.07376183 0.15632641 -0.11606068 45 93 7
0.07036483 0.13135809 -0.10168672 49 84 0
0.06733129 0.13039605 -0.09995399 158 198 14
0.06794099 0.12795186 -0.10068179 92 130 0
0.06914376 0.13479742 -0.10043859 73 100 0
0.07295062 0.15222819 -0.10399123 107 155 9
0.07159480 0.14830929 -0.10320578 149 187 16
0.07360629 0.15026487 -0.10588514 100 147 9
0.02802728 0.14861864 -0.09134170 144 173 7
0.13683796 0.06455507 -0.20353484 75 106 39
0.13894069 0.06600886 -0.20943755 42 67 12
0.13851795 0.06636175 -0.20912696 43 68 13
0.13297081 0.06949865 -0.20302318 44 70 22
0.07331663 0.10938854 -0.13153452 92 139 27
0.07169113 0.15842198 -0.10099842 81 119 0
0.07247512 0.15959358 -0.10260376 87 137 6
0.07475933 0.12060321 -0.10879203 159 201 15
0.07443107 0.12665892 -0.10501605 46 82 0
0.07721949 0.12140802 -0.11074142 57 97 1
0.05407213 0.14638047 -0.09592905 97 140 0
0.04763663 0.13769972 -0.09556437 71 116 0
0.07610813 0.10299260 -0.13698070 41 97 0
0.04895516 0.14484203 -0.09464408 96 143 3
0.06631661 0.14288589 -0.09756641 90 130 0
0.06766892 0.14109848 -0.09983152 126 170 13
0.12886406 0.06811830 -0.19226134 76 104 55
0.13345997 0.06733404 -0.20084499 99 134 50
0.13141611 0.06809005 -0.19769540 98 133 53
0.13161989 0.06799762 -0.19798149 97 132 52
-0.09100953 0.27636170 -0.22884883 106 133 82
-0.09418328 0.27976334 -0.22987129 108 134 86
-0.08447699 0.27020794 -0.22906683 89 120 50
-0.08103852 0.26660413 -0.23058656 88 122 35
-0.10210423 0.29118472 -0.23150322 48 74 29
-0.09370822 0.28667703 -0.23055832 66 94 54
-0.09269600 0.28454128 -0.23007961 74 103 57
-0.09067811 0.27121794 -0.22836864 106 141 51
-0.08700328 0.27626196 -0.22916186 93 119 71
-0.10783632 0.28969967 -0.23149706 90 116 69
-0.09555889 0.28183183 -0.23000364 74 100 55
-0.07207772 0.28021377 -0.22438487 71 101 41
-0.07052013 0.28249910 -0.22452430 69 97 23
-0.07055079 0.27535075 -0.22371298 73 111 38
-0.08783675 0.26749921 -0.22904065 67 103 7
-0.07002293 0.26144013 -0.23071675 81 119 36
-0.08043867 0.28097439 -0.22602943 54 92 31
-0.08503468 0.28204626 -0.22746609 59 94 36
-0.08368023 0.28181213 -0.22703741 52 88 27
-0.06809447 0.27533570 -0.22365242 66 104 27
-0.06675545 0.27897528 -0.22388154 53 84 6
-0.10819217 0.27938682 -0.23361836 66 106 20
-0.10412008 0.27914965 -0.23214844 64 103 14
-0.07500001 0.26846892 -0.23046732 100 129 75
-0.10783207 0.28712741 -0.23171403 69 97 46
-0.10927875 0.28582180 -0.23210786 61 91 29
-0.09495187 0.27631494 -0.23526679 58 90 17
-0.09924521 0.27477565 -0.23577444 41 73 6
-0.09559371 0.27335060 -0.23313008 63 99 9
-0.09176280 0.27075040 -0.22973472 127 166 57
-0.07515767 0.28084397 -0.23174198 41 72 5
-0.08888808 0.29006523 -0.23001565 58 81 25
-0.08424101 0.29005069 -0.23175371 55 78 32
-0.08110107 0.29021579 -0.23321287 54 78 16
-0.08902787 0.29223272 -0.23395860 53 77 27
-0.07055824 0.28010985 -0.22704679 77 108 15
-0.07634585 0.28664771 -0.22859265 34 63 7
-0.08709157 0.29084137 -0.23629180 42 66 18
-0.07215797 0.28405660 -0.22894800 47 74 7
-0.08961909 0.28900105 -0.23797175 25 54 0
-0.08402663 0.28494132 -0.23619299 44 74 10
-0.07924642 0.28731221 -0.23425412 52 82 12
-0.07451749 0.28471187 -0.23188664 56 83 12
-0.05918935 0.27456385 -0.23011123 57 102 1
-0.06855765 0.27857551 -0.22658917 53 84 0
-0.07065833 0.27149472 -0.22557591 73 113 40
-0.07524712 0.27082270 -0.22838742 77 112 48
-0.09437854 0.27060583 -0.22921735 144 183 74
-0.09781609 0.27171019 -0.23139979 53 90 0
-0.07402743 0.28522268 -0.22696638 49 78 24
-0.07798211 0.27406415 -0.22673188 69 103 42
-0.08260278 0.27625227 -0.22785473 66 97 37
-0.07364415 0.26082066 -0.23072881 118 155 59
-0.08951399 0.28456104 -0.22930598 63 93 41
-0.08503619 0.28670949 -0.22769909 49 75 28
-0.08863851 0.28879213 -0.22925431 50 73 27
-0.08281671 0.26322126 -0.23014741 76 111 17
-0.06032537 0.27727637 -0.22442263 75 102 21
-0.11381575 -0.02646157 -0.11058915 122 137 78
-0.11668014 -0.01952073 -0.10073732 133 147 111
-0.11283233 -0.02507029 -0.11864956 33 78 0
-0.12086649 -0.02296094 -0.10772029 138 153 72
-0.10407670 -0.02395591 -0.12315547 41 94 6
-0.09964009 -0.02282586 -0.12783422 44 96 0
-0.09329893 -0.03437982 -0.13660520 150 145 105
-0.09269869 -0.03457455 -0.13672689 141 133 94
-0.08318113 -0.03035816 -0.15634926 30 70 7
-0.10462861 -0.02748642 -0.11334309 44 97 5
-0.10158066 -0.02802374 -0.11494362 44 96 0
-0.07259692 -0.03244757 -0.16200303 29 69 7
-0.08291203 -0.02840938 -0.15045764 0 31 0
-0.13069713 -0.00658808 -0.09166079 91 115 39
-0.13275462 -0.00706262 -0.09601488 90 119 27
-0.13214038 0.00871714 -0.06440701 54 98 0
-0.13149187 0.00711007 -0.06486973 66 110 0
-0.06698142 -0.03956440 -0.17832430 14 62 0
