0.30776814 0.14225811 0.11999071 207 232 102
0.30839947 0.16330339 0.13045453 77 125 3
0.33622983 0.16466163 0.12714028 110 160 1
0.33866447 0.15983306 0.12293275 38 92 0
0.30944496 0.11742967 0.08224875 59 109 0
0.30729705 0.12143742 0.08354494 45 97 0
0.30269083 0.12123201 0.09525178 130 156 109
0.30248818 0.12079982 0.09451003 133 161 112
0.30405536 0.11837824 0.09521858 178 210 109
0.31703675 0.10760410 0.09334080 129 165 75
0.30190727 0.12246636 0.08693087 102 130 82
0.30155042 0.12081508 0.08672666 110 133 89
0.30496371 0.16438448 0.13108943 98 146 10
0.30976009 0.16753618 0.13711798 103 146 15
0.31286675 0.16659558 0.13284715 106 148 4
0.30987701 0.15590903 0.12239616 95 145 0
0.30960125 0.15867801 0.12538442 121 166 11
0.30137572 0.16280967 0.13266183 41 87 0
0.30459917 0.16943821 0.13942069 83 129 0
0.30125505 0.16811088 0.13805191 65 115 2
0.30070907 0.16723630 0.13672145 56 109 5
0.32821000 0.13763490 0.10101175 113 167 7
0.32783180 0.13981615 0.10314384 110 155 4
0.31717330 0.10413408 0.08219906 104 127 75
0.32714814 0.15201676 0.11465943 70 120 0
0.32572278 0.14478588 0.10874349 69 119 0
0.32467112 0.15077430 0.11451183 137 181 10
0.31213829 0.16955811 0.13496377 60 102 2
0.31304133 0.17335856 0.13471614 146 179 12
0.30408877 0.15897557 0.12135525 87 136 8
0.30405408 0.16321766 0.12875727 98 147 6
0.30510285 0.15844887 0.12162409 67 117 0
0.30976647 0.14797123 0.10695445 71 119 0
0.30760166 0.15343460 0.10853894 85 131 6
0.31067464 0.15084261 0.11458550 152 187 9
0.31040221 0.15299436 0.11713744 143 182 5
0.31161118 0.11664013 0.08124260 119 172 22
0.31248036 0.11747248 0.08219077 48 95 0
0.34956577 0.15571703 0.12000576 129 131 82
0.34541178 0.16172628 0.11659835 70 116 8
0.34600541 0.15360112 0.11109900 82 99 54
0.34647793 0.15564850 0.11266594 108 124 79
0.32556534 0.10524978 0.08244635 108 137 53
0.31069401 0.11241806 0.09403421 130 151 108
0.31146106 0.11272311 0.09514133 126 153 108
0.34676108 0.16101049 0.11966085 98 119 14
0.30482966 0.12262606 0.08223495 53 100 4
0.34662434 0.15929669 0.11582994 109 119 66
0.34708849 0.15606517 0.11391557 110 124 65
0.34524661 0.16101247 0.12389886 61 102 0
0.34401482 0.15729941 0.11033152 154 171 126
0.34190693 0.15045792 0.10393858 84 98 62
0.34113431 0.15309015 0.10542075 134 150 105
0.34163025 0.16923726 0.12866415 72 130 9
0.34162766 0.16776530 0.12841038 63 121 0
0.34479460 0.16238061 0.11860029 58 104 0
0.34429973 0.14699855 0.10511322 130 146 110
0.34467998 0.15051965 0.10786318 90 108 70
0.31315342 0.11792959 0.10255316 121 146 88
0.32596156 0.17184280 0.12606940 88 142 5
0.31737316 0.09411946 0.06470475 79 96 42
0.31036580 0.17985146 0.14074318 112 154 8
0.31122959 0.18328789 0.14106780 115 160 0
0.33674279 0.18967913 0.12932289 52 99 3
0.33706251 0.15391454 0.10520907 31 74 2
0.32453418 0.09845769 0.06625457 115 119 92
0.30456665 0.17438219 0.14229275 92 137 8
0.30301887 0.10539825 0.07919507 119 151 76
0.30489323 0.10214056 0.07787129 86 115 51
0.30767614 0.14347464 0.12187079 179 209 95
0.30640680 0.14698918 0.11965097 86 127 25
0.30027404 0.16233240 0.13722789 117 147 87
0.31179264 0.10689403 0.08935064 109 134 92
0.30478477 0.09694627 0.07377964 98 125 58
0.32210371 0.09768584 0.06561761 161 165 142
0.32695436 0.17355627 0.12516008 95 152 9
0.32730457 0.17159504 0.12641944 88 142 0
0.32042891 0.18398224 0.13035750 132 180 18
0.31562379 0.10521442 0.08539313 136 172 72
0.32860601 0.10621303 0.08274519 123 153 67
0.32855868 0.17736933 0.12710039 89 139 6
0.32772481 0.17657813 0.12568498 122 182 9
0.31129482 0.10431469 0.08161724 136 157 116
0.32671481 0.17813163 0.12515104 71 119 7
0.32785180 0.18291751 0.13033207 100 151 12
0.32871869 0.18258150 0.13178001 67 122 0
0.32069230 0.18709266 0.12908882 103 151 3
0.30425835 0.14219230 0.11202947 164 198 77
0.30558997 0.09788116 0.07537913 125 152 85
0.30421323 0.10849670 0.08553983 131 164 75
0.30159566 0.14224379 0.10962289 140 173 82
0.30323467 0.14034511 0.10940794 110 141 74
0.30676505 0.13548292 0.11370964 186 211 93
0.30677286 0.13957566 0.11579484 200 222 96
0.31545064 0.11220718 0.09760560 136 169 88
0.30441806 0.11142238 0.08921708 156 187 84
0.30601037 0.11017358 0.08954260 119 150 83
0.31857961 0.18757015 0.13201472 106 148 10
0.30740812 0.11041162 0.09046595 121 151 87
0.31805778 0.18842180 0.13525061 40 84 0
0.31222966 0.11656079 0.10048600 123 146 104
0.31462985 0.10578821 0.08983229 128 160 77
0.31498212 0.13720512 0.10350243 81 137 2
0.31564751 0.13931069 0.10541446 133 184 3
0.31389898 0.14100142 0.10471451 84 131 0
0.31603089 0.11397104 0.09990561 132 161 103
0.30182973 0.14071906 0.10617440 110 139 91
0.32235458 0.14445859 0.10891094 59 106 0
0.32288006 0.14675006 0.11131912 60 108 0
0.31994393 0.14749768 0.11204994 69 123 3
0.31940287 0.15093203 0.11579119 93 142 0
0.31684607 0.14752302 0.11219078 84 131 0
0.31682703 0.15042792 0.11556876 59 108 0
0.31836167 0.14447823 0.10907372 120 166 8
0.31702363 0.14340687 0.10852617 124 172 11
0.31255829 0.14736116 0.11012635 74 120 0
0.31212845 0.14782016 0.11060290 74 121 0
0.31109887 0.14749065 0.10918573 113 160 4
0.30080006 0.16892962 0.14024268 75 125 0
0.33359241 0.15035206 0.10253169 39 81 0
0.30765522 0.08960488 0.05511291 61 89 30
0.33583429 0.10700397 0.07965031 120 123 104
0.33708686 0.10807422 0.07567305 92 92 56
0.33038512 0.10291483 0.07405327 118 125 84
0.30336151 0.15407495 0.11285915 50 92 8
0.30300644 0.15403534 0.11337941 43 80 10
0.30231988 0.11537699 0.08297282 117 134 100
0.30211931 0.11607162 0.08325925 120 140 103
0.31090745 0.17513031 0.13829313 97 145 1
0.31203577 0.17533073 0.13676900 56 98 0
0.33401114 0.10227743 0.06954133 94 94 68
0.32025808 0.16032402 0.12342916 112 154 6
0.32041982 0.15796912 0.12162063 83 134 7
0.32059681 0.15318039 0.11797173 52 100 0
0.31872249 0.09593085 0.06837120 105 125 62
0.34033614 0.11301067 0.09108832 182 177 157
0.34201190 0.11855289 0.09334061 94 139 144
0.34039605 0.11335766 0.09140924 182 177 157
0.32662782 0.10565487 0.08246558 121 153 54
0.30086803 0.16385086 0.14058077 128 149 106
0.30482230 0.17665856 0.14334862 96 147 6
0.30242184 0.14193679 0.09899949 95 129 55
0.30031845 0.13234822 0.09357484 77 110 55
0.32941377 0.10075448 0.07090460 110 112 90
0.31902978 0.09552619 0.06421018 101 113 65
0.32834870 0.11059669 0.08960804 131 167 77
0.30184713 0.14463106 0.10979436 131 167 69
0.33346528 0.10717932 0.08257184 150 152 141
0.32154143 0.09707826 0.06742933 112 122 85
0.34174123 0.11286617 0.08551988 95 91 64
0.33346623 0.17253764 0.13150144 61 110 0
0.33285630 0.17831871 0.13227059 85 140 0
0.30475253 0.13910653 0.09459118 103 154 17
0.31130704 0.13252132 0.09771205 98 151 9
0.31640181 0.12932573 0.09647404 102 155 5
0.31446028 0.12979139 0.09603514 57 114 0
0.33009356 0.12598656 0.09189488 79 135 0
0.30642286 0.13275649 0.11150461 148 173 92
0.30587965 0.13445917 0.11097908 171 200 81
0.33901492 0.10772739 0.08195914 121 128 97
0.31463343 0.16750604 0.13031518 59 104 0
0.31504804 0.17260115 0.13248643 66 113 0
0.32336169 0.15672296 0.12090032 61 110 0
0.32194772 0.15921390 0.12271526 62 111 6
0.32096538 0.18216327 0.13152690 78 129 0
0.31286299 0.18693478 0.14046323 81 128 0
0.31581315 0.18184757 0.13515913 132 179 13
0.31641597 0.09327351 0.06122843 88 99 56
0.30946901 0.09599664 0.07216594 101 121 86
0.30923241 0.16928758 0.13841753 57 109 0
0.30910462 0.17272313 0.13977949 61 111 0
0.31072974 0.18340543 0.14158405 126 174 10
0.30630443 0.17741589 0.14406149 59 112 0
0.30885470 0.12625034 0.09060586 89 140 0
0.30636969 0.12787770 0.08737610 92 145 11
0.30341196 0.13325781 0.08942000 59 95 34
0.32466722 0.17464872 0.12798898 59 113 0
0.32615829 0.10005277 0.07256140 91 108 63
0.33067012 0.14515722 0.10552432 74 119 2
0.33284667 0.14516734 0.10073328 50 95 0
0.33302149 0.14656556 0.10102817 65 106 10
0.30223903 0.13604718 0.10085951 121 153 88
0.30326837 0.14759219 0.10744810 111 145 59
0.30196083 0.14142375 0.10007796 93 128 62
0.32101837 0.12583093 0.09213024 47 98 5
0.32324493 0.12431154 0.09048962 101 151 4
0.31152844 0.12410528 0.09034857 124 173 3
0.31025106 0.12852244 0.09338799 82 137 0
0.31358552 0.12869629 0.09435244 67 122 0
0.30882144 0.09801210 0.07476761 76 97 56
0.31441027 0.09299982 0.06781615 92 110 72
0.30151907 0.13202916 0.09868886 104 135 76
0.30082235 0.12443595 0.09425651 115 138 112
0.30366999 0.13674949 0.10543726 146 173 94
0.30380419 0.13379648 0.10461943 143 174 80
0.30316469 0.12887795 0.10127880 159 188 104
0.30293187 0.12701000 0.10017599 144 174 110
0.31665853 0.09318902 0.06735504 93 112 56
0.31565556 0.10506940 0.08391868 127 163 63
0.32367739 0.10789372 0.08797661 163 192 108
0.30819193 0.09193418 0.06432121 81 103 57
0.30488113 0.14210165 0.11261752 165 199 76
0.30523324 0.09527663 0.07187889 119 144 78
0.30090547 0.12836178 0.09132010 75 103 62
0.30191615 0.13758516 0.10055590 118 149 89
0.31163353 0.09151876 0.06082206 84 107 39
0.30735475 0.12435409 0.08623032 36 93 0
0.31191558 0.16288196 0.12826388 93 141 6
0.31124666 0.16153793 0.12739553 121 167 7
0.30168715 0.12650758 0.08985263 89 114 75
0.30181125 0.12537688 0.09009608 103 130 89
0.31336379 0.09406175 0.07024062 127 154 57
0.32093430 0.10147814 0.07846151 108 131 87
0.31244981 0.09163407 0.06032390 77 100 32
0.31196904 0.09397519 0.06989791 108 132 72
0.31936046 0.10185170 0.07922839 142 170 85
0.31830984 0.09803181 0.07514449 144 170 83
0.32460597 0.10028678 0.07464390 119 132 89
0.32117575 0.10491262 0.08317026 108 132 82
0.32217917 0.09839723 0.07356420 106 120 87
0.31437817 0.10374232 0.08055814 108 134 71
0.30258948 0.11597660 0.08710178 151 176 121
0.31369615 0.09995509 0.07567404 104 130 69
0.31656712 0.10503816 0.08623934 105 139 45
0.32021874 0.18814556 0.12959294 86 129 0
0.33615899 0.19104846 0.12963367 56 103 11
0.32384720 0.18022195 0.12688789 96 138 28
0.33607695 0.19313291 0.12891631 33 76 0
0.33484921 0.20134518 0.12497883 57 91 4
0.32369074 0.16743915 0.12808399 105 155 8
0.31756648 0.16435273 0.12723966 48 91 0
0.31745425 0.16602784 0.12826864 83 129 0
0.31512085 0.16364536 0.12744847 49 87 0
0.31629699 0.16077577 0.12474070 137 182 4
0.34379068 0.14443767 0.10256409 98 122 90
0.34302533 0.14612728 0.10244794 35 59 25
0.30411628 0.14607228 0.10144796 84 114 42
0.30694774 0.15194249 0.10603862 63 112 20
0.33862939 0.13627218 0.09228068 51 89 6
0.33724630 0.14103015 0.09476873 49 74 19
0.33912358 0.13610914 0.09262686 57 84 15
0.33355224 0.13017774 0.09306159 64 119 2
0.33336002 0.13024616 0.09315075 64 119 2
0.33187234 0.13550276 0.09555069 37 89 0
0.32943359 0.13200025 0.09609152 49 105 0
0.31314141 0.12352408 0.08990534 45 102 0
0.31526065 0.12153979 0.08708868 94 142 4
0.33117193 0.13878229 0.10027847 99 150 11
0.33063051 0.13535158 0.09674296 85 136 7
0.33250353 0.14149760 0.10030650 41 91 0
0.33368930 0.14329718 0.09844013 79 125 16
0.32021001 0.13706249 0.10374771 44 93 1
0.32007092 0.13445693 0.10145321 29 75 0
0.31958756 0.13517423 0.10226513 30 83 0
0.33891201 0.17435609 0.13210511 60 119 0
0.32810408 0.14672457 0.10881759 97 149 5
0.32986805 0.14756559 0.10805675 54 105 0
0.31775507 0.13412529 0.10180421 63 118 0
0.31821802 0.13019750 0.09734642 45 103 1
0.32086137 0.12982745 0.09613243 48 99 4
0.33968785 0.15083966 0.10198911 111 133 69
0.33501932 0.15064685 0.10067184 42 84 12
0.33611646 0.17406227 0.13349988 81 140 0
0.32040280 0.12891021 0.09524147 45 95 10
0.32326099 0.13061683 0.09619310 91 139 4
0.31686491 0.16908599 0.13005772 108 153 10
0.31346133 0.17692089 0.13523640 129 171 9
0.31853801 0.17949675 0.13273360 52 93 0
0.32072163 0.17612125 0.13199015 121 164 23
0.31701863 0.18833253 0.13821006 121 166 13
0.33078894 0.15404738 0.11551047 53 105 0
0.33254224 0.15514785 0.11750201 88 136 0
0.33043337 0.15559651 0.11789531 53 105 0
0.32377452 0.18067834 0.12678856 99 142 27
0.34335184 0.16011736 0.11182044 85 120 18
0.33659273 0.18444727 0.13191432 34 85 0
0.33237946 0.15192050 0.10945908 31 79 0
0.33449408 0.17887564 0.13324052 94 147 15
0.33512136 0.18398213 0.13195954 83 136 6
0.33983043 0.16796285 0.12870453 63 117 3
0.33725938 0.15480776 0.10725371 35 80 0
0.33386490 0.15389387 0.11361287 38 83 0
0.33043075 0.16641429 0.12915629 76 130 0
0.32781348 0.16670252 0.12890463 102 150 6
0.34243211 0.16066134 0.11594202 34 82 0
0.34380001 0.16148034 0.11401658 43 87 2
0.32588077 0.16300119 0.12594230 134 183 6
0.32289156 0.16120414 0.12437857 51 97 0
0.33789894 0.15644161 0.11814202 28 71 0
0.33388188 0.15451066 0.11570130 46 90 3
0.33043423 0.12770285 0.09310734 92 149 10
0.32575768 0.12998103 0.09501577 57 110 0
0.34141988 0.15910456 0.11536699 40 90 5
0.33847621 0.15675747 0.11797947 35 80 0
0.33098099 0.16316585 0.12683998 62 118 0
0.33232108 0.16097467 0.12504718 100 154 6
0.33024627 0.16031942 0.12445820 62 121 0
0.33760819 0.11045066 0.08913315 144 149 129
0.33405524 0.11324653 0.08959989 96 108 86
0.32136667 0.10830899 0.09257181 146 179 108
0.32305154 0.10871021 0.09066200 173 205 120
0.30958289 0.09219117 0.06528240 80 103 49
0.30296588 0.14722203 0.10860981 98 131 62
0.30282357 0.15150455 0.11220118 74 105 37
0.30235562 0.15450227 0.11823198 71 108 28
0.30163842 0.15650544 0.12733121 88 128 32
0.30138391 0.15828693 0.12340768 80 115 25
0.30160639 0.15872319 0.11954395 49 92 3
0.30241975 0.15454562 0.12321848 98 136 49
0.30499813 0.15290973 0.12654807 127 156 90
0.30528614 0.15127595 0.10780075 78 114 24
0.30264840 0.15328673 0.12002183 88 127 46
0.30312747 0.14989196 0.11281081 76 112 38
0.32282105 0.17363800 0.13024844 96 146 0
0.30884826 0.13542216 0.09728006 95 155 7
0.30876684 0.14026551 0.09950163 94 149 4
0.30346921 0.11576670 0.08986840 119 147 99
0.30276293 0.11772820 0.09077554 138 164 101
0.30172366 0.16062768 0.13073882 77 115 32
0.30114231 0.15985808 0.13027731 77 109 26
0.33630478 0.10636691 0.07317246 88 90 43
0.30479211 0.14447311 0.10016263 84 114 28
0.30652320 0.14329840 0.09976603 83 129 20
0.30475125 0.13848169 0.09396565 71 121 0
0.31277668 0.13655594 0.10129938 116 172 1
0.31003469 0.13568163 0.09853583 66 122 0
0.31070739 0.14239545 0.10255636 74 124 0
0.31303009 0.13378851 0.10008995 109 164 10
0.33224323 0.13891807 0.09851377 40 89 0
0.31132385 0.09904827 0.07581402 94 110 81
0.52153420 0.22052851 -0.00832614 67 108 4
0.52477545 0.22036570 -0.01241585 74 115 11
0.51833045 0.22030301 -0.00160024 105 135 63
0.49729869 0.22818711 0.00362170 100 142 40
0.49798739 0.22954845 0.00741826 133 166 111
0.50003529 0.22581589 0.00238943 42 87 0
0.52738798 0.21048091 -0.01683638 113 137 89
0.52817345 0.21340811 -0.01419456 84 127 47
0.50630897 0.22116511 0.00017773 103 138 48
0.50411195 0.22987963 0.00295606 74 114 15
0.50993347 0.22738056 0.00191847 53 91 8
0.51378322 0.21930377 -0.00537506 76 115 8
0.52002984 0.22096777 -0.00537739 81 117 27
0.51635873 0.22333334 -0.00188430 115 146 70
0.52430129 0.21838705 -0.00840846 101 135 51
0.52739066 0.21747814 -0.01816778 72 103 10
0.52693480 0.21705800 -0.01837750 76 105 13
0.49677444 0.22661738 0.00424507 129 166 99
0.50612098 0.22562762 0.00164233 57 102 0
0.50719899 0.22323304 0.00047192 77 121 6
0.52813834 0.21459201 -0.01388541 80 121 42
0.52746814 0.21438831 -0.01256726 85 131 43
0.50164402 0.22564188 0.00507407 139 170 113
0.52220994 0.21706490 -0.00753453 101 138 60
0.52016038 0.21678326 -0.00771339 90 130 59
0.50054812 0.22973213 0.00330434 79 123 8
0.51604778 0.22460486 -0.00311193 74 114 17
0.53019893 0.21785237 -0.01897567 78 97 31
0.52334720 0.21382089 -0.01935425 64 100 10
0.51648802 0.22276279 -0.00433744 74 112 11
0.51648968 0.21947426 -0.00686429 66 104 3
0.51897085 0.22123863 -0.00695648 81 119 16
0.52032477 0.21786745 -0.01106662 53 92 1
0.52504921 0.21740639 -0.01559454 65 100 6
0.52283883 0.21860242 -0.01252858 67 105 6
0.17176422 0.44239858 0.14693706 31 61 0
0.17584084 0.44004017 0.14563970 48 81 12
0.18214492 0.43839115 0.14566883 46 79 10
0.17685609 0.43995762 0.14713047 58 86 37
0.18653305 0.42544061 0.15391950 89 125 35
0.11377272 0.46678153 0.14568715 78 101 55
0.20147212 0.41947898 0.14866237 96 133 56
0.19660336 0.42163324 0.15012191 80 115 49
0.15739124 0.44744602 0.14314525 61 106 3
0.18664318 0.43243864 0.14957620 84 116 49
0.18133532 0.41830248 0.15256828 89 132 16
0.18180513 0.41761190 0.15144749 89 127 16
0.16911589 0.42793047 0.15787254 70 106 0
0.17707840 0.42259803 0.15821058 109 150 54
0.18286370 0.41928959 0.15521069 102 143 51
0.17588709 0.42366719 0.15884449 96 134 33
0.16665560 0.43233347 0.14545670 71 103 30
0.17196965 0.42602146 0.15686913 106 142 34
0.17105292 0.42949513 0.15120083 77 111 17
0.15296644 0.44160756 0.14697430 70 105 37
0.17661755 0.42108768 0.15590778 140 177 71
0.17925143 0.41997731 0.15490212 112 151 58
0.12024096 0.46396518 0.14297712 78 103 45
0.18236774 0.43725798 0.14884162 74 101 48
0.12908711 0.46015644 0.14471933 41 80 0
0.16907762 0.43001050 0.15214726 67 97 7
0.16798902 0.43026993 0.15361872 68 102 7
0.12185980 0.46173629 0.14488052 68 98 28
0.12810826 0.45762390 0.14745301 107 133 85
0.17586944 0.42637464 0.14925894 77 106 16
0.15441594 0.44285771 0.15351176 88 130 28
0.11530919 0.46555382 0.14766756 87 109 70
0.11942639 0.46164247 0.14524025 66 94 33
0.14898092 0.44499606 0.14633352 84 121 44
0.15087025 0.44420740 0.14967239 73 105 30
0.11651565 0.46654901 0.14338022 92 123 55
0.14410904 0.45227566 0.14402162 63 112 0
0.14548737 0.45048341 0.14421691 68 117 0
0.14553782 0.44706565 0.14571957 65 102 33
0.14116454 0.45153019 0.14564522 55 104 0
0.17324577 0.43047404 0.15867940 86 127 23
0.17346498 0.42897859 0.15902643 82 121 15
0.17275116 0.43569094 0.15572698 79 113 29
0.18936831 0.42898765 0.15057755 95 132 36
0.15498649 0.44467923 0.14223009 54 99 0
0.15457502 0.44181255 0.14321086 59 104 13
0.13116510 0.45635289 0.14846224 111 139 88
0.15787931 0.44292998 0.15681972 82 125 33
0.19891228 0.41797146 0.14960514 92 127 43
0.19219737 0.42198551 0.15191022 116 158 60
0.16669671 0.44042385 0.15510494 88 123 43
0.16372435 0.44138542 0.15615904 91 128 51
0.15194041 0.45009431 0.14370222 65 113 3
0.15380710 0.44130638 0.14540470 76 113 44
0.15595526 0.44048539 0.14395811 64 108 23
0.15609124 0.43916234 0.14656314 71 108 31
0.19144106 0.41920188 0.15194616 126 169 54
0.13219851 0.45898780 0.14421847 43 85 1
0.17314829 0.43017083 0.14781454 70 99 17
0.12771259 0.45926994 0.14985187 94 124 70
0.17425156 0.42900670 0.14834206 73 102 22
0.17468359 0.42281514 0.15436947 97 133 27
0.18535438 0.43560582 0.14746810 55 86 18
0.18342088 0.42617211 0.15550300 116 159 41
0.18575144 0.42352456 0.15436569 122 163 57
0.16251262 0.43415532 0.14881079 92 128 32
0.17370795 0.42543638 0.15362217 84 118 23
0.17865877 0.43302608 0.15440616 82 117 27
0.17977445 0.43140396 0.15478675 95 132 29
0.17073438 0.44310597 0.14896576 68 94 46
0.16921368 0.43477693 0.15703517 97 139 31
0.17006634 0.43602303 0.15669796 75 114 25
0.16162354 0.44599044 0.15216833 70 100 46
0.16066928 0.44632486 0.15256470 70 101 44
0.14422728 0.44948232 0.14917673 81 113 48
0.14437908 0.44903919 0.14852922 80 112 49
0.13710400 0.45430323 0.15067980 78 109 50
0.14162567 0.45130247 0.14987920 80 112 47
0.13787597 0.45431042 0.14517696 32 82 0
0.18040304 0.43725297 0.15058407 96 124 65
0.18282086 0.43252534 0.15241095 81 115 31
0.15702638 0.44533744 0.15487230 79 122 33
0.17531282 0.42138743 0.15394653 108 141 26
0.16034244 0.43614981 0.15314117 70 108 7
0.12400641 0.46021044 0.14805189 87 117 65
0.11253522 0.46866277 0.14717652 80 107 56
0.16323829 0.43444932 0.15664375 91 132 28
0.16288328 0.43457288 0.15678321 91 132 28
0.12352428 0.46412694 0.14264989 79 105 44
0.19139394 0.42428881 0.15153943 74 108 34
0.17017445 0.43160674 0.15841845 90 130 31
0.17118889 0.43270737 0.15830243 90 131 29
0.17759250 0.43114609 0.15622261 89 124 22
0.17899220 0.43019050 0.15599601 73 109 11
0.15911354 0.44479102 0.14219731 73 122 5
0.17412645 0.42293856 0.15188035 68 102 15
0.15727793 0.43994650 0.15314890 64 106 6
0.16354087 0.43297136 0.15614262 84 123 16
0.17601816 0.43861854 0.15141049 78 110 35
0.17033032 0.43869063 0.15452145 75 109 32
0.11186882 0.46914142 0.14675376 82 111 57
0.15059932 0.44577640 0.15244712 81 122 20
0.16093776 0.43923190 0.15723412 109 150 54
0.16043460 0.44105139 0.15770938 83 125 39
0.16415319 0.43401864 0.14297444 94 130 56
0.16113029 0.43730479 0.14264414 64 110 12
0.05113430 0.46953133 -0.07022107 55 80 15
0.05241226 0.46406248 -0.07260466 76 108 41
0.05154632 0.46648985 -0.07513982 55 84 20
0.04320117 0.45438522 -0.06792122 74 112 0
0.04437821 0.45425448 -0.06697452 75 113 2
0.04357974 0.45413327 -0.06331535 102 140 19
0.04607134 0.47031093 -0.08273414 45 75 11
0.04749638 0.46910286 -0.08245870 59 85 24
0.04649861 0.46649384 -0.09539773 73 97 65
0.04716811 0.46641412 -0.09326930 71 98 65
0.04883374 0.45630467 -0.05896983 68 100 0
0.04766623 0.45475790 -0.05711769 77 111 0
0.04707438 0.45378032 -0.05763608 89 125 0
0.05160102 0.46094206 -0.06143972 67 95 10
0.05314093 0.46344477 -0.06927662 74 105 37
0.05285969 0.46163616 -0.07072350 69 100 33
0.04521580 0.45138776 -0.04368998 92 116 54
0.05069638 0.45813367 -0.06919356 63 92 0
0.05059623 0.45942324 -0.05635595 71 103 2
0.05030286 0.45786664 -0.06577132 62 90 3
0.04945893 0.45634452 -0.06680112 63 94 1
0.04590550 0.45360354 -0.05828498 93 130 0
0.04653572 0.45371172 -0.06086768 87 128 0
0.04520218 0.45381853 -0.06061437 97 137 4
0.04814598 0.45901570 -0.05045563 83 116 11
0.04827661 0.45903131 -0.05069193 80 113 8
0.05099514 0.45979571 -0.07646363 73 102 36
0.05116489 0.45933211 -0.07305797 61 92 16
0.04990203 0.46147099 -0.08273938 72 105 58
0.04783142 0.45965466 -0.08080883 66 101 33
0.04775356 0.45981619 -0.08121400 66 101 37
0.04727657 0.45482466 -0.07094263 65 99 2
0.04419059 0.45658085 -0.07614050 64 98 3
0.04181844 0.45573607 -0.07503556 63 101 0
0.04281681 0.45636573 -0.07613759 63 97 3
0.04425262 0.47035491 -0.08274330 45 77 12
0.04774819 0.46835804 -0.08914994 90 108 58
0.04332210 0.47116032 -0.08898998 35 70 6
0.04448782 0.47061244 -0.08489336 37 68 0
0.04568703 0.46914315 -0.09758007 58 81 27
0.04606834 0.46905851 -0.09545424 85 106 63
0.05073170 0.46388116 -0.08304286 80 109 55
0.05107542 0.46300185 -0.08239188 90 117 66
0.05152178 0.46422032 -0.07703982 85 111 50
0.05068702 0.46261647 -0.08351534 81 113 66
0.04944903 0.46569526 -0.08793009 59 84 65
0.05202993 0.46864247 -0.07032054 67 95 34
0.04972013 0.46945256 -0.07522480 68 93 27
0.04713752 0.47121301 -0.07037303 65 86 27
0.04623366 0.46861145 -0.10344741 48 59 43
0.04627590 0.45451245 -0.04607509 81 117 11
0.04693002 0.45623431 -0.04775540 114 152 33
0.04833441 0.46803343 -0.08732585 80 101 45
0.34158134 0.37610820 -0.09572701 62 92 4
0.34318838 0.37612969 -0.09577516 44 75 5
0.34988186 0.37425923 -0.09578048 100 130 56
0.35929251 0.37418640 -0.10852253 123 140 98
0.35657120 0.37224242 -0.10064898 136 144 103
0.33857727 0.37618411 -0.07575054 90 114 2
0.35259014 0.37603319 -0.08613825 87 110 38
0.35162747 0.37561613 -0.08343357 30 51 0
0.33790308 0.38561463 -0.09020117 82 103 12
0.33953354 0.38436764 -0.09107428 81 100 19
0.35023534 0.37372226 -0.10695425 110 140 70
0.34776172 0.37461749 -0.10874154 97 126 42
0.34772533 0.37513143 -0.10493249 104 136 51
0.33652419 0.38584852 -0.08998694 93 114 13
0.33602637 0.38663730 -0.08488087 114 136 28
0.33289045 0.38613868 -0.08713198 131 150 35
0.33427140 0.38194710 -0.09325530 127 133 61
0.33551309 0.37892061 -0.07785930 89 109 0
0.33443615 0.38018173 -0.07905243 89 109 0
0.33408356 0.38329116 -0.07961449 96 114 15
0.33171189 0.38526538 -0.08785241 116 134 34
0.33259711 0.38234004 -0.08818145 105 112 34
0.34380937 0.38291892 -0.08457366 56 72 25
0.34366855 0.38282070 -0.08618648 60 76 29
0.33823779 0.37534103 -0.08257291 90 114 0
0.34499234 0.37652874 -0.08576021 72 101 34
0.33654025 0.37595487 -0.08728489 113 124 19
0.34082994 0.38432404 -0.08211561 56 72 23
0.34231183 0.38270709 -0.08576103 58 74 25
0.35019010 0.37549925 -0.07908083 78 107 41
0.34936100 0.37709147 -0.07673125 76 102 29
0.35376823 0.37172428 -0.10920582 119 147 89
0.33881176 0.37584168 -0.09270730 69 97 0
0.34072363 0.37533092 -0.07242962 63 88 20
0.34001952 0.37762150 -0.10032333 92 116 18
0.34424266 0.37755722 -0.11119363 104 123 59
0.33524582 0.37810487 -0.09208295 84 102 3
0.33480787 0.37893364 -0.09216900 110 121 27
0.34370068 0.37677097 -0.10314861 65 100 0
0.34510365 0.37632161 -0.10224622 41 73 0
0.34644264 0.37554148 -0.09641404 87 116 36
0.34406096 0.37602997 -0.07919779 76 105 38
0.34699392 0.37599543 -0.07183210 106 128 63
0.35001135 0.38054165 -0.08535733 64 78 25
0.34283230 0.37542781 -0.08989732 23 52 0
0.33919400 0.37512636 -0.08855105 85 119 0
0.34152842 0.37540787 -0.08614547 43 74 0
0.34939685 0.37539846 -0.07166126 109 127 79
0.34661034 0.37611666 -0.07967518 80 110 40
0.34582978 0.37659639 -0.08275178 83 113 39
0.35311368 0.37238088 -0.10317796 115 144 86
0.35371789 0.37145570 -0.10769240 115 142 87
0.35123906 0.37404469 -0.10004196 113 142 78
0.33622932 0.38560131 -0.07964477 126 146 25
0.33636975 0.38014871 -0.07385781 87 106 0
0.35178971 0.37260526 -0.09541579 114 143 77
0.34733546 0.38314906 -0.08780301 58 75 20
0.33600131 0.37729633 -0.08085043 102 121 5
0.33703125 0.37622476 -0.08335017 88 111 3
0.34294158 0.37575305 -0.08050902 75 101 38
0.35476512 0.37217879 -0.09437820 142 155 109
0.34586164 0.38195607 -0.07746193 54 70 25
0.35508549 0.37392482 -0.08951750 156 167 127
0.35553837 0.37368521 -0.09159269 153 160 118
0.35249287 0.38026935 -0.09837665 60 85 19
0.35335425 0.37319347 -0.09105293 127 151 91
0.34937593 0.37701377 -0.07370658 86 102 39
0.35030949 0.37585178 -0.07204091 103 116 70
0.34624335 0.38308874 -0.08348405 55 73 25
0.35134777 0.37363681 -0.09787630 106 137 70
0.35518634 0.37085572 -0.10022721 134 153 107
0.35219643 0.37898177 -0.09031082 59 79 16
0.34577689 0.37590930 -0.10914733 59 86 5
0.34648180 0.37610969 -0.11239440 116 144 85
0.34634462 0.37564659 -0.10983488 57 85 10
0.32228792 0.32252342 0.09626898 134 172 0
0.32084483 0.32291305 0.09341436 123 164 0
0.32068029 0.32442388 0.09189139 127 164 0
0.30475903 0.35352516 0.09396670 98 134 0
0.33285415 0.30197632 0.12458359 123 165 19
0.33214077 0.30343220 0.12114285 107 147 0
0.33021688 0.30288056 0.12028114 145 184 15
0.30385929 0.33915469 0.07188238 182 199 71
0.30108473 0.34233281 0.07125832 168 191 48
0.30352533 0.33265090 0.07338825 133 160 31
0.26466373 0.40662023 0.13976753 54 91 0
0.31552517 0.34789741 0.06750701 108 135 4
0.31652614 0.34862116 0.06651137 87 116 0
0.30158371 0.35113752 0.09893409 111 150 0
0.30641973 0.36107323 0.05943702 151 173 38
0.32000923 0.30997586 0.10383844 117 157 0
0.31852490 0.31040537 0.09970238 113 149 1
0.31954956 0.30684420 0.10543332 117 158 0
0.29141784 0.35169512 0.09965511 64 100 0
0.30235490 0.35682526 0.08922274 65 103 2
0.29867724 0.35321471 0.09470152 62 103 1
0.27542928 0.40241894 0.12584934 90 120 8
0.30741793 0.33066830 0.07812999 110 146 10
0.30771255 0.32985860 0.07932780 116 155 4
0.27279001 0.39411402 0.12159301 107 144 5
0.27052063 0.39194494 0.12315498 150 189 12
0.26662901 0.39140251 0.12753229 150 188 17
0.32347000 0.36645874 0.03645016 113 131 11
0.32542053 0.36777166 0.02989941 113 132 14
0.30760768 0.31285879 0.07912544 182 206 94
0.31857929 0.36616385 0.04030681 97 126 0
0.31477085 0.36451516 0.04548486 108 136 0
0.31767547 0.36636624 0.04010856 87 116 0
0.31187207 0.31182155 0.08361806 153 192 15
0.32254714 0.35403204 0.05445243 145 156 90
0.28542426 0.39702210 0.11030659 123 158 4
0.28146732 0.39412844 0.11293416 128 163 7
0.28176728 0.39590693 0.11333276 127 163 5
0.31925729 0.35588908 0.05722059 61 95 0
0.30565166 0.34574372 0.10820671 154 184 24
0.30019093 0.34793332 0.11005692 123 159 1
0.29817450 0.35015842 0.10749281 116 149 0
0.33194801 0.36287525 0.07613114 154 183 39
0.31250027 0.32109591 0.08732396 156 191 1
0.31280586 0.31743571 0.09131069 167 199 10
0.20204712 0.42327142 0.14765516 69 103 43
0.20006976 0.42361990 0.14806339 86 120 60
0.23722422 0.39891249 0.13843435 169 204 114
0.28161514 0.33274758 0.12978333 75 115 0
0.19965491 0.43107846 0.14622377 69 101 28
0.26443940 0.38680726 0.12289575 141 176 58
0.26033458 0.39021894 0.12933937 145 190 45
0.19620135 0.43235528 0.14535636 78 109 41
0.19180553 0.43278694 0.14547439 60 90 18
0.27128708 0.40074608 0.12834196 95 127 4
0.27433828 0.39871266 0.12311717 120 153 12
0.30848774 0.34439713 0.10453380 167 201 3
0.27575940 0.38887480 0.11621031 127 165 0
0.27585626 0.39016119 0.11661293 147 182 0
0.27554184 0.39185598 0.11762409 117 153 0
0.27201009 0.39213353 0.12157457 126 164 1
0.26687008 0.39639121 0.13002653 123 168 13
0.26935285 0.39821994 0.12853016 110 148 1
0.26891965 0.39813218 0.12897676 110 148 0
0.31428418 0.34611264 0.10276975 126 152 25
0.30251896 0.34362173 0.10917205 156 191 11
0.32249483 0.32655826 0.09258711 138 177 0
0.32215652 0.32974061 0.08894938 144 183 4
0.32228771 0.33059058 0.08822570 148 186 2
0.20496443 0.42661983 0.14626464 53 84 24
0.28532559 0.32996196 0.12736374 85 124 5
0.32112443 0.30554104 0.10972805 151 192 4
0.32163036 0.30553722 0.11108254 121 164 0
0.32175785 0.29543653 0.11850326 119 163 18
0.31923428 0.32426596 0.07992891 148 176 3
0.31902969 0.32677093 0.07985693 155 182 5
0.29291025 0.35106832 0.10615568 111 144 1
0.33007318 0.32688639 0.08100946 171 188 22
0.27729094 0.39807057 0.11847451 130 164 7
0.32289678 0.35260811 0.05681835 149 158 91
0.32374892 0.35622692 0.05367337 132 145 63
0.29300338 0.34554276 0.07784972 107 143 7
0.30243406 0.37303209 0.05106412 92 114 6
0.30637571 0.37437671 0.04525924 121 145 33
0.30594367 0.37780893 0.04972260 85 112 9
0.30531976 0.31562406 0.07860194 151 183 50
0.29428595 0.34067240 0.07700194 139 172 3
0.32120907 0.28720641 0.12223145 132 173 35
0.32978514 0.32258499 0.08552721 190 201 21
0.31167704 0.31869268 0.08459690 124 160 2
0.27375457 0.35908344 0.10777328 135 177 0
0.27190274 0.37181813 0.10455094 131 166 2
0.27205360 0.36425737 0.10763927 150 190 5
0.26933411 0.36517391 0.10507045 135 170 6
0.27544510 0.36258313 0.10904169 137 180 5
0.27324566 0.36079082 0.10780957 156 199 0
0.26405284 0.39138249 0.12889268 139 181 33
0.26022291 0.39393747 0.13339759 150 194 49
0.26485765 0.39058670 0.12767550 131 175 30
0.27918008 0.37120014 0.10556912 121 150 10
0.27603382 0.36918542 0.10737401 114 152 0
0.32822803 0.32438132 0.08184344 162 182 22
0.27222338 0.40486920 0.13365437 76 108 9
0.27732569 0.38899112 0.11465895 143 177 3
0.28000700 0.38786948 0.11170264 136 168 0
0.27840996 0.38835219 0.11338564 143 176 1
0.28028607 0.40161139 0.11685097 99 128 9
0.28066191 0.39989084 0.11586151 121 155 9
0.28513202 0.39784163 0.11089613 107 140 0
0.32372415 0.35908335 0.04643812 131 146 55
0.32156271 0.36457860 0.04009895 109 130 3
0.30971086 0.31320775 0.08000878 168 206 43
0.33345792 0.32136354 0.09611662 188 197 18
0.32506174 0.33231390 0.08948865 148 185 7
0.31273654 0.31578970 0.08998083 122 158 0
0.29997626 0.36409789 0.07220166 81 113 2
0.30015555 0.36172342 0.07590408 74 107 2
0.21292941 0.41491452 0.14574371 109 148 83
0.21193877 0.41516480 0.14600125 118 156 95
0.29946336 0.36948663 0.07779403 89 115 14
0.30028379 0.36712730 0.07545423 110 138 15
0.26756820 0.40271908 0.13681999 120 155 25
0.26660210 0.40384221 0.14078555 95 130 10
0.30162638 0.37109479 0.06726688 108 134 9
0.30122802 0.36906824 0.06555112 85 116 0
0.30115336 0.36911348 0.06616206 86 116 0
0.30122769 0.36911854 0.06477033 85 114 0
0.30292174 0.37259039 0.05918812 92 120 7
0.30416426 0.37885180 0.06707239 75 104 12
0.30687150 0.37984443 0.06147219 74 99 8
0.29970706 0.35284933 0.08338625 84 118 0
0.29965472 0.35703880 0.07970586 87 121 1
0.26424906 0.36691853 0.10693851 64 97 16
0.26524794 0.36848184 0.10626912 112 148 0
0.26628682 0.36631992 0.10574023 123 158 4
0.26678184 0.36458412 0.10551585 140 175 11
0.33058667 0.36842528 0.06868761 149 169 58
0.33056635 0.36858976 0.06774793 155 176 75
0.26705512 0.36271721 0.10549960 126 152 17
0.26208928 0.36919743 0.11221982 121 169 47
0.26262668 0.37818050 0.11945913 155 190 44
0.25751162 0.37881687 0.12145467 149 190 50
0.25129464 0.38387427 0.12597418 195 234 93
0.27738997 0.36004075 0.10596406 146 185 42
0.33573440 0.29923895 0.12999272 132 186 49
0.33732909 0.30375794 0.12405799 115 157 19
0.27238518 0.36703646 0.11123901 141 182 41
0.26280642 0.37023112 0.11566862 172 214 104
0.26953015 0.36968064 0.11296832 154 195 39
0.25679019 0.37365460 0.11139122 73 105 20
0.26181400 0.37156028 0.11648910 174 214 99
0.26427662 0.37727362 0.11843055 155 191 43
0.26347235 0.37282127 0.11650764 146 188 50
0.31219792 0.32611951 0.08165545 183 200 60
0.31342840 0.32506007 0.08202472 186 202 52
0.31894210 0.35078129 0.06308612 60 89 0
0.31053334 0.33849519 0.07389703 192 208 60
0.21301676 0.41683406 0.14629419 140 176 130
0.21255003 0.41632506 0.14622179 145 181 137
0.30104667 0.34556267 0.11109584 121 160 0
0.30213448 0.34435347 0.10944039 171 206 2
0.31777596 0.32507512 0.08895308 136 172 0
0.31663686 0.32679227 0.08775351 156 192 6
0.31923845 0.33047900 0.08495521 109 146 4
0.25468263 0.40019456 0.14370523 141 182 54
0.27401015 0.36664349 0.11032706 132 174 26
0.27391896 0.36724871 0.11053926 136 176 28
0.29248405 0.35050631 0.10007498 91 127 0
0.33769336 0.32845944 0.09766019 135 187 43
0.33586159 0.33123386 0.09562910 188 230 92
0.31812513 0.31324902 0.09716596 110 146 0
0.31603178 0.30778566 0.09991077 131 170 19
0.26677093 0.37193730 0.10490942 154 189 7
0.31919602 0.27021709 0.13003495 121 164 22
0.30694285 0.34926564 0.10088407 138 172 0
0.31724885 0.34082332 0.07531000 143 169 33
0.33126101 0.29830307 0.12928709 98 139 7
0.32925266 0.30169761 0.12135409 119 156 1
0.32635927 0.29272637 0.13041697 112 151 10
0.32658371 0.29300261 0.13033439 112 151 10
0.31798095 0.26577157 0.13097651 115 151 55
0.31742734 0.26563084 0.13019198 128 161 72
0.29352042 0.35732234 0.07163113 124 155 18
0.29227751 0.35625273 0.07304214 104 135 6
0.33139125 0.32627836 0.09711438 161 201 42
0.33514079 0.32396913 0.10040639 137 175 27
0.33440334 0.32604587 0.09837907 141 178 36
0.30653495 0.34591439 0.07967340 146 172 13
0.33801180 0.32080755 0.09003870 164 182 2
0.32212502 0.27428237 0.13363847 118 158 10
0.32034639 0.29229674 0.11733988 127 168 14
0.31916735 0.28910652 0.11703081 101 147 0
0.26598620 0.40002349 0.13588819 138 181 16
0.26512927 0.39965850 0.13723701 132 171 26
0.26345503 0.39699730 0.13553354 143 184 43
0.25809029 0.40161723 0.14585203 125 172 8
0.25136957 0.40483457 0.14664784 156 197 79
0.32122517 0.28841197 0.12160208 141 180 39
0.26562852 0.40406048 0.14300172 109 149 16
0.26469740 0.40681115 0.14622310 95 122 15
0.25400370 0.39797589 0.14034894 133 177 40
0.25745231 0.39835149 0.14217535 138 182 27
0.25701168 0.39192489 0.13281994 155 200 47
0.25563273 0.39333421 0.13474190 143 187 28
0.31116602 0.34578028 0.09865355 94 113 31
0.31255919 0.34575474 0.09441697 80 117 24
0.30352357 0.37264606 0.04888959 129 150 49
0.30197987 0.37240615 0.05144644 89 111 2
0.27407253 0.37065613 0.11103697 125 165 6
0.27490139 0.37125400 0.11020895 117 157 0
0.28286326 0.36667356 0.10271292 130 161 5
0.31167147 0.34638631 0.09175297 115 147 2
0.31580618 0.34573546 0.09729192 137 164 31
0.30887049 0.33599335 0.07526208 184 204 57
0.30941549 0.33633277 0.07550223 196 204 93
0.30312449 0.35084388 0.08425068 120 153 4
0.27241799 0.37503678 0.10515360 106 139 0
0.29415974 0.34929737 0.11005316 130 165 0
0.29329166 0.34973899 0.10930181 138 170 1
0.31972903 0.27718645 0.12856829 107 146 19
0.27354309 0.37682533 0.11133730 123 158 2
0.27310613 0.37510434 0.11182159 144 177 8
0.27799186 0.37449721 0.10709190 130 166 0
0.21615338 0.40493855 0.14166991 93 130 50
0.21552707 0.40619877 0.14296128 139 174 94
0.22109827 0.40238950 0.14084959 104 143 50
0.30024686 0.36868137 0.05621754 98 122 10
0.32957375 0.37404445 0.06432560 97 122 39
0.30127901 0.37055054 0.05665964 70 95 0
0.29753372 0.35097817 0.10012395 110 144 0
0.29937080 0.35100695 0.09904798 130 162 0
0.30322021 0.37398982 0.05625975 80 108 0
0.30910322 0.34606722 0.08094586 151 176 10
0.30373004 0.34774190 0.10818055 131 167 0
0.32070366 0.36592591 0.03894056 95 118 2
0.32037187 0.36508381 0.04107883 106 128 4
0.24764110 0.38443819 0.12415639 137 175 54
0.23789389 0.38990417 0.12678617 130 166 44
0.24867201 0.38596258 0.12713338 184 222 103
0.23748924 0.39075449 0.12786047 135 175 50
0.24396287 0.38636243 0.12493449 148 188 39
0.26001808 0.37792468 0.10951781 134 164 18
0.25972494 0.37900239 0.10980329 106 136 4
0.32686594 0.38003626 0.05375258 95 117 35
0.32705390 0.37968293 0.05336803 92 113 34
0.29977828 0.36682734 0.06444612 80 107 0
0.29895154 0.34651610 0.11296663 118 156 0
0.31330189 0.31117767 0.09201282 153 192 11
0.29362959 0.36933225 0.08663248 90 115 14
0.29497775 0.36967048 0.08434775 85 113 3
0.29863331 0.37012970 0.07827281 87 114 7
0.29171795 0.36357015 0.09108570 100 134 14
0.28671998 0.36699930 0.09777813 144 166 40
0.28902701 0.36495703 0.09483077 95 124 8
0.29057664 0.35917562 0.09567359 92 127 25
0.28580505 0.36364338 0.10036424 113 141 20
0.30018318 0.36650687 0.07976803 107 140 10
0.30173618 0.36460641 0.08004990 104 141 2
0.29829878 0.36737779 0.08063827 82 109 0
0.30071437 0.35825545 0.08148091 87 122 0
0.30284908 0.35093781 0.10335138 127 163 3
0.30781111 0.37669882 0.04445972 112 133 28
0.30809864 0.37722003 0.04406125 112 133 32
0.30966872 0.38006949 0.04188944 105 126 35
0.29927900 0.36935878 0.07539267 81 108 3
0.30341399 0.37761572 0.06911715 88 116 16
0.30181381 0.37402201 0.07101295 72 100 0
0.31768644 0.34440508 0.07097326 127 149 25
0.31707904 0.34695622 0.06784064 98 129 2
0.30003464 0.34291425 0.11397568 135 171 21
0.25123382 0.38704297 0.12861393 165 206 65
0.25384417 0.39077291 0.13200445 150 183 66
0.25193369 0.39136440 0.13244733 148 187 68
0.26235482 0.39810675 0.13963479 126 166 15
0.25954887 0.39816186 0.14090830 136 181 16
0.30877757 0.35042331 0.09301090 146 173 32
0.30782875 0.35247949 0.09406712 138 169 16
0.31296790 0.35747582 0.05869341 107 138 1
0.31372830 0.35987091 0.05661405 108 139 0
0.31183842 0.36788294 0.04055726 93 116 2
0.31281593 0.37016869 0.03653346 77 102 1
0.31633037 0.36869174 0.03697209 122 141 13
0.32373813 0.32890898 0.07765742 162 182 22
0.32377091 0.32875499 0.07765541 160 179 25
0.30259523 0.32193092 0.07629491 145 176 21
0.30422372 0.32072142 0.07848964 204 219 64
0.29795343 0.36203298 0.08613656 100 136 14
0.29986373 0.36265138 0.08378120 87 125 4
0.30063686 0.36320588 0.08241819 104 136 1
0.24719654 0.38568541 0.11721066 43 80 0
0.24922746 0.38207784 0.11711709 51 94 4
0.32508630 0.32488140 0.09619268 159 195 7
0.32413623 0.32296205 0.09725984 158 193 5
0.32141265 0.31436512 0.10286078 158 195 4
0.32102656 0.31720424 0.09906200 150 193 2
0.32147524 0.31739837 0.09979586 159 202 11
0.31943122 0.26488551 0.13353978 121 161 36
0.31678179 0.26033127 0.13121876 102 135 56
0.31577766 0.31361666 0.09562448 119 154 0
0.31717733 0.31657904 0.09433865 163 194 15
0.30601436 0.36798495 0.04703406 103 125 17
0.30679882 0.37270960 0.04355168 121 144 30
0.29788390 0.36134556 0.07385902 74 102 0
0.29868463 0.36175489 0.07385815 91 125 2
0.33094278 0.32403067 0.09888829 128 175 11
0.32927266 0.32356277 0.09891894 166 203 28
0.27453336 0.35912925 0.10532779 154 191 59
0.30042204 0.36733681 0.05372832 128 145 39
0.30067158 0.36557242 0.05355830 137 157 46
0.25365922 0.39224386 0.13337207 128 166 44
0.25379792 0.39244041 0.13401616 134 173 46
0.26556033 0.38332772 0.11917490 154 188 50
0.29344472 0.35535121 0.09585832 75 113 4
0.28162977 0.36285955 0.10352530 136 169 4
0.28102347 0.36003688 0.10365916 133 170 12
0.32453325 0.35926974 0.05009520 118 134 46
0.30882961 0.34789482 0.10737029 149 182 17
0.31210521 0.34534907 0.10575324 173 196 43
0.32306942 0.38281319 0.06619829 127 150 42
0.32506561 0.38146749 0.06124378 132 154 56
0.32619569 0.35261816 0.06731078 162 186 40
0.32385266 0.32355037 0.07892382 120 139 14
0.25396779 0.37821308 0.11337379 88 126 23
0.31774744 0.33029896 0.08492848 115 152 0
0.31370834 0.32913360 0.08436348 134 173 0
0.31039542 0.32907948 0.08278336 179 214 24
0.33061612 0.37084520 0.05441377 115 133 71
0.33039671 0.36658746 0.06100165 117 132 31
0.33063662 0.36768734 0.05286869 174 184 69
0.33068198 0.37074038 0.05207437 141 155 76
0.33965001 0.31766883 0.10293112 101 124 0
0.29899025 0.34545207 0.07715563 114 141 0
0.30264750 0.34551847 0.07845233 144 169 16
0.25106221 0.39536026 0.13801205 127 169 33
0.33051905 0.36876422 0.06542352 116 132 44
0.33050358 0.36774740 0.06532528 114 129 34
0.32835710 0.37767309 0.06952579 117 145 34
0.32897282 0.37643853 0.07068999 123 152 36
0.30174458 0.36107394 0.06272128 167 189 52
0.32708856 0.35807022 0.06064846 125 150 32
0.32797641 0.36043933 0.05817108 152 171 43
0.27861971 0.36610743 0.10666306 119 156 0
0.27861148 0.36651552 0.10669419 121 154 1
0.31066203 0.33382955 0.07949647 144 178 4
0.31250054 0.33658302 0.07857748 132 168 0
0.30978951 0.33102670 0.08080041 145 177 4
0.31106448 0.35334471 0.06262541 117 141 5
0.31194386 0.35025454 0.06601897 91 118 5
0.32510847 0.35112283 0.06844880 147 171 47
0.26675075 0.40684742 0.13899034 62 98 0
0.28531533 0.37459487 0.09929134 103 130 0
0.28491011 0.37484607 0.09990986 102 134 0
0.32401365 0.35258386 0.06301294 134 157 53
0.32788935 0.35257214 0.07535659 105 127 27
0.30074501 0.35291627 0.08506258 81 118 4
0.30364397 0.35177428 0.08491222 114 146 1
0.29791957 0.36441359 0.06332498 120 143 29
0.29139143 0.36949161 0.09000855 105 131 8
0.29013714 0.36836535 0.09215399 138 161 45
0.28397003 0.36781368 0.10185284 112 139 10
0.28509670 0.36739615 0.10020319 127 152 32
0.20712908 0.42957187 0.14289677 60 91 31
0.32623488 0.36262679 0.04737300 103 127 33
0.32589272 0.36266586 0.04148954 118 136 34
0.29581082 0.33949384 0.07492434 126 155 13
0.26051071 0.38594243 0.12336524 139 177 42
0.25572973 0.39074069 0.13202283 129 169 34
0.25655377 0.38813490 0.12805313 161 199 52
0.25683579 0.38917610 0.12938684 142 182 50
0.29713219 0.34517068 0.07046571 163 191 29
0.30150095 0.34816498 0.06802376 114 138 0
0.22794397 0.40037519 0.13990583 112 148 42
0.23201306 0.40045258 0.13915743 154 190 94
0.22499317 0.40347037 0.14194201 164 199 117
0.31787586 0.34635732 0.08657298 119 145 20
0.31782436 0.34982127 0.08976892 144 179 37
0.26651812 0.36452726 0.10844399 64 97 8
0.26837590 0.36251050 0.10634137 126 152 27
0.26301271 0.36903304 0.11369104 155 197 95
0.22458422 0.40128413 0.14081520 122 157 63
0.31019148 0.33553168 0.07806911 127 162 0
0.30908975 0.33075288 0.08045281 141 174 5
0.30769435 0.33303973 0.07774114 120 158 0
0.32016119 0.28085804 0.12429865 95 137 9
0.28868967 0.37231025 0.09375472 147 168 37
0.29111123 0.37351692 0.08985593 134 160 9
0.29179761 0.37234110 0.08869234 140 166 31
0.32277679 0.27198952 0.13502687 123 163 14
0.23734781 0.39059278 0.12407746 84 121 5
0.24278703 0.38508797 0.12170738 97 136 17
0.23926269 0.39196250 0.13206422 168 208 75
0.24095948 0.38958502 0.12828302 166 203 74
0.23653635 0.39255771 0.13098377 157 193 45
0.24060431 0.39105615 0.13123466 173 211 74
0.23531279 0.39394397 0.13298222 178 214 54
0.22763419 0.40855834 0.14399938 140 174 113
0.31325907 0.33162925 0.08065025 151 174 34
0.31447443 0.32803056 0.08179333 148 167 39
0.26058710 0.38491592 0.12248458 159 198 45
0.25983253 0.38120666 0.12166065 166 202 42
0.23246850 0.39374456 0.12976761 108 141 36
0.23279315 0.39425251 0.13122571 139 177 42
0.33540416 0.32084146 0.10109731 168 188 5
0.33563581 0.32117617 0.09993808 167 186 6
0.33074647 0.36382437 0.07038532 168 189 68
0.31421533 0.31788281 0.09243445 121 157 0
0.31369880 0.32409039 0.08943973 141 182 2
0.30112496 0.34447801 0.07646784 128 158 10
0.32418922 0.35474193 0.05892971 128 149 56
0.28527963 0.36318022 0.10123646 117 145 24
0.28416595 0.35820216 0.10426101 127 164 9
0.23717706 0.39539522 0.13611966 175 213 92
0.24424092 0.38957050 0.13089521 163 203 89
0.24415459 0.39378989 0.13439244 154 193 86
0.30255476 0.34913900 0.10702273 146 178 7
0.33019719 0.37332246 0.05448016 127 147 76
0.33021477 0.37238529 0.05920972 96 116 47
0.32958585 0.37580916 0.05471095 112 135 57
0.32951018 0.35819536 0.06655421 121 142 25
0.32985425 0.35908470 0.06584973 128 149 32
0.32196066 0.34688047 0.07006326 126 143 49
0.22499223 0.39986220 0.13641055 123 152 34
0.22274332 0.40068522 0.13780531 105 143 24
0.21740459 0.40902364 0.14474128 104 140 68
0.21812458 0.41023585 0.14487693 120 157 88
0.32010302 0.35768884 0.05432468 64 92 7
0.20622692 0.41234824 0.14658865 105 143 66
0.20464891 0.41594923 0.14764853 128 168 72
0.20913137 0.40883291 0.14526555 106 146 75
0.20701621 0.40815401 0.14510503 127 171 84
0.29743469 0.35211188 0.09608696 62 102 3
0.21156169 0.40655527 0.14380883 102 139 61
0.22181557 0.39987656 0.13506867 76 109 20
0.22208707 0.40773168 0.14404574 155 191 119
0.21960914 0.40924421 0.14479077 138 174 112
0.22473426 0.40949011 0.14471285 131 166 110
0.29550657 0.36012343 0.07112615 109 138 20
0.33225596 0.32267815 0.08571856 148 167 15
0.28059158 0.36888865 0.10572085 134 165 12
0.28278944 0.36759678 0.10346226 103 135 0
0.30357590 0.36532673 0.05381854 159 176 64
0.30318487 0.36557490 0.05143299 143 159 50
0.31082740 0.36283466 0.05426760 85 113 0
0.27413964 0.38398370 0.11437029 149 183 47
0.27089256 0.38389969 0.11625026 149 184 56
0.26553231 0.38402963 0.11948790 145 177 52
0.30048645 0.35138044 0.06595295 174 194 61
0.29702899 0.35096818 0.06868643 159 180 41
0.29775009 0.35500303 0.06708223 158 179 38
0.29804125 0.35586074 0.07943682 82 116 0
0.26885211 0.37626794 0.10523236 129 165 0
0.31845576 0.30465022 0.10452478 105 140 0
0.32070029 0.30555615 0.10873805 154 194 10
0.31912914 0.30456993 0.10600160 126 161 5
0.28002831 0.35794684 0.10595519 114 154 0
0.29508355 0.33934242 0.11636795 141 176 30
0.29637709 0.35996008 0.08948528 90 127 13
0.29729071 0.35945582 0.08944605 83 119 11
0.19585954 0.43083560 0.14766023 69 97 38
0.31525913 0.33901086 0.08266452 118 154 2
0.31552291 0.33732533 0.08172925 120 160 1
0.31614861 0.33922943 0.08429670 118 156 0
0.31011349 0.34596053 0.08265190 158 182 24
0.30782992 0.34190950 0.07580098 134 166 5
0.32427639 0.31297511 0.10629883 152 191 14
0.32927537 0.31811604 0.10334488 173 212 35
0.32359672 0.31419966 0.10493108 133 172 0
0.31131354 0.37320638 0.03603312 55 84 2
0.31134880 0.37887609 0.03554087 114 133 51
0.31237212 0.37284952 0.03432116 88 109 34
0.29287902 0.34773180 0.07945129 106 139 9
0.30657020 0.34484163 0.07752617 136 159 9
0.29627112 0.35664693 0.06778504 137 161 23
0.29359144 0.35405460 0.07059388 132 162 16
0.30514145 0.34765595 0.08222556 139 167 7
0.30376470 0.34827840 0.08256964 127 156 4
0.31223550 0.34269229 0.08026247 108 140 0
0.25817880 0.37215167 0.11227240 77 119 9
0.25589657 0.37465137 0.11566487 95 140 23
0.25666517 0.37361541 0.11387434 90 138 16
0.32492715 0.35582384 0.05978844 137 163 56
0.32631421 0.35621119 0.06192837 165 187 50
0.29397872 0.34041938 0.11453135 126 166 0
0.29434291 0.34338179 0.11526240 140 183 5
0.32299012 0.34289923 0.07547879 119 143 33
0.25715470 0.38211584 0.11143559 90 121 4
0.25621906 0.37885097 0.11151962 77 113 5
0.31785628 0.33709857 0.07744269 128 150 26
0.31698835 0.33982134 0.07632882 151 179 34
0.31523800 0.36183771 0.05328125 84 115 0
0.32615215 0.32656625 0.07779485 138 154 29
0.32315654 0.32358241 0.07866589 118 139 8
0.32938051 0.37476590 0.06131013 115 136 61
0.31483388 0.33103767 0.08083311 136 160 20
0.31610689 0.32679966 0.08177929 151 180 2
0.31978539 0.33604833 0.08408831 122 161 8
0.31712747 0.33960128 0.08438228 120 157 2
0.31608886 0.33954629 0.08444729 125 161 0
0.30639493 0.36530077 0.04891174 76 105 0
0.30717212 0.36365610 0.05583202 128 147 29
0.30698484 0.32201174 0.07864690 170 202 31
0.30739719 0.32034129 0.07857729 185 219 44
0.31022549 0.32225642 0.08260219 139 180 2
0.30900496 0.32317284 0.08117360 158 196 15
0.32025826 0.35915369 0.05181291 66 91 0
0.31854567 0.28514433 0.11851049 104 148 1
0.27402213 0.35727593 0.10568408 191 232 65
0.32382390 0.30124378 0.11621127 145 184 13
0.32303491 0.29945087 0.11686850 126 170 11
0.32611459 0.30433783 0.11582919 126 165 0
0.32345942 0.29593870 0.11975067 137 179 19
